ply
format ascii 1.0
element vertex 1237
property float x
property float y
property float z
property uchar red
property uchar green
property uchar blue
end_header
-1.424207 0.640893 3.390000 53 41 47
-1.424207 0.646827 3.390000 55 40 46
-1.410343 0.646407 3.357000 58 43 53
-1.410343 0.652284 3.357000 56 43 60
-1.424207 0.664630 3.390000 55 44 45
-0.890654 0.534393 2.120000 115 77 121
-0.896116 0.541403 2.133000 121 88 100
-0.896116 0.545137 2.133000 128 112 84
-0.890654 0.545526 2.120000 75 73 69
-0.890654 0.549237 2.120000 22 1 39
-0.890654 0.552948 2.120000 27 6 9
-0.890654 0.556659 2.120000 32 17 20
-0.890654 0.560370 2.120000 31 11 31
-0.890654 0.564081 2.120000 30 7 23
-0.890654 0.567792 2.120000 25 10 15
-0.890654 0.571503 2.120000 21 16 16
-0.890654 0.575214 2.120000 19 13 17
-0.885193 0.575375 2.107000 18 14 16
-0.885193 0.579064 2.107000 24 12 15
-0.890654 0.586348 2.120000 31 9 14
-0.890654 0.590059 2.120000 25 9 14
-0.890654 0.593770 2.120000 19 10 22
-0.890654 0.597481 2.120000 19 9 30
-0.890654 0.601192 2.120000 19 10 24
-0.890654 0.604903 2.120000 16 8 19
-0.890654 0.608614 2.120000 14 9 17
-0.890654 0.612325 2.120000 14 7 15
-0.890654 0.616036 2.120000 14 7 16
-0.890654 0.619747 2.120000 17 8 17
-0.890654 0.623458 2.120000 20 10 16
-0.890654 0.627169 2.120000 19 10 15
-0.890654 0.630880 2.120000 17 11 27
-0.890654 0.634591 2.120000 18 7 39
-0.896116 0.642217 2.133000 18 4 23
-0.890654 0.642014 2.120000 16 8 7
-0.890654 0.645725 2.120000 13 12 7
-0.890654 0.649436 2.120000 18 9 7
-0.885193 0.649142 2.107000 24 9 13
-0.882672 0.650971 2.101000 22 10 20
-0.759997 0.639664 1.809000 201 178 180
-0.752015 0.636079 1.790000 208 182 187
-0.752015 0.639213 1.790000 214 187 185
-0.752015 0.642346 1.790000 215 189 184
-0.752015 0.645480 1.790000 217 191 185
-0.748234 0.645352 1.781000 214 189 186
-0.744453 0.645192 1.772000 211 188 191
-0.736891 0.641709 1.754000 210 184 197
-0.733109 0.641471 1.745000 209 183 189
-0.733109 0.644525 1.745000 208 182 181
-0.729328 0.644240 1.736000 207 184 183
-0.722186 0.640940 1.719000 207 182 186
-0.718825 0.640953 1.711000 208 178 178
-0.718825 0.643948 1.711000 212 179 171
-0.718825 0.646943 1.711000 216 179 182
-0.715044 0.646519 1.702000 217 184 194
-0.704541 0.639958 1.677000 218 188 194
-0.701180 0.639827 1.669000 216 189 195
-0.694458 0.636587 1.653000 214 184 194
-0.694458 0.639481 1.653000 214 184 194
-0.691097 0.639265 1.645000 215 185 197
-0.691097 0.642145 1.645000 215 188 201
-1.465967 0.521369 3.504000 84 60 42
-1.476008 0.531116 3.528000 85 62 49
-1.461365 0.531961 3.493000 73 59 56
-1.461365 0.538076 3.493000 62 47 61
-1.476008 0.549643 3.528000 91 41 66
-1.461365 0.550305 3.493000 120 73 61
-1.432079 0.545269 3.423000 105 75 56
-1.432079 0.551261 3.423000 91 71 65
-1.432079 0.557253 3.423000 90 76 75
-1.432079 0.563245 3.423000 90 72 82
-1.432079 0.569236 3.423000 85 66 89
-1.432079 0.575228 3.423000 81 63 81
-1.432079 0.581220 3.423000 83 63 73
-1.446722 0.593217 3.458000 85 69 70
-1.432079 0.593204 3.423000 81 81 67
-1.432079 0.599196 3.423000 78 70 71
-1.418273 0.599354 3.390000 102 71 75
-1.418273 0.605288 3.390000 127 81 68
-1.418273 0.611222 3.390000 100 85 60
-1.404467 0.611149 3.357000 73 62 58
-1.404467 0.617025 3.357000 63 54 55
-1.404467 0.622901 3.357000 53 36 49
-1.404467 0.628778 3.357000 53 30 44
-1.418273 0.640893 3.390000 54 34 46
-1.418273 0.646827 3.390000 55 36 48
-1.418273 0.652762 3.390000 56 39 50
-1.418273 0.658696 3.390000 57 41 53
-1.418273 0.664630 3.390000 58 43 46
-0.892382 0.537670 2.133000 107 93 117
-0.892382 0.541403 2.133000 116 82 97
-0.892382 0.545137 2.133000 126 90 71
-0.892382 0.548871 2.133000 73 83 45
-0.886943 0.549237 2.120000 20 22 26
-0.886943 0.552948 2.120000 25 2 7
-0.886943 0.556659 2.120000 31 10 18
-0.886943 0.560370 2.120000 30 11 29
-0.886943 0.564081 2.120000 30 7 22
-0.886943 0.567792 2.120000 25 7 16
-0.886943 0.571503 2.120000 21 13 19
-0.886943 0.575214 2.120000 19 16 22
-0.881505 0.575375 2.107000 18 15 16
-0.881505 0.579064 2.107000 27 15 10
-0.886943 0.586348 2.120000 37 12 10
-0.886943 0.590059 2.120000 28 10 9
-0.886943 0.593770 2.120000 20 11 15
-0.886943 0.597481 2.120000 18 10 22
-0.886943 0.601192 2.120000 17 9 19
-0.886943 0.604903 2.120000 16 9 17
-0.886943 0.608614 2.120000 15 8 16
-0.886943 0.612325 2.120000 14 8 15
-0.886943 0.616036 2.120000 14 7 16
-0.886943 0.619747 2.120000 18 7 17
-0.886943 0.623458 2.120000 22 8 17
-0.886943 0.627169 2.120000 19 7 17
-0.886943 0.630880 2.120000 17 8 22
-0.886943 0.634591 2.120000 17 6 27
-0.892382 0.642217 2.133000 18 5 17
-0.886943 0.642014 2.120000 16 7 8
-0.886943 0.645725 2.120000 15 9 8
-0.886943 0.649436 2.120000 23 9 8
-0.881505 0.649142 2.107000 31 9 11
-0.881505 0.652830 2.107000 28 12 14
-0.756831 0.639664 1.809000 205 180 179
-0.748881 0.636079 1.790000 208 191 188
-0.748881 0.639213 1.790000 212 188 187
-0.748881 0.642346 1.790000 213 186 186
-0.748881 0.645480 1.790000 215 188 182
-0.745116 0.645352 1.781000 214 189 179
-0.741351 0.645192 1.772000 213 187 185
-0.733820 0.641709 1.754000 212 186 192
-0.731728 0.642941 1.749000 211 185 187
-0.731728 0.646003 1.749000 209 182 183
-0.726290 0.644240 1.736000 208 183 186
-0.719177 0.640940 1.719000 209 182 189
-0.719177 0.643950 1.719000 210 180 183
-0.715830 0.643948 1.711000 214 179 177
-0.715830 0.646943 1.711000 218 182 184
-0.708718 0.643480 1.694000 220 186 190
-0.708718 0.646446 1.694000 223 188 188
-0.701606 0.642894 1.677000 219 196 187
-0.694912 0.639668 1.661000 216 189 189
-0.691565 0.639481 1.653000 219 187 191
-0.688218 0.639265 1.645000 223 188 193
-0.688218 0.642145 1.645000 221 191 196
-1.464833 0.523155 3.516000 82 55 52
-1.469832 0.531116 3.528000 83 59 54
-1.455250 0.531961 3.493000 77 55 56
-1.455250 0.538076 3.493000 71 50 55
-1.469832 0.549643 3.528000 88 55 55
-1.455250 0.550305 3.493000 106 76 50
-1.426087 0.545269 3.423000 96 70 45
-1.426087 0.551261 3.423000 86 68 58
-1.426087 0.557253 3.423000 87 72 72
-1.426087 0.563245 3.423000 88 71 73
-1.426087 0.569236 3.423000 84 65 75
-1.440669 0.581110 3.458000 80 60 70
-1.440669 0.587163 3.458000 83 62 65
-1.440669 0.593217 3.458000 86 58 67
-1.440669 0.599270 3.458000 85 74 69
-1.426087 0.599196 3.423000 84 80 70
-1.412338 0.599354 3.390000 96 78 71
-1.412338 0.605288 3.390000 109 78 63
-1.398590 0.605272 3.357000 90 69 55
-1.398590 0.611149 3.357000 70 47 55
-1.398590 0.617025 3.357000 61 43 55
-1.398590 0.622901 3.357000 53 34 47
-1.398590 0.628778 3.357000 53 32 39
-1.412338 0.640893 3.390000 54 32 44
-1.412338 0.646827 3.390000 55 37 50
-1.412338 0.652762 3.390000 57 38 48
-1.412338 0.658696 3.390000 56 41 47
-1.412338 0.664630 3.390000 55 43 47
-0.905730 0.532782 2.174000 239 201 180
-0.905730 0.536588 2.174000 234 217 211
-0.894481 0.541199 2.147000 110 68 114
-0.888648 0.541403 2.133000 112 83 95
-0.888648 0.545137 2.133000 115 84 58
-0.888648 0.548871 2.133000 67 55 21
-0.888648 0.552605 2.133000 20 2 13
-0.888648 0.556339 2.133000 26 4 6
-0.888648 0.560073 2.133000 32 11 16
-0.888648 0.563806 2.133000 31 8 27
-0.883232 0.564081 2.120000 30 6 22
-0.883232 0.567792 2.120000 27 9 18
-0.883232 0.571503 2.120000 23 14 23
-0.883232 0.575214 2.120000 19 16 28
-0.883232 0.578925 2.120000 14 18 17
-0.883232 0.582636 2.120000 21 17 6
-0.883232 0.586348 2.120000 27 16 5
-0.883232 0.590059 2.120000 22 14 5
-0.883232 0.593770 2.120000 18 14 9
-0.883232 0.597481 2.120000 17 11 14
-0.883232 0.601192 2.120000 17 7 15
-0.883232 0.604903 2.120000 15 7 16
-0.883232 0.608614 2.120000 14 7 15
-0.883232 0.612325 2.120000 12 7 15
-0.883232 0.616036 2.120000 11 8 16
-0.883232 0.619747 2.120000 15 8 17
-0.883232 0.623458 2.120000 19 9 18
-0.883232 0.627169 2.120000 17 9 19
-0.883232 0.630880 2.120000 15 9 17
-0.883232 0.634591 2.120000 18 5 15
-0.888648 0.642217 2.133000 20 3 12
-0.888648 0.645950 2.133000 17 6 9
-0.888648 0.649684 2.133000 14 9 9
-0.883232 0.649436 2.120000 18 8 10
-0.883232 0.653147 2.120000 22 7 9
-0.883232 0.656858 2.120000 23 10 9
-0.745748 0.636079 1.790000 211 186 190
-0.745748 0.639213 1.790000 213 191 189
-0.745748 0.642346 1.790000 215 188 188
-0.745748 0.645480 1.790000 217 188 180
-0.741998 0.645352 1.781000 216 188 172
-0.738249 0.645192 1.772000 214 187 179
-0.734499 0.645002 1.763000 214 187 187
-0.730750 0.644779 1.754000 215 190 186
-0.730750 0.647850 1.754000 212 187 186
-0.723251 0.644240 1.736000 210 184 189
-0.716168 0.640940 1.719000 211 186 193
-0.712835 0.640953 1.711000 212 181 188
-0.712835 0.643948 1.711000 214 182 184
-0.712835 0.646943 1.711000 217 186 185
-0.709086 0.646519 1.702000 218 187 187
-0.705753 0.646446 1.694000 219 185 183
-0.698670 0.642894 1.677000 217 189 179
-0.692004 0.639668 1.661000 214 189 183
-0.688671 0.639481 1.653000 216 188 188
-0.685338 0.639265 1.645000 218 189 189
-0.685338 0.642145 1.645000 217 189 191
-1.463656 0.518764 3.528000 80 47 54
-1.463656 0.524940 3.528000 81 47 53
-1.463656 0.531116 3.528000 82 52 50
-1.463656 0.537292 3.528000 81 54 47
-1.463656 0.543467 3.528000 80 51 47
-1.463656 0.549643 3.528000 86 56 48
-1.463656 0.555819 3.528000 93 62 53
-1.449136 0.556419 3.493000 87 63 58
-1.449136 0.562534 3.493000 82 68 68
-1.434615 0.562950 3.458000 84 73 78
-1.420095 0.563245 3.423000 86 72 73
-1.434615 0.575057 3.458000 83 64 69
-1.434615 0.581110 3.458000 80 62 61
-1.434615 0.587163 3.458000 83 67 53
-1.434615 0.593217 3.458000 87 69 61
-1.420095 0.593204 3.423000 88 80 70
-1.420095 0.599196 3.423000 90 81 75
-1.406404 0.599354 3.390000 91 84 80
-1.392714 0.599396 3.357000 92 77 65
-1.379023 0.599322 3.324000 80 69 51
-1.379023 0.605141 3.324000 68 49 51
-1.379023 0.610960 3.324000 60 39 52
-1.392714 0.622901 3.357000 53 36 39
-1.392714 0.628778 3.357000 53 34 25
-1.392714 0.634654 3.357000 54 36 33
-1.392714 0.640531 3.357000 56 42 42
-1.406404 0.652762 3.390000 59 41 44
-1.406404 0.658696 3.390000 55 42 47
-1.406404 0.664630 3.390000 52 40 47
-0.901924 0.532782 2.174000 254 207 173
-0.901924 0.536588 2.174000 237 232 207
-0.890723 0.533682 2.147000 220 162 167
-0.890723 0.537440 2.147000 166 86 127
-0.884915 0.537670 2.133000 113 86 117
-0.884915 0.541403 2.133000 108 101 106
-0.884915 0.545137 2.133000 104 79 60
-0.884915 0.548871 2.133000 62 51 14
-0.884915 0.552605 2.133000 21 14 9
-0.884915 0.556339 2.133000 27 3 5
-0.884915 0.560073 2.133000 34 7 18
-0.884915 0.563806 2.133000 32 7 31
-0.884915 0.567540 2.133000 31 7 23
-0.884915 0.571274 2.133000 28 9 15
-0.879521 0.571503 2.120000 26 13 18
-0.879521 0.575214 2.120000 18 17 21
-0.879521 0.578925 2.120000 11 17 13
-0.879521 0.582636 2.120000 14 19 5
-0.879521 0.586348 2.120000 18 17 4
-0.884915 0.593677 2.133000 17 17 3
-0.884915 0.597411 2.133000 16 15 6
-0.884915 0.601145 2.133000 16 13 9
-0.879521 0.601192 2.120000 17 9 10
-0.884915 0.608612 2.133000 15 7 11
-0.879521 0.608614 2.120000 13 7 12
-0.879521 0.612325 2.120000 11 8 13
-0.879521 0.616036 2.120000 9 8 12
-0.879521 0.619747 2.120000 13 10 11
-0.879521 0.623458 2.120000 17 10 12
-0.879521 0.627169 2.120000 15 11 13
-0.879521 0.630880 2.120000 14 8 11
-0.884915 0.638483 2.133000 18 5 9
-0.884915 0.642217 2.133000 23 5 7
-0.884915 0.645950 2.133000 18 6 5
-0.884915 0.649684 2.133000 14 8 11
-0.884915 0.653418 2.133000 14 8 17
-0.884915 0.657152 2.133000 14 9 12
-0.884915 0.660886 2.133000 18 12 7
-0.879521 0.660569 2.120000 23 9 5
-0.742615 0.636079 1.790000 214 188 194
-0.742615 0.639213 1.790000 215 189 193
-0.742615 0.642346 1.790000 217 190 191
-0.742615 0.645480 1.790000 220 190 185
-0.738881 0.645352 1.781000 218 189 179
-0.738881 0.648469 1.781000 216 188 184
-0.735147 0.648294 1.772000 217 188 188
-0.731413 0.648088 1.763000 219 190 188
-0.727679 0.647850 1.754000 216 193 187
-0.723946 0.647580 1.745000 213 192 193
-0.713159 0.640940 1.719000 213 199 198
-0.709840 0.640953 1.711000 214 187 192
-0.709840 0.643948 1.711000 215 184 185
-0.709840 0.646943 1.711000 216 189 187
-0.706106 0.646519 1.702000 216 194 188
-0.702787 0.646446 1.694000 216 186 187
-0.699468 0.646344 1.686000 214 186 186
-0.689097 0.639668 1.661000 213 187 189
-0.685778 0.639481 1.653000 213 188 191
-0.682459 0.639265 1.645000 214 188 191
-0.682459 0.642145 1.645000 214 189 191
-1.443021 0.513618 3.493000 81 37 58
-1.457480 0.524940 3.528000 79 45 54
-1.457480 0.531116 3.528000 78 49 46
-1.457480 0.537292 3.528000 79 50 38
-1.443021 0.538076 3.493000 81 46 39
-1.457480 0.549643 3.528000 86 54 41
-1.443021 0.550305 3.493000 92 55 56
-1.443021 0.556419 3.493000 90 61 71
-1.443021 0.562534 3.493000 88 68 77
-1.443021 0.568648 3.493000 88 78 84
-1.414103 0.563245 3.423000 88 82 73
-1.428562 0.575057 3.458000 81 70 63
-1.428562 0.581110 3.458000 74 59 52
-1.428562 0.587163 3.458000 80 65 41
-1.428562 0.593217 3.458000 87 73 56
-1.414103 0.593204 3.423000 87 78 71
-1.400470 0.593420 3.390000 88 82 80
-1.400470 0.599354 3.390000 87 79 89
-1.386837 0.599396 3.357000 86 78 68
-1.373204 0.599322 3.324000 75 65 47
-1.360398 0.599497 3.293000 64 43 48
-1.373204 0.610960 3.324000 55 38 50
-1.373204 0.616778 3.324000 46 39 31
-1.386837 0.628778 3.357000 51 36 12
-1.386837 0.634654 3.357000 56 39 23
-1.386837 0.640531 3.357000 60 40 34
-1.386837 0.646407 3.357000 65 42 41
-1.386837 0.652284 3.357000 57 38 48
-1.400470 0.664630 3.390000 50 35 47
-0.898119 0.528977 2.174000 198 179 131
-0.898119 0.532782 2.174000 254 201 167
-0.892335 0.533132 2.160000 223 200 204
-0.886964 0.533682 2.147000 192 140 163
-0.886964 0.537440 2.147000 155 92 122
-0.886964 0.541199 2.147000 118 91 120
-0.881181 0.541403 2.133000 106 94 118
-0.881181 0.545137 2.133000 95 82 62
-0.881181 0.548871 2.133000 56 38 7
-0.881181 0.552605 2.133000 17 2 6
-0.886964 0.559990 2.147000 24 6 5
-0.886964 0.563749 2.147000 31 10 20
-0.881181 0.563806 2.133000 30 9 35
-0.881181 0.567540 2.133000 28 9 23
-0.881181 0.571274 2.133000 25 10 12
-0.875810 0.571503 2.120000 22 12 13
-0.875810 0.575214 2.120000 17 14 14
-0.875810 0.578925 2.120000 13 14 9
-0.875810 0.582636 2.120000 17 17 5
-0.881181 0.589943 2.133000 22 19 3
-0.881181 0.593677 2.133000 19 15 1
-0.881181 0.597411 2.133000 17 16 3
-0.881181 0.601145 2.133000 16 13 5
-0.881181 0.604878 2.133000 15 12 5
-0.881181 0.608612 2.133000 14 9 6
-0.881181 0.612346 2.133000 14 9 8
-0.881181 0.616080 2.133000 16 8 11
-0.881181 0.619814 2.133000 19 8 8
-0.881181 0.623547 2.133000 18 11 5
-0.881181 0.627281 2.133000 17 13 6
-0.881181 0.631015 2.133000 13 11 8
-0.881181 0.634749 2.133000 10 10 6
-0.881181 0.638483 2.133000 15 9 4
-0.881181 0.642217 2.133000 20 9 3
-0.886964 0.650190 2.147000 16 8 2
-0.881181 0.649684 2.133000 12 9 13
-0.881181 0.653418 2.133000 11 9 25
-0.881181 0.657152 2.133000 9 11 15
-0.881181 0.660886 2.133000 15 10 6
-0.875810 0.660569 2.120000 21 4 3
-0.875810 0.664280 2.120000 29 11 1
-0.743613 0.639633 1.800000 216 192 199
-0.739481 0.639213 1.790000 215 188 197
-0.739481 0.642346 1.790000 216 191 195
-0.735763 0.642234 1.781000 217 193 191
-0.735763 0.645352 1.781000 216 190 187
-0.735763 0.648469 1.781000 216 191 188
-0.732045 0.648294 1.772000 216 190 190
-0.728327 0.648088 1.763000 217 191 189
-0.728327 0.651174 1.763000 216 193 189
-0.720891 0.647580 1.745000 214 194 196
-0.710150 0.640940 1.719000 215 192 204
-0.706845 0.640953 1.711000 216 186 195
-0.706845 0.643948 1.711000 216 188 187
-0.706845 0.646943 1.711000 215 192 188
-0.703127 0.646519 1.702000 214 189 190
-0.699822 0.646446 1.694000 214 180 192
-0.696517 0.646344 1.686000 213 185 194
-0.689494 0.642749 1.669000 213 185 194
-0.686189 0.642576 1.661000 213 186 195
-0.682884 0.642374 1.653000 212 189 193
-0.679579 0.642145 1.645000 213 190 191
-1.436907 0.513618 3.493000 82 31 61
-1.451305 0.524940 3.528000 78 48 58
-1.451305 0.531116 3.528000 75 49 51
-1.451305 0.537292 3.528000 78 52 45
-1.451305 0.543467 3.528000 82 53 49
-1.451305 0.549643 3.528000 87 61 54
-1.436907 0.550305 3.493000 92 61 63
-1.436907 0.556419 3.493000 93 61 73
-1.436907 0.562534 3.493000 95 77 86
-1.436907 0.568648 3.493000 92 90 99
-1.408111 0.563245 3.423000 90 80 86
-1.422509 0.575057 3.458000 79 76 73
-1.436907 0.586992 3.493000 68 65 67
-1.422509 0.587163 3.458000 78 62 60
-1.436907 0.599221 3.493000 88 74 68
-1.422509 0.599270 3.458000 87 79 75
-1.394536 0.593420 3.390000 86 71 76
-1.394536 0.599354 3.390000 83 72 76
-1.380961 0.599396 3.357000 80 70 61
-1.354633 0.593733 3.293000 70 71 46
-1.354633 0.599497 3.293000 60 44 49
-1.354633 0.605262 3.293000 49 34 52
-1.367386 0.616778 3.324000 39 35 38
-1.380961 0.628778 3.357000 48 34 25
-1.380961 0.634654 3.357000 58 36 31
-1.380961 0.640531 3.357000 65 39 38
-1.394536 0.652762 3.390000 72 39 42
-1.394536 0.658696 3.390000 60 33 47
-1.394536 0.664630 3.390000 48 38 48
-1.394536 0.670564 3.390000 57 46 48
-1.408111 0.683084 3.423000 67 46 53
-0.888554 0.525570 2.160000 210 202 155
-0.888554 0.529351 2.160000 254 209 182
-0.888554 0.533132 2.160000 209 228 209
-0.883206 0.533682 2.147000 164 132 157
-0.883206 0.537440 2.147000 143 51 106
-0.883206 0.541199 2.147000 123 86 108
-0.883206 0.544957 2.147000 104 104 110
-0.883206 0.548715 2.147000 86 60 59
-0.883206 0.552474 2.147000 50 17 7
-0.883206 0.556232 2.147000 14 9 10
-0.883206 0.559990 2.147000 21 9 14
-0.883206 0.563749 2.147000 29 10 22
-0.883206 0.567507 2.147000 27 10 31
-0.877447 0.567540 2.133000 26 10 22
-0.877447 0.571274 2.133000 22 10 13
-0.877447 0.575008 2.133000 19 12 11
-0.877447 0.578742 2.133000 17 14 9
-0.877447 0.582475 2.133000 15 15 12
-0.872099 0.582636 2.120000 20 17 15
-0.877447 0.589943 2.133000 26 14 10
-0.877447 0.593677 2.133000 22 10 5
-0.877447 0.597411 2.133000 19 13 11
-0.877447 0.601145 2.133000 16 14 18
-0.877447 0.604878 2.133000 14 11 14
-0.877447 0.608612 2.133000 14 9 11
-0.877447 0.612346 2.133000 15 9 11
-0.877447 0.616080 2.133000 22 10 11
-0.877447 0.619814 2.133000 30 10 10
-0.877447 0.623547 2.133000 23 14 9
-0.877447 0.627281 2.133000 17 11 8
-0.877447 0.631015 2.133000 11 10 7
-0.877447 0.634749 2.133000 6 12 5
-0.877447 0.638483 2.133000 11 15 4
-0.877447 0.642217 2.133000 17 11 4
-0.877447 0.645950 2.133000 14 9 4
-0.877447 0.649684 2.133000 11 10 11
-0.877447 0.653418 2.133000 8 11 18
-0.877447 0.657152 2.133000 5 11 13
-0.877447 0.660886 2.133000 12 13 9
-0.872099 0.660569 2.120000 20 9 10
-0.872099 0.664280 2.120000 29 12 11
-0.740461 0.639633 1.800000 218 199 200
-0.736348 0.639213 1.790000 216 192 197
-0.736348 0.642346 1.790000 215 193 194
-0.732646 0.642234 1.781000 215 192 189
-0.732646 0.645352 1.781000 215 189 185
-0.728943 0.645192 1.772000 216 190 189
-0.728943 0.648294 1.772000 216 191 193
-0.725241 0.648088 1.763000 216 191 190
-0.721539 0.647850 1.754000 216 195 188
-0.717836 0.647580 1.745000 216 193 192
-0.710843 0.644296 1.728000 217 192 197
-0.707141 0.643950 1.719000 219 189 192
-0.703850 0.643948 1.711000 217 191 187
-0.700148 0.643540 1.702000 215 191 190
-0.700148 0.646519 1.702000 213 190 193
-0.696857 0.646446 1.694000 212 188 195
-0.693566 0.646344 1.686000 213 189 198
-0.686572 0.642749 1.669000 214 188 196
-0.683281 0.642576 1.661000 212 185 195
-0.679991 0.642374 1.653000 211 189 193
-0.676700 0.642145 1.645000 213 193 191
-1.445129 0.518764 3.528000 84 39 64
-1.445129 0.524940 3.528000 82 47 62
-1.445129 0.531116 3.528000 79 50 57
-1.445129 0.537292 3.528000 83 52 53
-1.445129 0.543467 3.528000 87 55 60
-1.445129 0.549643 3.528000 90 59 67
-1.430793 0.550305 3.493000 93 69 71
-1.430793 0.556419 3.493000 100 76 76
-1.430793 0.562534 3.493000 107 91 95
-1.430793 0.568648 3.493000 99 85 114
-1.416456 0.569004 3.458000 91 72 99
-1.416456 0.575057 3.458000 84 67 84
-1.430793 0.586992 3.493000 76 63 82
-1.416456 0.587163 3.458000 85 73 80
-1.430793 0.599221 3.493000 95 83 80
-1.416456 0.599270 3.458000 85 69 80
-1.388602 0.593420 3.390000 76 54 72
-1.388602 0.599354 3.390000 74 59 64
-1.375085 0.599396 3.357000 72 60 54
-1.361567 0.599322 3.324000 64 51 45
-1.348869 0.599497 3.293000 57 28 49
-1.348869 0.605262 3.293000 51 33 54
-1.361567 0.616778 3.324000 44 35 46
-1.375085 0.628778 3.357000 50 34 39
-1.375085 0.634654 3.357000 56 35 40
-1.388602 0.646827 3.390000 59 37 42
-1.388602 0.652762 3.390000 63 44 44
-1.388602 0.658696 3.390000 52 40 47
-1.402119 0.671100 3.423000 41 39 48
-1.402119 0.677092 3.423000 53 45 50
-1.402119 0.683084 3.423000 65 46 55
-0.890507 0.528977 2.174000 223 194 179
-0.884773 0.529351 2.160000 254 205 197
-0.884773 0.533132 2.160000 194 184 215
-0.879448 0.533682 2.147000 135 112 152
-0.879448 0.537440 2.147000 132 82 90
-0.879448 0.541199 2.147000 129 101 96
-0.879448 0.544957 2.147000 103 90 103
-0.879448 0.548715 2.147000 77 39 55
-0.879448 0.552474 2.147000 46 16 8
-0.879448 0.556232 2.147000 15 8 15
-0.884773 0.563381 2.160000 21 11 23
-0.884773 0.567162 2.160000 27 14 25
-0.884773 0.570943 2.160000 23 12 28
-0.879448 0.571265 2.147000 20 12 21
-0.879448 0.575024 2.147000 18 10 14
-0.873713 0.575008 2.133000 17 12 9
-0.873713 0.578742 2.133000 13 13 5
-0.873713 0.582475 2.133000 10 15 15
-0.873713 0.586209 2.133000 16 14 26
-0.873713 0.589943 2.133000 22 12 17
-0.873713 0.593677 2.133000 20 11 9
-0.873713 0.597411 2.133000 18 12 20
-0.873713 0.601145 2.133000 17 12 31
-0.873713 0.604878 2.133000 16 9 24
-0.873713 0.608612 2.133000 15 9 17
-0.873713 0.612346 2.133000 14 9 14
-0.873713 0.616080 2.133000 19 9 11
-0.873713 0.619814 2.133000 23 9 12
-0.873713 0.623547 2.133000 19 10 14
-0.873713 0.627281 2.133000 15 10 10
-0.873713 0.631015 2.133000 14 10 7
-0.873713 0.634749 2.133000 14 13 5
-0.873713 0.638483 2.133000 14 13 4
-0.873713 0.642217 2.133000 15 12 5
-0.873713 0.645950 2.133000 13 11 6
-0.873713 0.649684 2.133000 10 12 8
-0.873713 0.653418 2.133000 9 10 11
-0.868388 0.653147 2.120000 7 10 11
-0.868388 0.656858 2.120000 13 11 12
-0.868388 0.660569 2.120000 20 9 17
-0.868388 0.664280 2.120000 31 19 22
-0.733215 0.636079 1.790000 218 194 201
-0.733215 0.639213 1.790000 215 189 197
-0.729528 0.639116 1.781000 216 191 193
-0.729528 0.642234 1.781000 216 194 188
-0.729528 0.645352 1.781000 217 191 184
-0.725841 0.645192 1.772000 217 191 190
-0.725841 0.648294 1.772000 217 191 197
-0.722155 0.648088 1.763000 217 190 192
-0.718468 0.647850 1.754000 216 191 187
-0.714782 0.647580 1.745000 216 192 188
-0.707818 0.644296 1.728000 216 190 190
-0.704132 0.643950 1.719000 217 188 189
-0.700855 0.643948 1.711000 215 189 188
-0.697168 0.643540 1.702000 214 191 192
-0.693891 0.643480 1.694000 214 191 196
-0.690614 0.643393 1.686000 214 194 199
-0.686928 0.642894 1.677000 215 193 203
-0.683651 0.642749 1.669000 216 195 199
-0.680374 0.642576 1.661000 215 190 195
-0.677097 0.642374 1.653000 215 190 193
-0.673820 0.642145 1.645000 216 186 192
-1.424678 0.513618 3.493000 87 51 84
-1.438953 0.524940 3.528000 85 51 57
-1.438953 0.531116 3.528000 84 53 58
-1.438953 0.537292 3.528000 88 54 60
-1.424678 0.538076 3.493000 92 56 65
-1.438953 0.549643 3.528000 93 54 71
-1.438953 0.555819 3.528000 94 64 73
-1.438953 0.561995 3.528000 106 83 75
-1.424678 0.562534 3.493000 119 84 86
-1.424678 0.568648 3.493000 106 87 96
-1.410402 0.569004 3.458000 93 69 81
-1.424678 0.580877 3.493000 89 60 66
-1.424678 0.586992 3.493000 85 73 69
-1.410402 0.587163 3.458000 93 84 72
-1.424678 0.599221 3.493000 102 76 70
-1.410402 0.599270 3.458000 84 60 69
-1.396127 0.599196 3.423000 67 53 57
-1.396127 0.605188 3.423000 65 51 45
-1.382668 0.605288 3.390000 64 51 47
-1.369208 0.605272 3.357000 59 47 49
-1.355748 0.605141 3.324000 55 40 52
-1.355748 0.610960 3.324000 52 36 55
-1.369208 0.622901 3.357000 50 38 47
-1.369208 0.628778 3.357000 52 32 40
-1.369208 0.634654 3.357000 55 33 31
-1.369208 0.640531 3.357000 54 30 22
-1.382668 0.652762 3.390000 54 40 33
-1.382668 0.658696 3.390000 44 45 44
-1.382668 0.664630 3.390000 34 44 47
-1.382668 0.670564 3.390000 49 50 51
-1.382668 0.676498 3.390000 64 48 56
-0.875689 0.526165 2.147000 254 199 187
-0.875689 0.529924 2.147000 180 194 195
-0.869979 0.530202 2.133000 106 108 139
-0.875689 0.537440 2.147000 121 66 83
-0.875689 0.541199 2.147000 136 99 85
-0.875689 0.544957 2.147000 102 116 88
-0.880992 0.552038 2.160000 69 41 46
-0.880992 0.555819 2.160000 43 1 4
-0.880992 0.559600 2.160000 17 9 14
-0.880992 0.563381 2.160000 21 13 24
-0.880992 0.567162 2.160000 25 13 23
-0.875689 0.567507 2.147000 20 12 23
-0.875689 0.571265 2.147000 15 10 19
-0.875689 0.575024 2.147000 15 9 15
-0.869979 0.575008 2.133000 15 11 10
-0.869979 0.578742 2.133000 10 14 5
-0.869979 0.582475 2.133000 5 12 12
-0.875689 0.590057 2.147000 12 13 20
-0.875689 0.593815 2.147000 19 12 15
-0.875689 0.597574 2.147000 18 12 10
-0.875689 0.601332 2.147000 17 10 14
-0.875689 0.605090 2.147000 17 13 19
-0.875689 0.608849 2.147000 18 11 15
-0.875689 0.612607 2.147000 16 9 10
-0.875689 0.616365 2.147000 14 8 11
-0.875689 0.620124 2.147000 15 9 13
-0.875689 0.623882 2.147000 17 8 17
-0.875689 0.627640 2.147000 15 9 22
-0.875689 0.631398 2.147000 14 9 13
-0.875689 0.635157 2.147000 18 10 4
-0.869979 0.634749 2.133000 22 9 3
-0.869979 0.638483 2.133000 18 12 3
-0.869979 0.642217 2.133000 14 11 4
-0.869979 0.645950 2.133000 12 11 4
-0.869979 0.649684 2.133000 10 11 8
-0.869979 0.653418 2.133000 10 9 11
-0.864677 0.653147 2.120000 10 9 12
-0.864677 0.656858 2.120000 15 13 13
-0.864677 0.660569 2.120000 20 10 20
-0.859375 0.660206 2.107000 33 11 27
-0.730081 0.636079 1.790000 218 192 198
-0.726410 0.635999 1.781000 215 190 195
-0.726410 0.639116 1.781000 216 191 193
-0.726410 0.642234 1.781000 218 191 189
-0.726410 0.645352 1.781000 218 192 185
-0.722739 0.645192 1.772000 219 192 188
-0.719069 0.645002 1.763000 218 193 191
-0.719069 0.648088 1.763000 218 191 188
-0.715398 0.647850 1.754000 217 189 185
-0.711727 0.647580 1.745000 216 189 186
-0.708056 0.647279 1.736000 215 190 187
-0.701123 0.643950 1.719000 215 188 181
-0.697860 0.643948 1.711000 214 186 176
-0.694189 0.643540 1.702000 214 190 186
-0.690926 0.643480 1.694000 215 192 197
-0.687663 0.643393 1.686000 216 193 197
-0.683992 0.642894 1.677000 217 196 197
-0.680729 0.642749 1.669000 218 193 195
-0.677466 0.642576 1.661000 218 191 192
-0.674203 0.642374 1.653000 219 188 192
-0.670940 0.642145 1.645000 219 183 192
-1.418563 0.513618 3.493000 96 56 104
-1.432777 0.524940 3.528000 91 56 53
-1.432777 0.531116 3.528000 86 58 60
-1.432777 0.537292 3.528000 88 57 67
-1.432777 0.543467 3.528000 90 62 71
-1.432777 0.549643 3.528000 87 58 76
-1.432777 0.555819 3.528000 85 53 75
-1.432777 0.561995 3.528000 95 74 75
-1.432777 0.568170 3.528000 105 78 77
-1.432777 0.574346 3.528000 100 70 79
-1.418563 0.574763 3.493000 94 58 64
-1.418563 0.580877 3.493000 96 71 49
-1.418563 0.586992 3.493000 98 88 56
-1.418563 0.593106 3.493000 103 84 64
-1.418563 0.599221 3.493000 108 80 61
-1.404349 0.599270 3.458000 86 65 58
-1.390135 0.599196 3.423000 64 47 42
-1.376734 0.599354 3.390000 64 48 26
-1.376734 0.605288 3.390000 64 49 39
-1.363332 0.605272 3.357000 62 49 53
-1.349930 0.605141 3.324000 60 49 54
-1.363332 0.617025 3.357000 59 47 56
-1.363332 0.622901 3.357000 58 49 49
-1.349930 0.622597 3.324000 58 41 42
-1.363332 0.634654 3.357000 57 36 22
-1.363332 0.640531 3.357000 56 38 2
-1.363332 0.646407 3.357000 56 44 21
-1.363332 0.652284 3.357000 51 45 41
-1.376734 0.664630 3.390000 46 43 46
-1.376734 0.670564 3.390000 58 49 52
-1.390135 0.683084 3.423000 70 50 58
-0.871931 0.526165 2.147000 253 216 177
-0.871931 0.529924 2.147000 180 165 175
-0.871931 0.533682 2.147000 107 63 125
-0.877211 0.540695 2.160000 122 79 76
-0.877211 0.544476 2.160000 136 115 75
-0.877211 0.548257 2.160000 92 82 74
-0.877211 0.552038 2.160000 48 11 37
-0.877211 0.555819 2.160000 36 7 1
-0.877211 0.559600 2.160000 24 15 13
-0.877211 0.563381 2.160000 25 13 25
-0.877211 0.567162 2.160000 25 14 22
-0.871931 0.567507 2.147000 20 11 19
-0.871931 0.571265 2.147000 16 10 17
-0.871931 0.575024 2.147000 15 9 16
-0.866246 0.575008 2.133000 15 9 10
-0.866246 0.578742 2.133000 13 10 5
-0.871931 0.586299 2.147000 11 8 9
-0.877211 0.593630 2.160000 15 11 14
-0.877211 0.597411 2.160000 19 12 12
-0.871931 0.597574 2.147000 17 9 11
-0.871931 0.601332 2.147000 15 5 9
-0.871931 0.605090 2.147000 16 10 8
-0.871931 0.608849 2.147000 17 13 6
-0.871931 0.612607 2.147000 15 9 4
-0.871931 0.616365 2.147000 14 7 9
-0.871931 0.620124 2.147000 15 8 15
-0.871931 0.623882 2.147000 17 7 22
-0.871931 0.627640 2.147000 15 7 30
-0.871931 0.631398 2.147000 13 7 15
-0.871931 0.635157 2.147000 16 6 1
-0.871931 0.638915 2.147000 19 3 2
-0.866246 0.638483 2.133000 16 8 3
-0.866246 0.642217 2.133000 14 10 3
-0.866246 0.645950 2.133000 13 11 3
-0.866246 0.649684 2.133000 12 12 7
-0.866246 0.653418 2.133000 9 10 12
-0.860966 0.653147 2.120000 7 7 13
-0.855687 0.652830 2.107000 15 10 15
-0.855687 0.656518 2.107000 23 8 23
-0.850407 0.656133 2.094000 35 24 32
-0.766747 0.637854 1.888000 99 79 83
-0.762686 0.637763 1.878000 107 77 90
-0.766747 0.644464 1.888000 112 91 97
-0.766747 0.647769 1.888000 118 104 92
-0.728978 0.637856 1.795000 218 194 195
-0.726948 0.639213 1.790000 217 190 194
-0.726948 0.642346 1.790000 217 189 194
-0.723293 0.642234 1.781000 218 189 190
-0.723293 0.645352 1.781000 219 190 187
-0.719638 0.645192 1.772000 221 193 186
-0.719638 0.648294 1.772000 222 193 185
-0.715983 0.648088 1.763000 223 194 184
-0.712328 0.647850 1.754000 220 191 184
-0.708672 0.647580 1.745000 217 188 184
-0.705017 0.647279 1.736000 216 189 185
-0.698114 0.643950 1.719000 216 190 174
-0.694865 0.643948 1.711000 215 189 164
-0.691209 0.643540 1.702000 215 191 181
-0.687961 0.643480 1.694000 216 191 198
-0.684712 0.643393 1.686000 217 192 195
-0.681057 0.642894 1.677000 218 192 192
-0.677808 0.642749 1.669000 220 192 191
-0.674559 0.642576 1.661000 219 190 190
-0.671310 0.642374 1.653000 219 191 191
-0.668061 0.642145 1.645000 219 186 193
-1.412449 0.513618 3.493000 105 74 100
-1.426602 0.524940 3.528000 97 59 68
-1.426602 0.531116 3.528000 89 62 70
-1.426602 0.537292 3.528000 88 57 72
-1.426602 0.543467 3.528000 88 60 75
-1.426602 0.549643 3.528000 82 64 79
-1.426602 0.555819 3.528000 77 68 77
-1.426602 0.561995 3.528000 84 82 76
-1.426602 0.568170 3.528000 92 70 78
-1.426602 0.574346 3.528000 94 59 80
-1.412449 0.574763 3.493000 96 68 71
-1.412449 0.580877 3.493000 104 81 62
-1.412449 0.586992 3.493000 112 85 71
-1.412449 0.593106 3.493000 113 86 80
-1.412449 0.599221 3.493000 115 83 70
-1.384143 0.593204 3.423000 88 73 59
-1.370799 0.593420 3.390000 61 51 55
-1.370799 0.599354 3.390000 62 45 52
-1.370799 0.605288 3.390000 64 46 52
-1.357455 0.605272 3.357000 64 52 53
-1.357455 0.611149 3.357000 65 53 54
-1.357455 0.617025 3.357000 66 56 56
-1.357455 0.622901 3.357000 67 54 53
-1.357455 0.628778 3.357000 63 50 50
-1.357455 0.634654 3.357000 60 45 38
-1.357455 0.640531 3.357000 59 42 27
-1.370799 0.652762 3.390000 58 44 34
-1.370799 0.658696 3.390000 58 49 42
-1.370799 0.664630 3.390000 58 49 49
-1.384143 0.677092 3.423000 67 55 56
-1.384143 0.683084 3.423000 76 57 60
-0.868173 0.526165 2.147000 252 198 174
-0.884347 0.539797 2.187000 180 190 163
-0.868173 0.533682 2.147000 109 96 118
-0.868173 0.537440 2.147000 123 75 73
-0.873430 0.544476 2.160000 137 96 76
-0.868173 0.544957 2.147000 82 87 79
-0.873430 0.552038 2.160000 27 25 41
-0.873430 0.555819 2.160000 29 4 2
-0.873430 0.559600 2.160000 32 12 11
-0.873430 0.563381 2.160000 29 12 21
-0.873430 0.567162 2.160000 26 12 18
-0.868173 0.567507 2.147000 21 10 15
-0.868173 0.571265 2.147000 17 9 19
-0.868173 0.575024 2.147000 16 9 23
-0.868173 0.578782 2.147000 15 8 16
-0.868173 0.582540 2.147000 16 9 9
-0.868173 0.586299 2.147000 18 10 16
-0.873430 0.593630 2.160000 18 12 23
-0.873430 0.597411 2.160000 19 11 17
-0.868173 0.597574 2.147000 16 10 12
-0.868173 0.601332 2.147000 14 8 11
-0.868173 0.605090 2.147000 15 12 10
-0.868173 0.608849 2.147000 17 10 7
-0.868173 0.612607 2.147000 15 9 5
-0.868173 0.616365 2.147000 14 9 9
-0.868173 0.620124 2.147000 15 10 13
-0.868173 0.623882 2.147000 17 8 18
-0.873430 0.631441 2.160000 14 6 23
-0.868173 0.631398 2.147000 12 6 14
-0.868173 0.635157 2.147000 14 6 5
-0.868173 0.638915 2.147000 17 7 7
-0.862512 0.638483 2.133000 15 10 9
-0.862512 0.642217 2.133000 14 8 10
-0.862512 0.645950 2.133000 14 11 12
-0.862512 0.649684 2.133000 14 10 13
-0.857255 0.649436 2.120000 9 12 14
-0.857255 0.653147 2.120000 4 9 15
-0.851998 0.652830 2.107000 15 13 16
-0.851998 0.656518 2.107000 26 17 21
-0.841485 0.652060 2.081000 38 33 26
-0.761420 0.636165 1.883000 102 82 83
-0.759399 0.637763 1.878000 109 83 92
-0.759399 0.641051 1.878000 116 92 102
-0.759399 0.644338 1.878000 123 101 93
-0.727858 0.639633 1.800000 219 200 199
-0.723814 0.639213 1.790000 219 193 196
-0.723814 0.642346 1.790000 218 188 193
-0.720175 0.642234 1.781000 218 189 191
-0.720175 0.645352 1.781000 220 189 189
-0.716536 0.645192 1.772000 223 191 187
-0.716536 0.648294 1.772000 225 193 185
-0.712897 0.648088 1.763000 228 194 185
-0.705618 0.644525 1.745000 223 196 186
-0.705618 0.647580 1.745000 219 191 188
-0.701979 0.647279 1.736000 218 189 191
-0.695104 0.643950 1.719000 217 191 187
-0.691869 0.643948 1.711000 217 191 183
-0.688230 0.643540 1.702000 217 190 189
-0.684995 0.643480 1.694000 217 191 195
-0.681760 0.643393 1.686000 218 191 191
-0.678121 0.642894 1.677000 220 191 186
-0.674886 0.642749 1.669000 222 191 187
-0.671651 0.642576 1.661000 221 189 188
-0.668416 0.642374 1.653000 220 190 189
-0.668416 0.645268 1.653000 220 192 191
-1.420426 0.531116 3.528000 88 74 80
-1.420426 0.537292 3.528000 88 64 77
-1.420426 0.543467 3.528000 88 60 79
-1.420426 0.549643 3.528000 85 66 82
-1.420426 0.555819 3.528000 81 76 79
-1.420426 0.561995 3.528000 86 74 77
-1.420426 0.568170 3.528000 92 63 79
-1.420426 0.574346 3.528000 95 69 82
-1.406334 0.574763 3.493000 98 77 79
-1.406334 0.580877 3.493000 104 83 76
-1.406334 0.586992 3.493000 111 88 86
-1.406334 0.593106 3.493000 115 94 97
-1.406334 0.599221 3.493000 120 94 79
-1.378151 0.593204 3.423000 94 72 61
-1.364865 0.593420 3.390000 68 41 69
-1.364865 0.599354 3.390000 63 38 78
-1.364865 0.605288 3.390000 59 41 66
-1.364865 0.611222 3.390000 64 49 54
-1.364865 0.617156 3.390000 70 56 55
-1.364865 0.623091 3.390000 74 58 56
-1.364865 0.629025 3.390000 79 64 57
-1.364865 0.634959 3.390000 72 56 59
-1.364865 0.640893 3.390000 65 54 55
-1.364865 0.646827 3.390000 63 46 52
-1.364865 0.652762 3.390000 60 43 48
-1.364865 0.658696 3.390000 61 47 44
-1.364865 0.664630 3.390000 62 49 52
-1.378151 0.677092 3.423000 69 52 61
-1.378151 0.683084 3.423000 76 59 63
-0.864415 0.526165 2.147000 238 182 172
-0.875285 0.536588 2.174000 171 147 152
-0.869648 0.536913 2.160000 104 59 111
-0.864415 0.537440 2.147000 118 80 70
-0.864415 0.541199 2.147000 131 108 77
-0.869648 0.548257 2.160000 77 67 85
-0.869648 0.552038 2.160000 23 1 44
-0.869648 0.555819 2.160000 26 5 4
-0.869648 0.559600 2.160000 29 17 10
-0.869648 0.563381 2.160000 26 14 17
-0.869648 0.567162 2.160000 23 13 14
-0.864415 0.567507 2.147000 19 9 11
-0.864415 0.571265 2.147000 16 9 21
-0.864415 0.575024 2.147000 16 8 31
-0.864415 0.578782 2.147000 16 8 22
-0.864415 0.582540 2.147000 17 10 14
-0.869648 0.589849 2.160000 18 12 23
-0.869648 0.593630 2.160000 22 11 32
-0.869648 0.597411 2.160000 25 10 23
-0.869648 0.601192 2.160000 20 8 14
-0.864415 0.601332 2.147000 16 7 13
-0.864415 0.605090 2.147000 17 8 12
-0.869648 0.612535 2.160000 19 8 9
-0.869648 0.616316 2.160000 17 9 6
-0.869648 0.620097 2.160000 15 10 8
-0.864415 0.620124 2.147000 18 10 11
-0.864415 0.623882 2.147000 21 12 13
-0.864415 0.627640 2.147000 16 7 16
-0.864415 0.631398 2.147000 12 5 13
-0.864415 0.635157 2.147000 13 7 10
-0.864415 0.638915 2.147000 15 9 12
-0.864415 0.642673 2.147000 17 7 15
-0.858778 0.642217 2.133000 18 4 18
-0.858778 0.645950 2.133000 16 6 21
-0.858778 0.649684 2.133000 14 7 18
-0.858778 0.653418 2.133000 11 9 16
-0.833011 0.644678 2.069000 32 17 19
-0.833011 0.648300 2.069000 43 31 21
-0.756111 0.634476 1.878000 101 84 84
-0.752085 0.634367 1.868000 106 81 95
-0.756111 0.641051 1.878000 116 90 107
-0.756111 0.644338 1.878000 126 91 93
-0.728331 0.639664 1.809000 226 198 199
-0.728331 0.642831 1.809000 222 197 203
-0.724707 0.642784 1.800000 218 194 197
-0.720681 0.642346 1.790000 218 191 192
-0.717057 0.642234 1.781000 219 191 191
-0.717057 0.645352 1.781000 219 190 191
-0.713434 0.645192 1.772000 220 192 188
-0.709810 0.645002 1.763000 221 193 186
-0.706187 0.644779 1.754000 223 193 187
-0.702563 0.644525 1.745000 221 193 188
-0.698940 0.644240 1.736000 220 193 192
-0.698940 0.647279 1.736000 220 194 197
-0.695719 0.647321 1.728000 221 195 199
-0.685251 0.640561 1.702000 219 191 202
-0.678809 0.637490 1.686000 218 189 197
-0.678809 0.640442 1.686000 218 190 193
-0.675185 0.639958 1.677000 219 192 187
-0.675185 0.642894 1.677000 221 191 181
-0.671965 0.642749 1.669000 223 193 183
-0.668744 0.642576 1.661000 221 192 186
-0.665523 0.642374 1.653000 219 190 188
-0.665523 0.645268 1.653000 218 188 190
-1.429082 0.536686 3.565000 87 61 82
-1.414250 0.537292 3.528000 88 67 80
-1.414250 0.543467 3.528000 89 63 78
-1.414250 0.549643 3.528000 87 64 76
-1.429082 0.561648 3.565000 86 70 67
-1.414250 0.561995 3.528000 89 78 57
-1.414250 0.568170 3.528000 92 74 66
-1.414250 0.574346 3.528000 96 78 75
-1.414250 0.580522 3.528000 100 81 76
-1.400220 0.580877 3.493000 105 88 78
-1.386190 0.581110 3.458000 110 95 83
-1.386190 0.587163 3.458000 117 111 89
-1.386190 0.593217 3.458000 125 94 80
-1.372159 0.593204 3.423000 100 83 71
-1.372159 0.599196 3.423000 76 57 72
-1.358931 0.599354 3.390000 65 26 74
-1.358931 0.605288 3.390000 54 37 68
-1.358931 0.611222 3.390000 65 50 62
-1.372159 0.623164 3.423000 76 55 60
-1.372159 0.629156 3.423000 83 59 59
-1.358931 0.629025 3.390000 91 60 64
-1.358931 0.634959 3.390000 81 59 69
-1.372159 0.647132 3.423000 71 53 62
-1.372159 0.653124 3.423000 67 45 54
-1.358931 0.652762 3.390000 63 44 40
-1.358931 0.658696 3.390000 65 47 26
-1.358931 0.664630 3.390000 67 48 44
-0.860656 0.526165 2.147000 224 183 165
-0.865867 0.533132 2.160000 162 157 131
-0.865867 0.536913 2.160000 100 91 105
-0.865867 0.540695 2.160000 113 79 79
-0.865867 0.544476 2.160000 126 85 71
-0.865867 0.548257 2.160000 73 72 64
-0.865867 0.552038 2.160000 20 18 35
-0.871480 0.559421 2.174000 23 1 5
-0.871480 0.563227 2.174000 27 10 10
-0.871480 0.567033 2.174000 24 14 14
-0.871480 0.570838 2.174000 21 12 10
-0.871480 0.574644 2.174000 18 7 6
-0.871480 0.578449 2.174000 15 8 13
-0.871480 0.582255 2.174000 16 9 21
-0.865867 0.582286 2.160000 17 10 16
-0.865867 0.586067 2.160000 18 12 11
-0.865867 0.589849 2.160000 19 10 14
-0.871480 0.597477 2.174000 25 10 16
-0.871480 0.601283 2.174000 32 9 13
-0.865867 0.601192 2.160000 25 8 9
-0.865867 0.604973 2.160000 18 6 11
-0.865867 0.608754 2.160000 20 6 13
-0.865867 0.612535 2.160000 22 8 12
-0.865867 0.616316 2.160000 19 11 12
-0.865867 0.620097 2.160000 17 9 11
-0.860656 0.620124 2.147000 21 8 11
-0.860656 0.623882 2.147000 26 8 13
-0.860656 0.627640 2.147000 19 7 15
-0.860656 0.631398 2.147000 12 7 11
-0.860656 0.635157 2.147000 13 10 7
-0.860656 0.638915 2.147000 14 9 10
-0.855044 0.638483 2.133000 18 8 13
-0.855044 0.642217 2.133000 23 5 14
-0.855044 0.645950 2.133000 19 4 15
-0.855044 0.649684 2.133000 15 7 13
-0.752824 0.637763 1.878000 103 88 85
-0.752824 0.641051 1.878000 116 98 99
-0.752824 0.644338 1.878000 130 106 107
-0.729173 0.636832 1.819000 215 195 179
-0.729173 0.640016 1.819000 224 195 186
-0.725164 0.639664 1.809000 233 196 191
-0.725164 0.642831 1.809000 225 197 196
-0.721556 0.642784 1.800000 217 191 191
-0.721556 0.645935 1.800000 218 191 187
-0.717548 0.645480 1.790000 220 189 191
-0.713940 0.645352 1.781000 219 188 195
-0.710332 0.645192 1.772000 218 190 192
-0.699509 0.638416 1.745000 218 195 189
-0.699509 0.641471 1.745000 218 193 190
-0.699509 0.644525 1.745000 219 192 191
-0.695901 0.644240 1.736000 221 195 197
-0.695901 0.647279 1.736000 223 201 203
-0.692694 0.647321 1.728000 225 194 202
-0.685879 0.643948 1.711000 222 189 201
-0.679065 0.640515 1.694000 219 188 197
-0.675858 0.640442 1.686000 219 190 194
-0.672250 0.639958 1.677000 220 191 190
-0.669043 0.639827 1.669000 222 190 186
-0.665836 0.639668 1.661000 224 192 189
-0.662629 0.639481 1.653000 221 199 192
-0.659422 0.639265 1.645000 219 191 191
-0.659422 0.642145 1.645000 217 185 190
-1.408074 0.543467 3.528000 86 61 77
-1.408074 0.549643 3.528000 88 63 71
-1.408074 0.555819 3.528000 90 63 54
-1.408074 0.561995 3.528000 93 73 38
-1.394105 0.562534 3.493000 97 79 53
-1.408074 0.574346 3.528000 99 81 69
-1.408074 0.580522 3.528000 102 84 74
-1.394105 0.580877 3.493000 103 87 80
-1.394105 0.586992 3.493000 105 93 80
-1.380136 0.587163 3.458000 115 97 81
-1.380136 0.593217 3.458000 126 91 81
-1.366167 0.593204 3.423000 108 86 81
-1.352997 0.593420 3.390000 90 80 75
-1.352997 0.599354 3.390000 77 54 70
-1.352997 0.605288 3.390000 64 32 70
-1.352997 0.611222 3.390000 70 44 70
-1.366167 0.623164 3.423000 77 58 66
-1.366167 0.629156 3.423000 81 59 62
-1.366167 0.635148 3.423000 86 61 71
-1.366167 0.641140 3.423000 77 58 80
-1.366167 0.647132 3.423000 69 55 68
-1.380136 0.659802 3.458000 66 47 57
-1.366167 0.659116 3.423000 63 42 33
-1.366167 0.665108 3.423000 66 46 9
-0.862086 0.529351 2.160000 214 169 158
-0.867674 0.536588 2.174000 154 120 111
-0.862086 0.536913 2.160000 93 72 99
-0.862086 0.540695 2.160000 106 82 88
-0.862086 0.544476 2.160000 118 84 66
-0.862086 0.548257 2.160000 66 49 44
-0.867674 0.555616 2.174000 15 1 25
-0.867674 0.559421 2.174000 20 3 7
-0.867674 0.563227 2.174000 26 10 9
-0.867674 0.567033 2.174000 23 12 12
-0.867674 0.570838 2.174000 21 14 7
-0.867674 0.574644 2.174000 19 9 2
-0.867674 0.578449 2.174000 18 7 6
-0.867674 0.582255 2.174000 17 8 11
-0.867674 0.586060 2.174000 17 11 10
-0.862086 0.586067 2.160000 16 9 9
-0.862086 0.589849 2.160000 15 9 5
-0.867674 0.597477 2.174000 20 9 1
-0.867674 0.601283 2.174000 24 10 3
-0.867674 0.605088 2.174000 21 8 5
-0.862086 0.604973 2.160000 18 4 9
-0.862086 0.608754 2.160000 17 5 14
-0.862086 0.612535 2.160000 15 7 16
-0.862086 0.616316 2.160000 16 9 18
-0.862086 0.620097 2.160000 17 9 14
-0.862086 0.623878 2.160000 18 7 11
-0.856898 0.623882 2.147000 20 5 12
-0.856898 0.627640 2.147000 13 6 14
-0.856898 0.631398 2.147000 7 9 9
-0.856898 0.635157 2.147000 10 9 5
-0.856898 0.638915 2.147000 14 9 8
-0.856898 0.642673 2.147000 15 7 11
-0.851310 0.642217 2.133000 17 5 10
-0.851310 0.645950 2.133000 17 5 9
-0.846122 0.645725 2.120000 17 6 9
-0.749536 0.637763 1.878000 104 87 76
-0.749536 0.641051 1.878000 119 99 92
-0.749536 0.644338 1.878000 134 115 122
-0.749536 0.647626 1.878000 164 135 152
-0.745545 0.647447 1.868000 195 163 173
-0.725988 0.633648 1.819000 207 184 194
-0.725988 0.636832 1.819000 220 197 186
-0.725988 0.640016 1.819000 223 197 178
-0.721997 0.639664 1.809000 226 197 184
-0.721997 0.642831 1.809000 219 193 190
-0.718405 0.642784 1.800000 212 184 186
-0.718405 0.645935 1.800000 215 186 182
-0.714414 0.645480 1.790000 218 187 191
-0.710822 0.645352 1.781000 217 188 200
-0.707230 0.645192 1.772000 216 186 196
-0.696454 0.638416 1.745000 216 190 193
-0.696454 0.641471 1.745000 217 192 194
-0.692862 0.641201 1.736000 218 192 195
-0.692862 0.644240 1.736000 219 194 202
-0.692862 0.647279 1.736000 219 194 210
-0.686077 0.643950 1.719000 220 192 205
-0.679292 0.640561 1.702000 217 191 200
-0.672906 0.637490 1.686000 215 187 197
-0.669314 0.637023 1.677000 217 189 195
-0.669314 0.639958 1.677000 219 194 193
-0.666121 0.639827 1.669000 220 189 192
-0.662928 0.639668 1.661000 221 186 195
-0.659736 0.639481 1.653000 219 193 199
-0.656543 0.639265 1.645000 216 191 195
-0.656543 0.642145 1.645000 214 189 191
-1.387991 0.538076 3.493000 84 57 74
-1.401899 0.549643 3.528000 89 67 75
-1.401899 0.555819 3.528000 94 70 67
-1.401899 0.561995 3.528000 98 75 59
-1.387991 0.562534 3.493000 102 79 67
-1.387991 0.568648 3.493000 103 83 76
-1.387991 0.574763 3.493000 104 83 79
-1.387991 0.580877 3.493000 102 84 81
-1.387991 0.586992 3.493000 100 88 83
-1.387991 0.593106 3.493000 114 96 86
-1.387991 0.599221 3.493000 128 94 92
-1.374083 0.599270 3.458000 116 92 98
-1.347062 0.593420 3.390000 105 82 95
-1.347062 0.599354 3.390000 89 79 93
-1.360175 0.611180 3.423000 74 56 81
-1.347062 0.611222 3.390000 76 38 70
-1.360175 0.623164 3.423000 79 51 67
-1.360175 0.629156 3.423000 80 58 65
-1.360175 0.635148 3.423000 81 60 67
-1.360175 0.641140 3.423000 74 58 69
-1.374083 0.653749 3.458000 67 53 60
-1.374083 0.659802 3.458000 65 46 51
-1.374083 0.665855 3.458000 63 40 40
-1.378852 0.674240 3.470000 67 46 29
-0.863471 0.532537 2.173000 205 147 150
-0.863868 0.536588 2.174000 146 84 92
-0.863868 0.540393 2.174000 87 81 97
-0.863868 0.544199 2.174000 99 95 102
-0.858305 0.544476 2.160000 111 76 69
-0.863868 0.551810 2.174000 60 42 36
-0.863868 0.555616 2.174000 10 11 30
-0.863868 0.559421 2.174000 18 2 25
-0.863868 0.563227 2.174000 26 7 20
-0.863868 0.567033 2.174000 23 11 16
-0.863868 0.570838 2.174000 21 11 18
-0.863868 0.574644 2.174000 21 9 20
-0.863868 0.578449 2.174000 21 6 19
-0.863868 0.582255 2.174000 19 5 18
-0.863868 0.586060 2.174000 18 6 16
-0.863868 0.589866 2.174000 15 5 15
-0.863868 0.593672 2.174000 12 7 17
-0.863868 0.597477 2.174000 14 7 20
-0.863868 0.601283 2.174000 17 8 16
-0.863868 0.605088 2.174000 18 11 11
-0.863868 0.608894 2.174000 19 6 19
-0.858305 0.608754 2.160000 14 5 27
-0.858305 0.612535 2.160000 9 6 23
-0.863868 0.620311 2.174000 13 9 20
-0.863868 0.624116 2.174000 17 8 20
-0.863868 0.627922 2.174000 15 9 21
-0.858305 0.627659 2.160000 14 6 17
-0.858305 0.631441 2.160000 8 4 14
-0.858305 0.635222 2.160000 3 7 10
-0.858305 0.639003 2.160000 8 8 7
-0.853140 0.638915 2.147000 14 7 9
-0.853140 0.642673 2.147000 13 7 12
-0.847576 0.642217 2.133000 12 5 12
-0.847576 0.645950 2.133000 15 6 11
-0.847576 0.649684 2.133000 19 5 10
-0.746249 0.637763 1.878000 106 92 83
-0.746249 0.641051 1.878000 122 97 93
-0.750222 0.647769 1.888000 139 124 128
-0.746249 0.647626 1.878000 170 141 164
-0.742275 0.647447 1.868000 201 169 179
-0.734328 0.643750 1.848000 213 188 194
-0.726381 0.639983 1.828000 226 196 193
-0.722804 0.640016 1.819000 222 200 192
-0.718831 0.639664 1.809000 219 196 192
-0.718831 0.642831 1.809000 213 197 193
-0.718831 0.645998 1.809000 208 188 190
-0.715254 0.645935 1.800000 212 185 188
-0.711281 0.645480 1.790000 217 189 192
-0.707704 0.645352 1.781000 215 194 196
-0.700552 0.641916 1.763000 214 190 193
-0.693399 0.638416 1.745000 215 188 190
-0.693399 0.641471 1.745000 216 187 188
-0.689823 0.641201 1.736000 217 191 186
-0.689823 0.644240 1.736000 218 192 194
-0.686644 0.644296 1.728000 216 190 202
-0.683068 0.643950 1.719000 215 191 199
-0.676313 0.640561 1.702000 213 196 196
-0.673134 0.640515 1.694000 212 191 193
-0.669955 0.640442 1.686000 215 188 191
-0.666379 0.639958 1.677000 218 190 191
-0.663200 0.639827 1.669000 218 188 192
-0.660021 0.639668 1.661000 219 190 194
