ply
format ascii 1.0
element vertex 1191
property float x
property float y
property float z
property uchar red
property uchar green
property uchar blue
end_header
-0.840109 -0.428697 1.975000 254 254 254
-0.840109 -0.425240 1.975000 254 254 254
-0.840109 -0.421783 1.975000 254 254 254
-0.844788 -0.420656 1.986000 254 254 254
-0.840109 -0.414869 1.975000 254 254 254
-0.840109 -0.411411 1.975000 254 254 254
-0.840109 -0.407954 1.975000 254 254 254
-0.840109 -0.404497 1.975000 254 254 254
-0.840109 -0.401040 1.975000 254 254 254
-0.840109 -0.397582 1.975000 254 254 254
-0.844788 -0.396320 1.986000 254 254 254
-0.840109 -0.390668 1.975000 254 254 254
-0.840109 -0.387211 1.975000 254 254 254
-0.844788 -0.385891 1.986000 254 254 254
-0.844788 -0.382414 1.986000 254 254 254
-0.844788 -0.378938 1.986000 254 254 254
-0.840109 -0.373382 1.975000 254 254 254
-0.844788 -0.371985 1.986000 254 254 254
-0.844788 -0.368508 1.986000 254 254 254
-0.844788 -0.365032 1.986000 254 254 254
-0.844788 -0.361555 1.986000 254 254 254
-0.840109 -0.356095 1.975000 254 254 254
-0.840109 -0.352638 1.975000 254 254 254
-0.840109 -0.349181 1.975000 254 254 254
-0.840109 -0.345724 1.975000 254 254 254
-0.840109 -0.342267 1.975000 254 254 254
-0.835430 -0.336922 1.964000 254 254 254
-0.840109 -0.335352 1.975000 254 254 254
-0.840109 -0.331895 1.975000 254 254 254
-0.840109 -0.328438 1.975000 254 254 254
-0.840109 -0.324980 1.975000 254 254 254
-0.840109 -0.321523 1.975000 254 254 254
-0.840109 -0.318066 1.975000 254 254 254
-0.840109 -0.314609 1.975000 254 254 254
-0.840109 -0.311151 1.975000 254 254 254
-0.840109 -0.307694 1.975000 254 254 254
-0.840109 -0.304237 1.975000 254 254 254
-0.840109 -0.300780 1.975000 254 254 254
-0.840109 -0.297322 1.975000 254 254 254
-0.840109 -0.293865 1.975000 254 254 254
-0.840109 -0.290408 1.975000 254 254 254
-0.840109 -0.286951 1.975000 254 254 254
-0.840109 -0.283493 1.975000 254 254 254
-0.844788 -0.281596 1.986000 254 254 254
-0.840109 -0.276579 1.975000 254 254 254
-0.840109 -0.273122 1.975000 254 254 254
-0.840109 -0.269665 1.975000 254 254 254
-0.844788 -0.267690 1.986000 254 254 254
-0.844788 -0.264213 1.986000 254 254 254
-0.844788 -0.260737 1.986000 254 254 254
-0.844788 -0.257260 1.986000 254 254 254
-0.844788 -0.253784 1.986000 254 254 254
-0.844788 -0.250308 1.986000 254 254 254
-0.849892 -0.248322 1.998000 254 254 254
-0.844788 -0.243354 1.986000 254 254 254
-0.844788 -0.239878 1.986000 254 254 254
-0.844788 -0.225972 1.986000 254 254 254
-0.844788 -0.222496 1.986000 254 254 254
-0.844788 -0.219019 1.986000 254 254 254
-0.844788 -0.215543 1.986000 254 254 254
-0.844788 -0.212066 1.986000 254 254 254
-0.844788 -0.208590 1.986000 254 254 254
-0.844788 -0.205113 1.986000 254 254 254
-0.844788 -0.201637 1.986000 254 254 254
-0.844788 -0.198160 1.986000 254 254 254
-0.844788 -0.194684 1.986000 254 254 254
-0.840109 -0.190148 1.975000 254 254 254
-0.840109 -0.186691 1.975000 254 254 254
-0.840109 -0.183234 1.975000 254 254 254
-0.840109 -0.179776 1.975000 254 254 254
-0.840109 -0.176319 1.975000 254 254 254
-0.835430 -0.171899 1.964000 254 254 254
-0.835430 -0.168461 1.964000 254 254 254
-0.835430 -0.165023 1.964000 254 254 254
-0.835430 -0.161585 1.964000 254 254 254
-0.835430 -0.151271 1.964000 254 254 254
-0.840109 -0.148661 1.975000 254 254 254
-0.840109 -0.145204 1.975000 254 254 254
-0.840109 -0.141747 1.975000 254 254 254
-0.840109 -0.138289 1.975000 254 251 252
-0.840109 -0.134832 1.975000 254 254 251
-0.840109 -0.131375 1.975000 254 252 248
-0.840109 -0.127918 1.975000 254 252 245
-0.844788 -0.125154 1.986000 254 246 248
-0.840109 -0.121003 1.975000 247 254 250
-0.840109 -0.117546 1.975000 241 241 248
-0.840109 -0.114089 1.975000 244 254 245
-0.840109 -0.110632 1.975000 248 246 245
-0.840109 -0.107174 1.975000 240 254 245
-0.840109 -0.103717 1.975000 233 237 242
-0.835430 -0.099701 1.964000 237 249 240
-0.844788 -0.076483 1.986000 213 215 238
-0.844788 -0.073006 1.986000 207 208 240
-0.840109 -0.069145 1.975000 201 206 238
-0.835430 -0.065322 1.964000 206 199 237
-0.835430 -0.061884 1.964000 211 209 238
-0.835430 -0.058446 1.964000 205 209 240
-0.835430 -0.055008 1.964000 200 198 240
-0.835430 -0.051570 1.964000 200 203 240
-0.835430 -0.048132 1.964000 201 197 240
-0.840109 -0.044944 1.975000 198 183 239
-0.835430 -0.041256 1.964000 196 190 242
-0.840109 -0.038030 1.975000 191 193 244
-0.840109 -0.034572 1.975000 187 179 243
-0.844788 -0.031288 1.986000 187 185 243
-0.844788 -0.027812 1.986000 188 184 244
-0.844788 -0.024335 1.986000 184 183 246
-0.844788 -0.020859 1.986000 180 173 239
-0.844788 -0.017382 1.986000 178 168 232
-0.844788 -0.013906 1.986000 177 174 237
-0.844788 -0.010429 1.986000 169 176 241
-0.844788 -0.006953 1.986000 162 163 239
-0.835430 -0.003438 1.964000 165 171 237
-0.835430 -0.000000 1.964000 168 161 229
-0.835430 0.003438 1.964000 165 152 221
-0.840109 0.006915 1.975000 163 157 223
-0.835430 0.010314 1.964000 153 156 225
-0.835430 0.013752 1.964000 143 151 224
-0.835430 0.017190 1.964000 150 153 223
-0.840109 0.020744 1.975000 157 154 226
-0.835430 0.024066 1.964000 152 152 229
-0.835430 0.027504 1.964000 147 149 218
-0.840109 0.031115 1.975000 150 144 207
-0.825646 0.533442 1.941000 120 138 138
-0.816713 0.531032 1.920000 37 45 77
-0.816713 0.534393 1.920000 48 14 16
-0.816713 0.537754 1.920000 60 43 28
-0.816713 0.541115 1.920000 45 53 40
-0.816713 0.544476 1.920000 31 19 29
-0.816713 0.547837 1.920000 21 3 18
-0.816713 0.551198 1.920000 12 4 12
-0.816713 0.554559 1.920000 10 4 6
-0.816713 0.557919 1.920000 9 3 9
-0.816713 0.561280 1.920000 8 4 13
-0.816713 0.564641 1.920000 8 4 9
-0.816713 0.568002 1.920000 7 3 5
-0.816713 0.571363 1.920000 7 3 6
-0.816713 0.574724 1.920000 7 3 6
-0.816713 0.578085 1.920000 7 3 6
-0.816713 0.581446 1.920000 5 3 6
-0.821392 0.588158 1.931000 4 4 4
-0.821392 0.591538 1.931000 4 5 2
-0.821392 0.594918 1.931000 4 4 2
-0.821392 0.598298 1.931000 5 2 3
-0.821392 0.601678 1.931000 6 2 3
-0.816713 0.601612 1.920000 4 3 3
-0.816713 0.604973 1.920000 3 2 4
-0.821392 0.611819 1.931000 4 3 5
-0.816713 0.611695 1.920000 6 3 5
-0.816713 0.615056 1.920000 6 3 6
-0.816713 0.618417 1.920000 6 2 7
-0.816713 0.621778 1.920000 6 2 8
-0.816713 0.625139 1.920000 6 2 7
-0.821392 0.632100 1.931000 5 3 5
-0.821392 0.635481 1.931000 4 3 3
-0.821392 0.638861 1.931000 4 2 2
-0.821392 0.642241 1.931000 4 2 3
-0.821392 0.645621 1.931000 3 2 5
-0.821392 0.649001 1.931000 2 2 5
-0.821392 0.652382 1.931000 1 2 5
-0.821392 0.655762 1.931000 1 2 5
-0.816713 0.655387 1.920000 1 4 4
-0.816713 0.658748 1.920000 2 4 4
-0.717176 0.655198 1.686000 155 130 128
-0.713348 0.654636 1.677000 157 148 139
-0.831992 -0.440062 1.964000 254 254 254
-0.831992 -0.436624 1.964000 254 254 254
-0.836652 -0.435612 1.975000 254 254 254
-0.836652 -0.432155 1.975000 254 254 254
-0.836652 -0.428697 1.975000 254 254 254
-0.836652 -0.425240 1.975000 254 254 254
-0.836652 -0.421783 1.975000 254 254 254
-0.841311 -0.420656 1.986000 254 254 254
-0.836652 -0.414869 1.975000 254 254 254
-0.836652 -0.411411 1.975000 254 254 254
-0.841311 -0.410226 1.986000 254 254 254
-0.841311 -0.406750 1.986000 254 254 254
-0.841311 -0.403273 1.986000 254 254 254
-0.841311 -0.399797 1.986000 254 254 254
-0.841311 -0.396320 1.986000 254 254 254
-0.841311 -0.392844 1.986000 254 254 254
-0.841311 -0.389367 1.986000 254 254 254
-0.841311 -0.385891 1.986000 254 254 254
-0.841311 -0.382414 1.986000 254 254 254
-0.841311 -0.378938 1.986000 254 254 254
-0.841311 -0.375461 1.986000 254 254 254
-0.841311 -0.371985 1.986000 254 254 254
-0.841311 -0.368508 1.986000 254 254 254
-0.841311 -0.365032 1.986000 254 254 254
-0.841311 -0.361555 1.986000 254 254 254
-0.836652 -0.356095 1.975000 254 254 254
-0.836652 -0.352638 1.975000 254 254 254
-0.841311 -0.351126 1.986000 254 254 254
-0.836652 -0.345724 1.975000 254 254 254
-0.836652 -0.342267 1.975000 254 254 254
-0.836652 -0.338809 1.975000 254 254 254
-0.841311 -0.337220 1.986000 254 254 254
-0.841311 -0.333743 1.986000 254 254 254
-0.841311 -0.330267 1.986000 254 254 254
-0.841311 -0.326790 1.986000 254 254 254
-0.841311 -0.323314 1.986000 254 254 254
-0.836652 -0.318066 1.975000 254 254 254
-0.836652 -0.314609 1.975000 254 254 254
-0.836652 -0.311151 1.975000 254 254 254
-0.836652 -0.307694 1.975000 254 254 254
-0.836652 -0.304237 1.975000 254 254 254
-0.836652 -0.300780 1.975000 254 254 254
-0.836652 -0.297322 1.975000 254 254 254
-0.831992 -0.292228 1.964000 254 254 254
-0.841311 -0.292025 1.986000 254 254 254
-0.836652 -0.286951 1.975000 254 254 254
-0.836652 -0.283493 1.975000 254 254 254
-0.836652 -0.280036 1.975000 254 254 254
-0.836652 -0.276579 1.975000 254 254 254
-0.836652 -0.273122 1.975000 254 254 254
-0.836652 -0.269665 1.975000 254 254 254
-0.836652 -0.266207 1.975000 254 254 254
-0.841311 -0.264213 1.986000 254 254 254
-0.841311 -0.260737 1.986000 254 254 254
-0.841311 -0.257260 1.986000 254 254 254
-0.841311 -0.253784 1.986000 254 254 254
-0.841311 -0.250308 1.986000 254 254 254
-0.841311 -0.246831 1.986000 254 254 254
-0.841311 -0.243354 1.986000 254 254 254
-0.841311 -0.239878 1.986000 254 254 254
-0.841311 -0.225972 1.986000 254 254 254
-0.841311 -0.222496 1.986000 254 254 254
-0.841311 -0.219019 1.986000 254 254 254
-0.841311 -0.215543 1.986000 254 254 254
-0.841311 -0.212066 1.986000 254 254 254
-0.841311 -0.208590 1.986000 254 254 254
-0.841311 -0.205113 1.986000 254 254 254
-0.841311 -0.201637 1.986000 254 254 254
-0.841311 -0.198160 1.986000 254 254 254
-0.841311 -0.194684 1.986000 254 254 254
-0.836652 -0.190148 1.975000 254 254 254
-0.836652 -0.186691 1.975000 254 254 254
-0.836652 -0.183234 1.975000 254 254 254
-0.836652 -0.179776 1.975000 254 254 254
-0.836652 -0.176319 1.975000 254 254 254
-0.836652 -0.172862 1.975000 254 254 254
-0.831992 -0.168461 1.964000 254 254 254
-0.831992 -0.165023 1.964000 254 254 254
-0.836652 -0.152118 1.975000 254 254 254
-0.841311 -0.139060 1.986000 251 244 251
-0.841311 -0.135583 1.986000 252 249 249
-0.836652 -0.131375 1.975000 252 249 244
-0.836652 -0.127918 1.975000 250 239 240
-0.841311 -0.125154 1.986000 249 227 243
-0.836652 -0.121003 1.975000 242 237 247
-0.841311 -0.118201 1.986000 236 214 243
-0.836652 -0.114089 1.975000 241 236 240
-0.836652 -0.110632 1.975000 246 223 239
-0.836652 -0.107174 1.975000 239 232 238
-0.838770 -0.103980 1.980000 233 213 238
-0.834957 -0.100057 1.971000 236 231 238
-0.841311 -0.076483 1.986000 219 217 237
-0.841311 -0.073006 1.986000 213 217 239
-0.841311 -0.069530 1.986000 207 207 238
-0.836652 -0.065687 1.975000 211 209 237
-0.836652 -0.062230 1.975000 214 209 238
-0.836652 -0.058773 1.975000 208 211 240
-0.836652 -0.055316 1.975000 201 203 239
-0.836652 -0.051859 1.975000 201 204 239
-0.836652 -0.048401 1.975000 201 209 240
-0.836652 -0.044944 1.975000 199 198 241
-0.836652 -0.041487 1.975000 197 201 243
-0.836652 -0.038030 1.975000 192 194 246
-0.836652 -0.034572 1.975000 187 174 244
-0.841311 -0.031288 1.986000 187 187 243
-0.841311 -0.027812 1.986000 187 195 244
-0.841311 -0.024335 1.986000 184 189 246
-0.836652 -0.020743 1.975000 181 178 240
-0.841311 -0.017382 1.986000 179 176 234
-0.836652 -0.013829 1.975000 176 182 239
-0.836652 -0.010372 1.975000 170 176 245
-0.836652 -0.006914 1.975000 165 166 240
-0.836652 -0.003457 1.975000 167 169 235
-0.826908 -0.000000 1.952000 170 171 224
-0.831992 0.003438 1.964000 167 164 214
-0.836652 0.006915 1.975000 165 162 220
-0.836652 0.010372 1.975000 158 159 226
-0.831992 0.013752 1.964000 151 156 226
-0.831992 0.017190 1.964000 155 156 227
-0.836652 0.020744 1.975000 160 158 230
-0.818012 0.530694 1.931000 117 117 142
-0.818012 0.534074 1.931000 35 15 78
-0.813352 0.534393 1.920000 46 24 15
-0.813352 0.537754 1.920000 58 52 24
-0.813352 0.541115 1.920000 42 41 34
-0.813352 0.544476 1.920000 27 9 25
-0.813352 0.547837 1.920000 19 5 17
-0.813352 0.551198 1.920000 11 4 9
-0.813352 0.554559 1.920000 10 4 2
-0.813352 0.557919 1.920000 9 4 3
-0.808693 0.558065 1.909000 8 5 5
-0.813352 0.564641 1.920000 7 7 3
-0.813352 0.568002 1.920000 6 4 2
-0.808693 0.568090 1.909000 5 3 3
-0.813352 0.574724 1.920000 5 3 4
-0.813352 0.578085 1.920000 5 3 4
-0.813352 0.581446 1.920000 4 3 4
-0.818012 0.588158 1.931000 4 4 2
-0.818012 0.591538 1.931000 4 4 1
-0.818012 0.594918 1.931000 4 5 2
-0.818012 0.598298 1.931000 5 3 3
-0.818012 0.601678 1.931000 6 3 3
-0.818012 0.605059 1.931000 4 2 3
-0.818012 0.608439 1.931000 3 3 3
-0.818012 0.611819 1.931000 4 3 3
-0.818012 0.615199 1.931000 6 3 3
-0.818012 0.618580 1.931000 5 3 4
-0.813352 0.618417 1.920000 5 3 6
-0.818012 0.625340 1.931000 4 3 9
-0.818012 0.628720 1.931000 3 3 6
-0.818012 0.632100 1.931000 3 3 3
-0.818012 0.635481 1.931000 4 4 2
-0.818012 0.638861 1.931000 3 3 1
-0.818012 0.642241 1.931000 3 2 3
-0.818012 0.645621 1.931000 3 2 5
-0.818012 0.649001 1.931000 3 2 5
-0.818012 0.652382 1.931000 2 2 5
-0.818012 0.655762 1.931000 2 2 3
-0.818012 0.659142 1.931000 2 3 1
-0.813352 0.658748 1.920000 2 4 2
-0.710413 0.651701 1.677000 156 143 135
-0.707024 0.651513 1.669000 158 145 141
-0.833194 -0.442526 1.975000 254 254 254
-0.833194 -0.439069 1.975000 254 254 254
-0.833194 -0.435612 1.975000 254 254 254
-0.833194 -0.432155 1.975000 254 254 254
-0.833194 -0.428697 1.975000 254 254 254
-0.837835 -0.427609 1.986000 254 254 254
-0.837835 -0.424132 1.986000 254 254 254
-0.837835 -0.420656 1.986000 254 254 254
-0.833194 -0.414869 1.975000 254 254 254
-0.833194 -0.411411 1.975000 254 254 254
-0.837835 -0.410226 1.986000 254 254 254
-0.837835 -0.406750 1.986000 254 254 254
-0.837835 -0.403273 1.986000 254 254 254
-0.833194 -0.397582 1.975000 254 254 254
-0.833194 -0.394125 1.975000 254 254 254
-0.833194 -0.390668 1.975000 254 254 254
-0.837835 -0.389367 1.986000 254 254 254
-0.837835 -0.385891 1.986000 254 254 254
-0.837835 -0.382414 1.986000 254 254 254
-0.837835 -0.378938 1.986000 254 254 254
-0.837835 -0.375461 1.986000 254 254 254
-0.842897 -0.374232 1.998000 254 254 254
-0.837835 -0.368508 1.986000 254 254 254
-0.837835 -0.365032 1.986000 254 254 254
-0.833194 -0.359553 1.975000 254 254 254
-0.833194 -0.356095 1.975000 254 254 254
-0.833194 -0.352638 1.975000 254 254 254
-0.837835 -0.351126 1.986000 254 254 254
-0.833194 -0.345724 1.975000 254 254 254
-0.833194 -0.342267 1.975000 254 254 254
-0.833194 -0.338809 1.975000 254 254 254
-0.837835 -0.337220 1.986000 254 254 254
-0.837835 -0.333743 1.986000 254 254 254
-0.837835 -0.330267 1.986000 254 254 254
-0.837835 -0.326790 1.986000 254 254 254
-0.837835 -0.323314 1.986000 254 254 254
-0.833194 -0.318066 1.975000 254 254 254
-0.837835 -0.316361 1.986000 254 254 254
-0.837835 -0.312884 1.986000 254 254 254
-0.837835 -0.309408 1.986000 254 254 254
-0.833194 -0.304237 1.975000 254 254 254
-0.833194 -0.297322 1.975000 254 254 254
-0.833194 -0.293865 1.975000 254 254 254
-0.837835 -0.292025 1.986000 254 254 254
-0.833194 -0.286951 1.975000 254 254 254
-0.833194 -0.283493 1.975000 254 254 254
-0.833194 -0.280036 1.975000 254 254 254
-0.837835 -0.278119 1.986000 254 254 254
-0.837835 -0.274643 1.986000 254 254 254
-0.833194 -0.269665 1.975000 254 254 254
-0.833194 -0.266207 1.975000 254 254 254
-0.837835 -0.264213 1.986000 254 254 254
-0.833194 -0.259293 1.975000 254 254 254
-0.833194 -0.255836 1.975000 254 254 254
-0.833194 -0.252378 1.975000 254 254 254
-0.833194 -0.248921 1.975000 254 254 254
-0.833194 -0.245464 1.975000 254 254 254
-0.833194 -0.242007 1.975000 254 254 254
-0.837835 -0.222496 1.986000 254 254 254
-0.837835 -0.219019 1.986000 254 254 254
-0.837835 -0.215543 1.986000 254 254 254
-0.837835 -0.212066 1.986000 254 254 254
-0.842897 -0.209850 1.998000 254 254 254
-0.842897 -0.206352 1.998000 254 254 254
-0.842897 -0.202855 1.998000 254 254 254
-0.842476 -0.199258 1.997000 254 254 254
-0.842476 -0.195762 1.997000 254 254 254
-0.833194 -0.190148 1.975000 254 254 254
-0.836148 -0.187353 1.982000 254 254 254
-0.833194 -0.183234 1.975000 254 254 254
-0.828554 -0.171899 1.964000 254 254 254
-0.828554 -0.168461 1.964000 254 254 254
-0.828554 -0.165023 1.964000 254 254 254
-0.833194 -0.152118 1.975000 254 254 254
-0.842897 -0.139900 1.998000 249 250 252
-0.842897 -0.136402 1.998000 250 250 251
-0.842897 -0.132905 1.998000 251 245 248
-0.842897 -0.129407 1.998000 247 228 245
-0.845007 -0.126225 2.003000 244 237 248
-0.842897 -0.122412 1.998000 237 254 250
-0.837835 -0.118201 1.986000 231 237 246
-0.837835 -0.114724 1.986000 237 253 242
-0.837835 -0.111248 1.986000 244 240 242
-0.837835 -0.107771 1.986000 239 241 242
-0.837835 -0.104295 1.986000 234 229 240
-0.834460 -0.100412 1.978000 235 230 239
-0.837835 -0.076483 1.986000 226 221 237
-0.837835 -0.073006 1.986000 220 239 239
-0.842897 -0.069950 1.998000 214 215 238
-0.837835 -0.066053 1.986000 216 223 236
-0.837835 -0.062577 1.986000 218 216 238
-0.833194 -0.058773 1.975000 210 224 239
-0.833194 -0.055316 1.975000 203 203 239
-0.833194 -0.051859 1.975000 202 204 240
-0.833194 -0.048401 1.975000 202 200 240
-0.833194 -0.044944 1.975000 200 200 241
-0.833194 -0.041487 1.975000 199 197 242
-0.837835 -0.038241 1.986000 193 210 244
-0.837835 -0.034765 1.986000 188 187 244
-0.837835 -0.031288 1.986000 187 194 245
-0.837835 -0.027812 1.986000 186 188 246
-0.837835 -0.024335 1.986000 184 202 248
-0.833194 -0.020743 1.975000 183 177 241
-0.837835 -0.017382 1.986000 179 176 235
-0.833194 -0.013829 1.975000 176 176 238
-0.833194 -0.010372 1.975000 172 181 241
-0.833194 -0.006914 1.975000 168 168 238
-0.833194 -0.003457 1.975000 170 168 235
-0.823491 -0.000000 1.952000 173 168 227
-0.828554 0.003438 1.964000 170 173 218
-0.833194 0.006915 1.975000 167 165 224
-0.833194 0.010372 1.975000 163 164 230
-0.833194 0.013829 1.975000 159 158 227
-0.814632 0.530694 1.931000 114 136 94
-0.814632 0.534074 1.931000 33 43 56
-0.809991 0.534393 1.920000 44 18 18
-0.809991 0.537754 1.920000 56 43 23
-0.809991 0.541115 1.920000 40 50 29
-0.809991 0.544476 1.920000 24 17 21
-0.809991 0.547837 1.920000 17 4 13
-0.809991 0.551198 1.920000 11 4 9
-0.809991 0.554559 1.920000 10 4 4
-0.809991 0.557919 1.920000 9 4 6
-0.805351 0.558065 1.909000 7 5 8
-0.805351 0.561406 1.909000 6 5 5
-0.809991 0.568002 1.920000 5 6 2
-0.805351 0.568090 1.909000 4 4 4
-0.809991 0.574724 1.920000 4 4 6
-0.809991 0.578085 1.920000 4 3 5
-0.814632 0.584777 1.931000 4 4 4
-0.814632 0.588158 1.931000 4 4 3
-0.814632 0.591538 1.931000 4 5 2
-0.814632 0.594918 1.931000 4 4 2
-0.814632 0.598298 1.931000 5 4 2
-0.814632 0.601678 1.931000 6 3 2
-0.814632 0.605059 1.931000 4 2 2
-0.814632 0.608439 1.931000 3 3 3
-0.814632 0.611819 1.931000 5 4 3
-0.814632 0.615199 1.931000 7 3 3
-0.814632 0.618580 1.931000 5 3 4
-0.809991 0.618417 1.920000 4 3 6
-0.814632 0.625340 1.931000 2 4 9
-0.814632 0.628720 1.931000 1 3 6
-0.814632 0.632100 1.931000 2 2 3
-0.814632 0.635481 1.931000 4 3 2
-0.814632 0.638861 1.931000 3 4 1
-0.814632 0.642241 1.931000 3 3 7
-0.814632 0.645621 1.931000 3 3 13
-0.814632 0.649001 1.931000 4 3 8
-0.814632 0.652382 1.931000 3 3 4
-0.814632 0.655762 1.931000 3 2 3
-0.814632 0.659142 1.931000 3 3 2
-0.809991 0.658748 1.920000 3 3 2
-0.704102 0.648592 1.669000 158 139 135
-0.700727 0.648391 1.661000 159 144 145
-0.834358 -0.438038 1.986000 254 254 254
-0.834358 -0.434562 1.986000 254 254 254
-0.834358 -0.431085 1.986000 254 254 254
-0.834358 -0.427609 1.986000 254 254 254
-0.834358 -0.424132 1.986000 254 254 254
-0.834358 -0.420656 1.986000 254 254 254
-0.834358 -0.417179 1.986000 254 254 254
-0.834358 -0.413703 1.986000 254 254 254
-0.834358 -0.410226 1.986000 254 254 254
-0.834358 -0.406750 1.986000 254 254 254
-0.829737 -0.401040 1.975000 254 254 254
-0.829737 -0.397582 1.975000 254 254 254
-0.829737 -0.394125 1.975000 254 254 254
-0.829737 -0.390668 1.975000 254 254 254
-0.834358 -0.389367 1.986000 254 254 254
-0.834358 -0.385891 1.986000 254 254 254
-0.834358 -0.382414 1.986000 254 254 254
-0.834358 -0.378938 1.986000 254 254 254
-0.834358 -0.375461 1.986000 254 254 254
-0.834358 -0.371985 1.986000 254 254 254
-0.834358 -0.368508 1.986000 254 254 254
-0.834358 -0.365032 1.986000 254 254 254
-0.829737 -0.359553 1.975000 254 254 254
-0.829737 -0.352638 1.975000 254 254 254
-0.834358 -0.351126 1.986000 254 254 254
-0.834358 -0.347649 1.986000 254 254 254
-0.834358 -0.344173 1.986000 254 254 254
-0.834358 -0.340696 1.986000 254 254 254
-0.834358 -0.337220 1.986000 254 254 254
-0.834358 -0.333743 1.986000 254 254 254
-0.834358 -0.330267 1.986000 254 254 254
-0.834358 -0.326790 1.986000 254 254 254
-0.834358 -0.323314 1.986000 254 254 254
-0.829737 -0.318066 1.975000 254 254 254
-0.829737 -0.314609 1.975000 254 254 254
-0.834358 -0.312884 1.986000 254 254 254
-0.834358 -0.309408 1.986000 254 254 254
-0.834358 -0.292025 1.986000 254 254 254
-0.829737 -0.286951 1.975000 254 254 254
-0.829737 -0.283493 1.975000 254 254 254
-0.829737 -0.280036 1.975000 254 254 254
-0.834358 -0.278119 1.986000 254 254 254
-0.834358 -0.274643 1.986000 254 254 254
-0.829737 -0.269665 1.975000 254 254 254
-0.829737 -0.266207 1.975000 254 254 254
-0.834358 -0.264213 1.986000 254 254 254
-0.829737 -0.259293 1.975000 254 254 254
-0.829737 -0.255836 1.975000 254 254 254
-0.829737 -0.252378 1.975000 254 254 254
-0.829737 -0.248921 1.975000 254 254 254
-0.839400 -0.223840 1.998000 254 254 254
-0.839400 -0.220342 1.998000 254 254 254
-0.839400 -0.216845 1.998000 254 254 254
-0.839400 -0.213347 1.998000 254 254 254
-0.839400 -0.209850 1.998000 254 254 254
-0.841500 -0.206869 2.003000 254 254 254
-0.841500 -0.203363 2.003000 254 254 254
-0.844021 -0.200455 2.009000 254 254 254
-0.844021 -0.196938 2.009000 254 254 254
-0.836879 -0.191785 1.992000 254 254 254
-0.836039 -0.188109 1.990000 254 254 254
-0.829737 -0.172862 1.975000 254 254 254
-0.825116 -0.168461 1.964000 254 254 254
-0.844021 -0.140670 2.009000 248 252 254
-0.844021 -0.137153 2.009000 250 252 254
-0.849063 -0.134435 2.021000 252 254 252
-0.849063 -0.130897 2.021000 245 243 251
-0.849063 -0.127359 2.021000 239 242 252
-0.849063 -0.123822 2.021000 234 244 254
-0.839400 -0.118915 1.998000 229 228 249
-0.834358 -0.114724 1.986000 234 239 244
-0.839400 -0.111920 1.998000 238 245 245
-0.839400 -0.108422 1.998000 232 237 246
-0.834358 -0.104295 1.986000 227 233 243
-0.834358 -0.100818 1.986000 228 228 241
-0.829737 -0.079516 1.975000 219 214 236
-0.834358 -0.076483 1.986000 217 208 238
-0.834358 -0.073006 1.986000 212 211 240
-0.839400 -0.069950 1.998000 207 192 238
-0.834358 -0.066053 1.986000 210 207 236
-0.834358 -0.062577 1.986000 212 209 237
-0.834358 -0.059100 1.986000 206 205 239
-0.834358 -0.055624 1.986000 200 182 240
-0.829737 -0.051859 1.975000 199 192 241
-0.829737 -0.048401 1.975000 198 189 241
-0.829737 -0.044944 1.975000 195 189 241
-0.829737 -0.041487 1.975000 192 178 241
-0.834358 -0.038241 1.986000 188 188 242
-0.834358 -0.034765 1.986000 184 171 244
-0.849063 -0.031840 2.021000 183 177 247
-0.834358 -0.027812 1.986000 181 163 248
-0.834358 -0.024335 1.986000 176 172 250
-0.834358 -0.020859 1.986000 171 155 243
-0.834358 -0.017382 1.986000 172 166 237
-0.829737 -0.013829 1.975000 172 168 237
-0.829737 -0.010372 1.975000 169 169 238
-0.829737 -0.006914 1.975000 166 157 237
-0.830997 -0.003462 1.978000 167 163 236
-0.829737 0.003457 1.975000 166 163 223
-0.829737 0.006915 1.975000 164 162 229
-0.834358 0.010430 1.986000 161 160 235
-0.834358 0.013906 1.986000 159 157 227
-0.806630 0.527671 1.920000 105 98 47
-0.811252 0.534074 1.931000 28 3 34
-0.811252 0.537454 1.931000 41 26 22
-0.811252 0.540835 1.931000 55 55 23
-0.811252 0.544215 1.931000 38 39 24
-0.811252 0.547595 1.931000 21 5 17
-0.806630 0.547837 1.920000 16 3 10
-0.806630 0.551198 1.920000 11 4 8
-0.806630 0.554559 1.920000 9 4 7
-0.806630 0.557919 1.920000 7 5 9
-0.806630 0.561280 1.920000 8 5 11
-0.806630 0.564641 1.920000 9 5 7
-0.806630 0.568002 1.920000 6 5 3
-0.806630 0.571363 1.920000 4 5 6
-0.811252 0.578017 1.931000 4 3 9
-0.811252 0.581397 1.931000 4 3 6
-0.811252 0.584777 1.931000 3 4 4
-0.811252 0.588158 1.931000 3 6 4
-0.811252 0.591538 1.931000 4 4 4
-0.811252 0.594918 1.931000 6 4 3
-0.811252 0.598298 1.931000 6 3 2
-0.815453 0.604794 1.941000 6 4 2
-0.811252 0.605059 1.931000 5 3 2
-0.811252 0.608439 1.931000 5 4 3
-0.815453 0.614987 1.941000 7 3 4
-0.811252 0.615199 1.931000 9 3 4
-0.811252 0.618580 1.931000 7 3 4
-0.811252 0.621960 1.931000 6 3 6
-0.811252 0.625340 1.931000 4 3 9
-0.811252 0.628720 1.931000 2 3 6
-0.815453 0.635374 1.941000 4 3 4
-0.811252 0.635481 1.931000 5 4 3
-0.811252 0.638861 1.931000 4 3 2
-0.811252 0.642241 1.931000 3 4 11
-0.815453 0.648965 1.941000 3 3 21
-0.811252 0.649001 1.931000 3 4 12
-0.811252 0.652382 1.931000 3 3 4
-0.811252 0.655762 1.931000 3 3 3
-0.701180 0.645670 1.669000 137 131 122
-0.701180 0.648592 1.669000 160 142 136
-0.694458 0.645268 1.653000 162 144 150
-0.830882 -0.438038 1.986000 254 254 254
-0.830882 -0.434562 1.986000 254 254 254
-0.830882 -0.431085 1.986000 254 254 254
-0.830882 -0.424132 1.986000 254 254 254
-0.830882 -0.417179 1.986000 254 254 254
-0.830882 -0.413703 1.986000 254 254 254
-0.830882 -0.410226 1.986000 254 254 254
-0.830882 -0.406750 1.986000 254 254 254
-0.830882 -0.403273 1.986000 254 254 254
-0.830882 -0.399797 1.986000 254 254 254
-0.830882 -0.396320 1.986000 254 254 254
-0.830882 -0.392844 1.986000 254 254 254
-0.835902 -0.391720 1.998000 254 254 254
-0.835902 -0.388222 1.998000 254 254 254
-0.830882 -0.382414 1.986000 254 254 254
-0.830882 -0.378938 1.986000 254 254 254
-0.830882 -0.375461 1.986000 254 254 254
-0.830882 -0.371985 1.986000 254 254 254
-0.826280 -0.363010 1.975000 254 254 254
-0.826280 -0.352638 1.975000 254 254 254
-0.826280 -0.349181 1.975000 254 254 254
-0.826280 -0.345724 1.975000 254 254 254
-0.826280 -0.342267 1.975000 254 254 254
-0.826280 -0.338809 1.975000 254 254 254
-0.830882 -0.337220 1.986000 254 254 254
-0.830882 -0.333743 1.986000 254 254 254
-0.830882 -0.330267 1.986000 254 254 254
-0.833811 -0.327942 1.993000 254 254 254
-0.835902 -0.293790 1.998000 254 254 254
-0.830882 -0.288549 1.986000 254 254 254
-0.830882 -0.285072 1.986000 254 254 254
-0.830882 -0.281596 1.986000 254 254 254
-0.835902 -0.279800 1.998000 254 254 254
-0.830882 -0.274643 1.986000 254 254 254
-0.830882 -0.271166 1.986000 254 254 254
-0.830882 -0.267690 1.986000 254 254 254
-0.830882 -0.264213 1.986000 254 254 254
-0.826280 -0.259293 1.975000 254 254 254
-0.826280 -0.255836 1.975000 254 254 254
-0.826280 -0.252378 1.975000 254 254 254
-0.826280 -0.221263 1.975000 254 254 254
-0.830882 -0.219019 1.986000 254 254 254
-0.835902 -0.216845 1.998000 254 254 254
-0.835902 -0.213347 1.998000 254 254 254
-0.835902 -0.209850 1.998000 254 254 254
-0.840504 -0.207488 2.009000 254 254 254
-0.840504 -0.203972 2.009000 254 254 254
-0.840504 -0.200455 2.009000 254 254 254
-0.840504 -0.196938 2.009000 254 254 254
-0.840504 -0.193421 2.009000 254 254 254
-0.835902 -0.188865 1.998000 254 254 254
-0.830882 -0.173825 1.986000 254 254 254
-0.845525 -0.141510 2.021000 248 247 250
-0.845525 -0.137973 2.021000 251 254 249
-0.840504 -0.133637 2.009000 254 249 247
-0.845525 -0.130897 2.021000 244 251 246
-0.845525 -0.127359 2.021000 234 240 249
-0.845525 -0.123822 2.021000 231 254 252
-0.835902 -0.118915 1.998000 228 235 246
-0.830882 -0.114724 1.986000 230 233 240
-0.830882 -0.111248 1.986000 233 234 242
-0.835902 -0.108422 1.998000 226 231 244
-0.830882 -0.104295 1.986000 220 225 241
-0.826280 -0.100260 1.975000 222 217 239
-0.821678 -0.082512 1.964000 216 214 238
-0.826280 -0.079516 1.975000 212 203 236
-0.830882 -0.076483 1.986000 208 207 238
-0.830882 -0.073006 1.986000 204 207 240
-0.835902 -0.069950 1.998000 201 198 239
-0.835902 -0.066452 1.998000 204 204 237
-0.835902 -0.062955 1.998000 207 207 239
-0.830882 -0.059100 1.986000 202 205 241
-0.830882 -0.055624 1.986000 197 196 241
-0.826280 -0.051859 1.975000 196 194 242
-0.826280 -0.048401 1.975000 195 193 241
-0.826280 -0.044944 1.975000 190 191 241
-0.826280 -0.041487 1.975000 185 185 241
-0.833811 -0.038376 1.993000 183 193 241
-0.835484 -0.034957 1.997000 181 181 242
-0.845525 -0.031840 2.021000 179 181 243
-0.830882 -0.027812 1.986000 177 175 243
-0.835484 -0.024470 1.997000 168 171 244
-0.835484 -0.020974 1.997000 160 166 239
-0.835484 -0.017479 1.997000 164 165 235
-0.835902 -0.013990 1.998000 169 169 234
-0.830882 -0.010429 1.986000 166 172 232
-0.826280 -0.006914 1.975000 164 166 232
-0.829208 -0.003469 1.982000 164 165 232
-0.828372 0.003466 1.980000 163 155 222
-0.830882 0.006953 1.986000 162 157 224
-0.835902 0.010493 1.998000 160 158 226
-1.476008 0.605225 3.528000 77 55 68
-0.803270 0.527671 1.920000 96 98 77
-0.807872 0.534074 1.931000 23 32 51
-0.807872 0.537454 1.931000 38 28 24
-0.807872 0.540835 1.931000 54 46 23
-0.807872 0.544215 1.931000 36 49 22
-0.807872 0.547595 1.931000 19 14 16
-0.803270 0.547837 1.920000 15 2 11
-0.807872 0.554355 1.931000 11 3 8
-0.807872 0.557736 1.931000 8 4 6
-0.803270 0.557919 1.920000 5 4 7
-0.803270 0.561280 1.920000 8 5 8
-0.803270 0.564641 1.920000 12 5 5
-0.803270 0.568002 1.920000 8 5 2
-0.803270 0.571363 1.920000 5 4 4
-0.807872 0.578017 1.931000 4 3 6
-0.807872 0.581397 1.931000 4 3 5
-0.807872 0.584777 1.931000 3 4 4
-0.807872 0.588158 1.931000 2 4 3
-0.807872 0.591538 1.931000 5 4 3
-0.812055 0.597999 1.941000 9 3 3
-0.812055 0.601397 1.941000 8 3 2
-0.812055 0.604794 1.941000 7 3 2
-0.807872 0.605059 1.931000 7 5 2
-0.812055 0.611590 1.941000 7 3 3
-0.812055 0.614987 1.941000 9 3 4
-0.812055 0.618385 1.941000 12 3 5
-0.812055 0.621783 1.941000 10 3 6
-0.807872 0.621960 1.931000 8 3 9
-0.807872 0.625340 1.931000 6 3 11
-0.812055 0.631976 1.941000 4 3 8
-0.807872 0.632100 1.931000 5 4 6
-0.807872 0.635481 1.931000 7 3 4
-0.807872 0.638861 1.931000 5 3 2
-0.812055 0.645567 1.941000 4 3 8
-0.807872 0.645621 1.931000 3 3 15
-0.807872 0.649001 1.931000 2 3 9
-0.803270 0.648665 1.920000 3 4 3
-0.698259 0.645670 1.669000 143 139 125
-0.694912 0.645483 1.661000 163 142 136
-0.694912 0.648391 1.661000 165 140 147
-0.832405 -0.440685 1.998000 254 254 254
-0.832405 -0.437187 1.998000 254 254 254
-0.827405 -0.417179 1.986000 254 254 254
-0.827405 -0.413703 1.986000 254 254 254
-0.832405 -0.412705 1.998000 254 254 254
-0.832405 -0.409207 1.998000 254 254 254
-0.827405 -0.403273 1.986000 254 254 254
-0.827405 -0.399797 1.986000 254 254 254
-0.827405 -0.396320 1.986000 254 254 254
-0.827405 -0.392844 1.986000 254 254 254
-0.832405 -0.391720 1.998000 254 254 254
-0.832405 -0.388222 1.998000 254 254 254
-0.832405 -0.384725 1.998000 254 254 254
-0.832405 -0.381227 1.998000 254 254 254
-0.832405 -0.377730 1.998000 254 254 254
-0.827405 -0.347649 1.986000 254 254 254
-0.827405 -0.344173 1.986000 254 254 254
-0.827405 -0.340696 1.986000 254 254 254
-0.832405 -0.339257 1.998000 254 254 254
-0.832405 -0.335760 1.998000 254 254 254
-0.831988 -0.332096 1.997000 254 254 254
-0.833655 -0.329259 2.001000 254 254 254
-0.832405 -0.293790 1.998000 254 254 254
-0.832405 -0.290292 1.998000 254 254 254
-0.827405 -0.285072 1.986000 254 254 254
-0.827405 -0.281596 1.986000 254 254 254
-0.832405 -0.279800 1.998000 254 254 254
-0.827405 -0.274643 1.986000 254 254 254
-0.822823 -0.269665 1.975000 254 254 254
-0.822823 -0.266207 1.975000 254 254 254
-0.822823 -0.262750 1.975000 254 254 254
-0.822823 -0.259293 1.975000 254 254 254
-0.822823 -0.255836 1.975000 254 254 254
-0.832405 -0.216845 1.998000 254 254 254
-0.832405 -0.213347 1.998000 254 254 254
-0.832405 -0.209850 1.998000 254 254 254
-0.836988 -0.207488 2.009000 254 254 254
-0.836988 -0.203972 2.009000 254 254 254
-0.836988 -0.200455 2.009000 254 254 254
-0.832405 -0.195860 1.998000 254 254 254
-0.836988 -0.193421 2.009000 254 254 254
-0.832405 -0.188865 1.998000 254 254 254
-0.827405 -0.173825 1.986000 254 254 254
-0.836988 -0.144187 2.009000 249 246 250
-0.841987 -0.141510 2.021000 244 229 247
-0.836988 -0.137153 2.009000 248 243 244
-0.836988 -0.133637 2.009000 253 240 243
-0.841987 -0.130897 2.021000 243 240 242
-0.841987 -0.127359 2.021000 233 216 246
-0.841987 -0.123822 2.021000 232 237 250
-0.834488 -0.119213 2.003000 231 226 243
-0.832405 -0.115417 1.998000 232 231 237
-0.832405 -0.111920 1.998000 234 230 239
-0.834488 -0.108694 2.003000 229 233 242
-0.827405 -0.104295 1.986000 225 220 240
-0.822823 -0.082974 1.975000 217 222 238
-0.827405 -0.079959 1.986000 213 211 236
-0.827405 -0.076483 1.986000 210 212 238
-0.827405 -0.073006 1.986000 206 209 241
-0.832405 -0.069950 1.998000 202 191 240
-0.832405 -0.066452 1.998000 204 206 239
-0.832405 -0.062955 1.998000 207 213 241
-0.832405 -0.059457 1.998000 203 211 243
-0.827405 -0.055624 1.986000 199 203 243
-0.827405 -0.052147 1.986000 196 195 243
-0.827405 -0.048671 1.986000 194 198 242
-0.822823 -0.044944 1.975000 189 191 242
-0.832405 -0.041970 1.998000 185 181 241
-0.833655 -0.038530 2.001000 184 191 240
-0.836988 -0.035168 2.009000 183 182 240
-0.836988 -0.031651 2.009000 180 180 240
-0.827405 -0.027812 1.986000 177 185 239
-0.836988 -0.024617 2.009000 171 178 238
-0.836988 -0.021101 2.009000 164 173 236
-0.836988 -0.017584 2.009000 167 170 234
-0.834488 -0.014025 2.003000 171 173 230
-0.827405 -0.010429 1.986000 167 172 227
-0.822823 -0.006914 1.975000 163 170 227
-0.827405 -0.003476 1.986000 162 168 228
-0.827405 0.003477 1.986000 160 158 221
-0.827405 0.006953 1.986000 159 156 219
-0.827405 0.010430 1.986000 157 154 218
-1.618565 0.231224 3.885000 32 31 45
-1.618565 0.238024 3.885000 33 28 36
-1.600650 0.242115 3.842000 34 26 25
-1.600650 0.248841 3.842000 25 24 14
-1.469832 0.592874 3.528000 57 53 76
-1.469832 0.599049 3.528000 61 54 62
-1.469832 0.605225 3.528000 66 58 62
-0.799909 0.527671 1.920000 92 68 108
-0.804491 0.534074 1.931000 21 2 67
-0.804491 0.537454 1.931000 36 30 27
-0.804491 0.540835 1.931000 52 53 24
-0.804491 0.544215 1.931000 34 36 21
-0.804491 0.547595 1.931000 16 2 16
-0.804491 0.550975 1.931000 13 2 12
-0.804491 0.554355 1.931000 10 3 8
-0.804491 0.557736 1.931000 7 4 5
-0.804491 0.561116 1.931000 4 5 5
-0.804491 0.564496 1.931000 7 4 5
-0.804491 0.567876 1.931000 9 5 3
-0.804491 0.571257 1.931000 7 4 2
-0.804491 0.574637 1.931000 4 3 3
-0.804491 0.578017 1.931000 4 3 4
-0.804491 0.581397 1.931000 4 4 4
-0.804491 0.584777 1.931000 3 3 4
-0.808658 0.591204 1.941000 2 3 3
-0.808658 0.594601 1.941000 4 3 3
-0.808658 0.597999 1.941000 6 3 3
-0.808658 0.601397 1.941000 6 2 3
-0.808658 0.604794 1.941000 6 2 2
-0.808658 0.608192 1.941000 5 3 2
-0.808658 0.611590 1.941000 5 3 3
-0.808658 0.614987 1.941000 6 3 4
-0.808658 0.618385 1.941000 8 3 6
-0.808658 0.621783 1.941000 7 3 9
-0.808658 0.625181 1.941000 6 4 11
-0.804491 0.625340 1.931000 5 3 14
-0.804491 0.628720 1.931000 4 2 11
-0.804491 0.632100 1.931000 4 3 8
-0.804491 0.635481 1.931000 5 3 5
-0.804491 0.638861 1.931000 4 3 3
-0.804491 0.642241 1.931000 3 4 6
-0.804491 0.645621 1.931000 3 3 9
-0.799909 0.645304 1.920000 3 4 5
-0.799909 0.648665 1.920000 3 4 2
-0.695337 0.645670 1.669000 145 134 129
-0.695337 0.648592 1.669000 163 147 137
-0.692004 0.648391 1.661000 165 146 145
-0.823929 -0.417179 1.986000 254 254 254
-0.823929 -0.413703 1.986000 254 254 254
-0.823929 -0.410226 1.986000 254 254 254
-0.823929 -0.406750 1.986000 254 254 254
-0.823929 -0.403273 1.986000 254 254 254
-0.823929 -0.399797 1.986000 254 254 254
-0.828907 -0.398715 1.998000 254 254 254
-0.828907 -0.395217 1.998000 254 254 254
-0.830982 -0.392700 2.003000 254 254 254
-0.830982 -0.389194 2.003000 254 254 254
-0.828907 -0.384725 1.998000 254 254 254
-0.828907 -0.381227 1.998000 254 254 254
-0.823929 -0.347649 1.986000 254 254 254
-0.828907 -0.346252 1.998000 254 254 254
-0.828907 -0.342755 1.998000 254 254 254
-0.830982 -0.340106 2.003000 254 254 254
-0.828907 -0.335760 1.998000 254 254 254
-0.833471 -0.334092 2.009000 254 254 254
-0.833471 -0.330575 2.009000 254 254 254
-0.828907 -0.293790 1.998000 254 254 254
-0.828907 -0.290292 1.998000 254 254 254
-0.823929 -0.285072 1.986000 254 254 254
-0.823929 -0.281596 1.986000 254 254 254
-0.823929 -0.278119 1.986000 254 254 254
-0.823929 -0.274643 1.986000 254 254 254
-0.819365 -0.269665 1.975000 254 254 254
-0.819365 -0.266207 1.975000 254 254 254
-0.819365 -0.262750 1.975000 254 254 254
-0.819365 -0.259293 1.975000 254 254 254
-0.823929 -0.257260 1.986000 254 254 254
-0.830982 -0.217388 2.003000 254 254 254
-0.830982 -0.213881 2.003000 254 254 254
-0.828907 -0.209850 1.998000 254 254 254
-0.833471 -0.207488 2.009000 254 254 254
-0.833471 -0.203972 2.009000 254 254 254
-0.833471 -0.200455 2.009000 254 254 254
-0.833471 -0.196938 2.009000 254 254 254
-0.833471 -0.193421 2.009000 254 254 254
-0.828907 -0.188865 1.998000 254 254 254
-0.838449 -0.148586 2.021000 254 248 245
-0.838449 -0.145048 2.021000 247 254 246
-0.838449 -0.141510 2.021000 240 241 244
-0.838449 -0.137973 2.021000 246 252 242
-0.838449 -0.134435 2.021000 252 247 242
-0.838449 -0.130897 2.021000 242 254 243
-0.838449 -0.127359 2.021000 233 232 244
-0.838449 -0.123822 2.021000 234 254 245
-0.833471 -0.119570 2.009000 235 234 240
-0.828907 -0.115417 1.998000 235 235 235
-0.828907 -0.111920 1.998000 235 233 238
-0.833471 -0.109019 2.009000 232 254 241
-0.823929 -0.104295 1.986000 230 228 238
-0.819365 -0.082974 1.975000 219 218 236
-0.823929 -0.079959 1.986000 215 210 236
-0.823929 -0.076483 1.986000 212 211 238
-0.828907 -0.073447 1.998000 208 226 240
-0.828907 -0.069950 1.998000 204 206 239
-0.828907 -0.066452 1.998000 205 219 238
-0.828907 -0.062955 1.998000 207 211 240
-0.828907 -0.059457 1.998000 204 223 243
-0.823929 -0.055624 1.986000 201 199 242
-0.828907 -0.052462 1.998000 197 188 241
-0.828907 -0.048965 1.998000 194 192 242
-0.828907 -0.045467 1.998000 189 197 243
-0.828907 -0.041970 1.998000 185 186 243
-0.833471 -0.038684 2.009000 185 210 244
-0.833471 -0.035168 2.009000 186 186 243
-0.833471 -0.031651 2.009000 182 175 243
-0.823929 -0.027812 1.986000 178 178 242
-0.823929 -0.024335 1.986000 173 184 241
-0.828907 -0.020985 1.998000 169 170 236
-0.833471 -0.017584 2.009000 171 170 232
-0.833471 -0.014067 2.009000 173 169 229
-0.828907 -0.010492 1.998000 168 174 227
-0.819365 -0.006914 1.975000 163 167 224
-0.823929 0.006953 1.986000 157 154 215
-0.828907 0.010493 1.998000 155 155 215
-1.593925 0.228665 3.842000 34 29 45
-1.593925 0.235390 3.842000 34 29 41
-1.593925 0.242115 3.842000 34 27 34
-1.593925 0.248841 3.842000 25 27 28
-1.576501 0.312640 3.800000 48 39 58
-1.576501 0.319291 3.800000 54 48 67
-1.542481 0.325418 3.718000 56 60 65
-1.542481 0.331926 3.718000 67 78 53
-1.542481 0.338435 3.718000 79 64 58
-1.542481 0.344943 3.718000 66 79 63
-1.526301 0.347765 3.679000 54 52 51
-1.542481 0.357960 3.718000 52 44 38
-1.542481 0.364468 3.718000 51 33 48
-1.542481 0.370977 3.718000 50 17 58
-1.463656 0.592874 3.528000 51 47 68
-1.463656 0.599049 3.528000 53 56 60
-1.449136 0.599221 3.493000 56 47 60
-1.434615 0.599270 3.458000 57 56 60
-1.434615 0.611376 3.458000 56 65 58
-0.801111 0.530694 1.931000 88 26 77
-0.801111 0.534074 1.931000 20 19 59
-0.801111 0.537454 1.931000 35 37 41
-0.801111 0.540835 1.931000 50 44 29
-0.801111 0.544215 1.931000 31 42 17
-0.801111 0.547595 1.931000 13 12 14
-0.801111 0.550975 1.931000 11 2 10
-0.801111 0.554355 1.931000 9 3 7
-0.801111 0.557736 1.931000 6 4 4
-0.801111 0.561116 1.931000 4 4 4
-0.801111 0.564496 1.931000 5 4 5
-0.805260 0.570817 1.941000 7 3 3
-0.805260 0.574215 1.941000 5 3 2
-0.801111 0.574637 1.931000 4 3 2
-0.805260 0.581010 1.941000 4 5 2
-0.805260 0.584408 1.941000 4 4 3
-0.805260 0.587806 1.941000 3 3 4
-0.805260 0.591204 1.941000 3 3 3
-0.805260 0.594601 1.941000 3 4 3
-0.805260 0.597999 1.941000 4 3 4
-0.805260 0.601397 1.941000 4 3 5
-0.805260 0.604794 1.941000 5 2 3
-0.805260 0.608192 1.941000 4 3 1
-0.805260 0.611590 1.941000 4 3 2
-0.805260 0.614987 1.941000 4 4 2
-0.809823 0.621890 1.952000 4 4 4
-0.805260 0.621783 1.941000 4 4 6
-0.805260 0.625181 1.941000 4 3 8
-0.805260 0.628578 1.941000 4 3 11
-0.805260 0.631976 1.941000 5 2 9
-0.805260 0.635374 1.941000 4 3 7
-0.801111 0.635481 1.931000 3 3 5
-0.805260 0.642169 1.941000 3 3 3
-0.809823 0.649226 1.952000 3 3 4
-0.805260 0.648965 1.941000 3 3 6
-0.801111 0.649001 1.931000 4 4 3
-0.801111 0.652382 1.931000 4 5 1
-0.692416 0.642749 1.669000 132 116 103
-0.692416 0.645670 1.669000 147 130 138
-0.689097 0.645483 1.661000 163 140 139
-0.689097 0.648391 1.661000 166 148 141
-0.820453 -0.417179 1.986000 254 254 254
-0.820453 -0.413703 1.986000 254 254 254
-0.820453 -0.410226 1.986000 254 254 254
-0.820453 -0.406750 1.986000 254 254 254
-0.820453 -0.403273 1.986000 254 254 254
-0.820453 -0.399797 1.986000 254 254 254
-0.825410 -0.398715 1.998000 254 254 254
-0.827475 -0.396206 2.003000 254 254 254
-0.829954 -0.393877 2.009000 254 254 254
-0.829954 -0.390360 2.009000 254 254 254
-0.825410 -0.384725 1.998000 254 254 254
-0.825410 -0.381227 1.998000 254 254 254
-0.824997 -0.349575 1.997000 254 254 254
-0.827475 -0.347119 2.003000 254 254 254
-0.829954 -0.344642 2.009000 254 254 254
-0.829954 -0.341125 2.009000 254 254 254
-0.829954 -0.337608 2.009000 254 254 254
-0.834912 -0.336087 2.021000 254 254 254
-0.829954 -0.330575 2.009000 254 254 254
-0.825410 -0.293790 1.998000 254 254 254
-0.825410 -0.290292 1.998000 254 254 254
-0.825410 -0.286795 1.998000 254 254 254
-0.825410 -0.283297 1.998000 254 254 254
-0.825410 -0.279800 1.998000 254 254 254
-0.825410 -0.276302 1.998000 254 254 254
-0.820453 -0.271166 1.986000 254 254 254
-0.820453 -0.267690 1.986000 254 254 254
-0.820453 -0.264213 1.986000 254 254 254
-0.825410 -0.262312 1.998000 254 254 254
-0.820453 -0.257260 1.986000 254 254 254
-0.829954 -0.218039 2.009000 254 254 254
-0.829954 -0.214522 2.009000 254 254 254
-0.825410 -0.209850 1.998000 254 254 254
-0.829954 -0.207488 2.009000 254 254 254
-0.834912 -0.205190 2.021000 254 254 254
-0.834912 -0.201652 2.021000 253 254 254
-0.829954 -0.196938 2.009000 253 254 254
-0.829954 -0.193421 2.009000 252 254 254
-0.825410 -0.188865 1.998000 250 254 254
-0.834912 -0.148586 2.021000 247 237 244
-0.834912 -0.145048 2.021000 240 239 243
-0.834912 -0.141510 2.021000 234 229 242
-0.834912 -0.137973 2.021000 239 238 241
-0.834912 -0.134435 2.021000 245 244 242
-0.834912 -0.130897 2.021000 238 234 244
-0.834912 -0.127359 2.021000 230 204 242
-0.834912 -0.123822 2.021000 232 227 241
-0.834912 -0.120284 2.021000 233 221 237
-0.827475 -0.115706 2.003000 231 221 233
-0.829954 -0.112536 2.009000 230 214 236
-0.829954 -0.109019 2.009000 224 220 240
-0.825410 -0.104925 1.998000 218 191 237
-0.825410 -0.080442 1.998000 209 204 236
-0.825410 -0.076945 1.998000 204 196 237
-0.825410 -0.073447 1.998000 202 204 239
-0.825410 -0.069950 1.998000 199 189 238
-0.825410 -0.066452 1.998000 200 195 237
-0.825410 -0.062955 1.998000 200 189 240
-0.825410 -0.059457 1.998000 196 195 243
-0.825410 -0.055960 1.998000 192 184 241
-0.825410 -0.052462 1.998000 191 185 239
-0.825410 -0.048965 1.998000 190 187 241
-0.825410 -0.045467 1.998000 185 181 244
-0.825410 -0.041970 1.998000 181 158 246
-0.829954 -0.038684 2.009000 181 180 248
-0.829954 -0.035168 2.009000 182 177 247
-0.829954 -0.031651 2.009000 180 171 246
-0.824997 -0.027966 1.997000 177 168 245
-0.825410 -0.024482 1.998000 172 171 244
-0.827475 -0.021037 2.003000 167 155 237
-0.829954 -0.017584 2.009000 168 163 230
-0.829954 -0.014067 2.009000 169 160 229
-0.825410 -0.010492 1.998000 166 164 228
-0.820453 0.006953 1.986000 156 154 211
-0.820453 0.010430 1.986000 154 153 212
-1.587200 0.221939 3.842000 35 29 46
-1.569849 0.226165 3.800000 36 25 46
-1.569849 0.232817 3.800000 36 28 46
-1.569849 0.239469 3.800000 37 26 44
-1.552911 0.243465 3.759000 33 31 42
-1.552911 0.250045 3.759000 29 39 40
-1.552911 0.309266 3.759000 45 33 54
-1.552911 0.315846 3.759000 48 30 58
-1.552911 0.322427 3.759000 49 37 62
-1.535973 0.325418 3.718000 50 35 60
-1.535973 0.331926 3.718000 55 43 59
-1.535973 0.338435 3.718000 61 34 57
-1.519861 0.341325 3.679000 48 39 55
-1.519861 0.347765 3.679000 36 26 38
-1.519861 0.354205 3.679000 40 31 21
-1.519861 0.360645 3.679000 45 31 35
-1.519861 0.367085 3.679000 43 21 49
-1.457480 0.592874 3.528000 40 29 61
-1.457480 0.599049 3.528000 43 32 58
-1.457480 0.605225 3.528000 46 21 58
-1.443021 0.605335 3.493000 47 32 58
-1.428562 0.605323 3.458000 49 35 56
-1.443021 0.617564 3.493000 46 41 54
-1.443021 0.623679 3.493000 43 36 50
-1.443021 0.629793 3.493000 46 38 47
-0.801862 0.533442 1.941000 85 42 47
-0.801862 0.536840 1.941000 28 14 51
-0.801862 0.540238 1.941000 37 35 55
-0.801862 0.543635 1.941000 47 46 34
-0.797731 0.544215 1.931000 29 27 14
-0.801862 0.550431 1.941000 12 4 11
-0.797731 0.550975 1.931000 11 3 9
-0.801862 0.557226 1.941000 9 4 6
-0.797731 0.557736 1.931000 8 4 3
-0.797731 0.561116 1.931000 6 4 4
-0.801862 0.567419 1.941000 6 3 5
-0.801862 0.570817 1.941000 7 3 4
-0.801862 0.574215 1.941000 6 3 3
-0.801862 0.577613 1.941000 5 4 2
-0.801862 0.581010 1.941000 4 4 1
-0.801862 0.584408 1.941000 4 4 2
-0.801862 0.587806 1.941000 3 3 4
-0.801862 0.591204 1.941000 3 3 4
-0.801862 0.594601 1.941000 3 3 4
-0.801862 0.597999 1.941000 3 4 6
-0.806406 0.604805 1.952000 3 3 8
-0.801862 0.604794 1.941000 4 2 4
-0.801862 0.608192 1.941000 5 2 1
-0.801862 0.611590 1.941000 5 3 1
-0.801862 0.614987 1.941000 4 4 1
-0.801862 0.618385 1.941000 4 5 2
-0.801862 0.621783 1.941000 4 4 4
-0.801862 0.625181 1.941000 4 4 6
-0.801862 0.628578 1.941000 4 3 8
-0.801862 0.631976 1.941000 4 3 7
-0.801862 0.635374 1.941000 3 3 7
-0.801862 0.638772 1.941000 3 3 5
-0.801862 0.642169 1.941000 3 2 3
-0.806406 0.649226 1.952000 3 3 3
-0.801862 0.648965 1.941000 3 3 3
-0.793187 0.645304 1.920000 4 4 2
-0.793187 0.648665 1.920000 3 4 1
-0.689494 0.639827 1.669000 108 92 74
-0.689494 0.642749 1.669000 138 131 110
-0.689494 0.645670 1.669000 150 135 147
-0.689494 0.648592 1.669000 163 138 142
-0.689494 0.651513 1.669000 168 147 138
-0.816976 -0.417179 1.986000 254 254 254
-0.816976 -0.413703 1.986000 254 254 254
-0.812451 -0.407954 1.975000 254 254 254
-0.816976 -0.406750 1.986000 254 254 254
-0.816976 -0.403273 1.986000 254 254 254
-0.816976 -0.399797 1.986000 254 254 254
-0.821912 -0.398715 1.998000 254 254 254
-0.826437 -0.397393 2.009000 254 254 254
-0.826437 -0.393877 2.009000 254 254 254
-0.826437 -0.390360 2.009000 254 254 254
-0.823969 -0.385688 2.003000 254 254 254
-0.826437 -0.351675 2.009000 254 254 254
-0.826437 -0.348159 2.009000 254 254 254
-0.831374 -0.346701 2.021000 254 254 254
-0.831374 -0.343163 2.021000 254 254 254
-0.831374 -0.339625 2.021000 254 254 254
-0.826437 -0.334092 2.009000 254 254 254
-0.826437 -0.330575 2.009000 254 254 254
-0.826437 -0.327058 2.009000 254 254 254
-0.821912 -0.293790 1.998000 254 254 254
-0.821912 -0.290292 1.998000 254 254 254
-0.821912 -0.286795 1.998000 254 254 254
-0.821912 -0.283297 1.998000 254 254 254
-0.821912 -0.279800 1.998000 254 254 254
-0.816976 -0.274643 1.986000 254 254 254
-0.816976 -0.271166 1.986000 254 254 254
