ply
format ascii 1.0
element vertex 1276
property float x
property float y
property float z
property uchar red
property uchar green
property uchar blue
end_header
-0.363780 0.012262 2.335000 65 40 27
-0.363780 0.016350 2.335000 64 39 19
-0.363780 0.020437 2.335000 65 36 12
-0.363780 0.024525 2.335000 67 38 16
-0.363780 0.028612 2.335000 68 40 21
-0.363780 0.032699 2.335000 69 38 18
-0.361443 0.036550 2.320000 69 41 14
-0.361443 0.040612 2.320000 69 40 18
-0.361443 0.044673 2.320000 68 40 21
-0.363780 0.049049 2.335000 67 36 18
-0.363780 0.053136 2.335000 69 30 15
-0.363780 0.057224 2.335000 71 35 17
-0.363780 0.061311 2.335000 69 38 20
-0.363780 0.065399 2.335000 67 36 26
-0.363780 0.069486 2.335000 65 33 33
-0.363780 0.073574 2.335000 64 33 24
-0.363780 0.077661 2.335000 65 36 16
-0.363780 0.081748 2.335000 67 36 13
-0.363780 0.085836 2.335000 67 34 10
-0.363780 0.089923 2.335000 67 36 13
-0.363780 0.094011 2.335000 71 35 16
-0.361443 0.097468 2.320000 76 35 18
-0.363780 0.102186 2.335000 71 34 21
-0.363780 0.106273 2.335000 67 36 21
-0.363780 0.110360 2.335000 66 37 21
-0.363780 0.114448 2.335000 65 36 17
-0.363780 0.118535 2.335000 66 37 13
-0.363780 0.122623 2.335000 67 37 18
-0.363780 0.126710 2.335000 66 36 23
-0.363780 0.130797 2.335000 65 37 24
-0.363780 0.134885 2.335000 65 39 25
-0.363780 0.138972 2.335000 66 36 17
-0.363780 0.143060 2.335000 66 34 9
-0.363780 0.147147 2.335000 67 37 13
-0.363780 0.151234 2.335000 65 39 18
-0.363780 0.155322 2.335000 63 38 24
-0.363780 0.159409 2.335000 63 41 30
-0.363780 0.163497 2.335000 63 38 27
-0.363780 0.167584 2.335000 66 35 24
-0.363780 0.171672 2.335000 70 35 18
-0.363780 0.175759 2.335000 69 34 13
-0.363780 0.179846 2.335000 68 37 16
-0.361443 0.182752 2.320000 67 39 20
-0.361443 0.186813 2.320000 67 38 17
-0.361443 0.190875 2.320000 67 37 15
-0.361443 0.194936 2.320000 67 35 19
-0.361443 0.198997 2.320000 68 34 23
-0.361443 0.203058 2.320000 70 35 18
-0.361443 0.207119 2.320000 68 38 12
-0.361443 0.211180 2.320000 67 37 15
-0.361443 0.215242 2.320000 67 33 18
-0.361443 0.219303 2.320000 67 33 18
-0.361443 0.223364 2.320000 67 36 18
-0.361443 0.227425 2.320000 67 36 21
-0.361443 0.231486 2.320000 66 36 24
-0.361443 0.235547 2.320000 66 36 20
-0.361443 0.239609 2.320000 66 37 17
-0.361443 0.243670 2.320000 67 36 17
-0.361443 0.247731 2.320000 68 36 18
-0.361443 0.251792 2.320000 70 35 19
-0.361443 0.255853 2.320000 70 34 20
-0.361443 0.259914 2.320000 71 35 24
-0.361443 0.263975 2.320000 69 39 27
-0.361443 0.268037 2.320000 68 38 23
-0.361443 0.272098 2.320000 65 36 19
-0.361443 0.276159 2.320000 63 38 16
-0.361443 0.280220 2.320000 62 40 14
-0.361443 0.284281 2.320000 62 37 15
-0.361443 0.288342 2.320000 64 36 17
-0.361443 0.292404 2.320000 66 36 13
-0.361443 0.296465 2.320000 67 35 10
-0.361443 0.300526 2.320000 69 35 18
-0.361443 0.304587 2.320000 69 36 27
-0.361443 0.308648 2.320000 69 37 23
-0.361443 0.312709 2.320000 64 39 18
-0.361443 0.316771 2.320000 59 39 15
-0.361443 0.320832 2.320000 63 39 12
-0.361443 0.324893 2.320000 67 38 17
-0.361443 0.328954 2.320000 64 42 22
-0.361443 0.333015 2.320000 62 40 24
-0.361443 0.337076 2.320000 64 38 27
-0.361443 0.341137 2.320000 67 37 16
-0.361443 0.345199 2.320000 72 35 6
-0.361443 0.349260 2.320000 78 32 8
-0.361443 0.353321 2.320000 72 30 10
-0.361443 0.357382 2.320000 67 34 13
-0.361443 0.361443 2.320000 67 34 17
-0.361443 0.365505 2.320000 67 32 22
-0.361443 0.369566 2.320000 68 30 27
-0.361443 0.373627 2.320000 70 32 20
-0.361443 0.377688 2.320000 67 34 14
-0.361443 0.381749 2.320000 65 35 12
-0.361443 0.385810 2.320000 67 35 11
-0.361443 0.389872 2.320000 70 37 12
-0.361443 0.393933 2.320000 66 39 12
-0.361443 0.397994 2.320000 63 36 11
-0.361443 0.402055 2.320000 64 34 11
-0.361443 0.406116 2.320000 65 34 12
-0.361443 0.410177 2.320000 68 37 14
-0.361443 0.414238 2.320000 71 35 19
-0.361443 0.418300 2.320000 73 33 24
-0.361443 0.422361 2.320000 76 34 19
-0.361443 0.426422 2.320000 71 34 14
-0.361443 0.430483 2.320000 67 35 14
-0.361443 0.434544 2.320000 62 32 14
-0.361443 0.438605 2.320000 58 31 12
-0.361443 0.442667 2.320000 61 33 11
-0.361443 0.446728 2.320000 64 34 13
-0.361443 0.450789 2.320000 65 35 15
-0.361443 0.454850 2.320000 67 35 13
-0.361443 0.458911 2.320000 70 34 12
-0.361443 0.462972 2.320000 74 33 12
-0.361443 0.467034 2.320000 70 36 11
-0.361443 0.471095 2.320000 66 35 10
-0.361443 0.475156 2.320000 66 30 9
-0.361443 0.479217 2.320000 67 30 10
-0.361443 0.483278 2.320000 64 32 11
-0.361443 0.487339 2.320000 61 35 13
-0.361443 0.491400 2.320000 60 38 15
-0.361443 0.495462 2.320000 60 35 18
-0.361443 0.499523 2.320000 61 32 22
-0.361443 0.503584 2.320000 63 30 17
-0.361443 0.507645 2.320000 65 31 13
-0.361443 0.511706 2.320000 67 30 10
-0.361443 0.515767 2.320000 64 34 8
-0.361443 0.519829 2.320000 61 33 8
-0.361443 0.523890 2.320000 60 34 7
-0.361443 0.527951 2.320000 59 32 8
-0.361443 0.532012 2.320000 60 30 9
-0.361443 0.536073 2.320000 62 31 14
-0.361443 0.540134 2.320000 57 30 18
-0.361443 0.544196 2.320000 53 32 15
-0.361443 0.548257 2.320000 55 35 12
-0.358951 0.548509 2.304000 58 33 14
-0.358951 0.552542 2.304000 56 33 16
-0.361443 0.560440 2.320000 55 35 21
-0.361443 0.564501 2.320000 60 37 27
-0.361443 0.568563 2.320000 65 31 21
-0.361443 0.572624 2.320000 65 26 16
-0.361443 0.576685 2.320000 66 26 13
-0.361443 0.580746 2.320000 65 21 11
-0.361443 0.584807 2.320000 64 20 7
-0.361443 0.588868 2.320000 33 11 4
-0.361443 0.592930 2.320000 2 6 3
-0.361443 0.596991 2.320000 4 5 3
-0.361443 0.601052 2.320000 6 5 3
-0.361443 0.605113 2.320000 6 5 3
-0.361443 0.609174 2.320000 7 4 3
-0.361443 0.613235 2.320000 5 4 3
-0.363780 0.621288 2.335000 3 4 2
-0.363780 0.625375 2.335000 3 4 1
-0.366273 0.633776 2.351000 3 4 1
-0.366273 0.637891 2.351000 4 5 2
-0.368766 0.646376 2.367000 6 3 4
-0.368766 0.650519 2.367000 5 2 6
-0.368766 0.654663 2.367000 5 3 4
-0.368766 0.658806 2.367000 5 3 3
-0.366273 0.658468 2.351000 6 2 6
-0.368766 0.667093 2.367000 4 1 8
-0.366273 0.666699 2.351000 3 2 5
-0.366273 0.670815 2.351000 2 5 3
-0.366273 0.674930 2.351000 1 3 3
-0.366273 0.679045 2.351000 2 3 3
-0.363780 0.678511 2.335000 3 3 2
-0.366273 0.687276 2.351000 4 3 2
-0.366273 0.691392 2.351000 6 2 2
-0.363780 0.690774 2.335000 4 2 2
-0.363780 0.694861 2.335000 3 2 3
-0.311277 0.675017 1.998000 60 34 39
-0.309408 0.674440 1.986000 115 92 76
-0.307694 0.674161 1.975000 130 119 113
-0.305980 0.673845 1.964000 145 123 114
-0.304111 0.673144 1.952000 140 124 116
-0.304111 0.676561 1.952000 135 123 114
-0.302397 0.676147 1.941000 138 124 113
-0.300839 0.676043 1.931000 141 123 113
-0.299125 0.675553 1.920000 141 123 113
-0.297412 0.675024 1.909000 141 123 116
-0.297412 0.678366 1.909000 142 125 120
-0.295854 0.678137 1.899000 143 125 116
-0.294140 0.677514 1.888000 144 125 112
-0.292582 0.677213 1.878000 145 125 114
-0.291024 0.676876 1.868000 148 125 116
-0.286350 0.669223 1.838000 152 127 111
-0.283390 0.665489 1.819000 150 130 106
-0.281832 0.664998 1.809000 149 131 115
-0.280430 0.664840 1.800000 148 131 124
-0.280430 0.667991 1.800000 148 131 131
-0.278872 0.667413 1.790000 147 130 137
-0.278872 0.670547 1.790000 147 129 127
-0.277470 0.670293 1.781000 145 129 117
-0.277470 0.673410 1.781000 144 129 123
-0.274666 0.669691 1.763000 141 130 129
-0.273264 0.669342 1.754000 138 129 126
-0.271861 0.668962 1.745000 144 126 124
-0.269213 0.665470 1.728000 150 126 119
-0.267811 0.665013 1.719000 147 130 115
-0.266564 0.664914 1.711000 145 130 122
-0.364622 -0.915699 2.367000 60 29 25
-0.367241 -0.918102 2.384000 60 28 17
-0.367241 -0.913929 2.384000 58 31 10
-0.367241 -0.909756 2.384000 57 34 14
-0.367241 -0.905583 2.384000 57 30 18
-0.367241 -0.901410 2.384000 58 33 13
-0.367241 -0.897236 2.384000 58 34 9
-0.367241 -0.893063 2.384000 59 35 9
-0.367241 -0.888890 2.384000 60 29 9
-0.367241 -0.884717 2.384000 61 26 14
-0.367241 -0.880544 2.384000 60 29 20
-0.367241 -0.876370 2.384000 59 34 22
-0.367241 -0.872197 2.384000 61 33 25
-0.367241 -0.868024 2.384000 63 34 32
-0.367241 -0.863851 2.384000 64 29 40
-0.367241 -0.859678 2.384000 65 26 35
-0.367241 -0.855504 2.384000 65 30 31
-0.367241 -0.851331 2.384000 65 34 25
-0.367241 -0.847158 2.384000 65 34 20
-0.367241 -0.842985 2.384000 65 34 17
-0.367241 -0.838812 2.384000 63 37 14
-0.367241 -0.834638 2.384000 62 39 17
-0.367241 -0.830465 2.384000 65 37 21
-0.367241 -0.826292 2.384000 69 33 23
-0.367241 -0.822119 2.384000 64 35 26
-0.369706 -0.823435 2.400000 60 35 26
-0.369706 -0.819234 2.400000 63 35 26
-0.367241 -0.809599 2.384000 66 37 20
-0.367241 -0.805426 2.384000 65 35 15
-0.367241 -0.801253 2.384000 65 38 12
-0.367241 -0.797080 2.384000 65 36 10
-0.367241 -0.792906 2.384000 64 35 16
-0.367241 -0.788733 2.384000 65 32 23
-0.367241 -0.784560 2.384000 65 28 22
-0.364622 -0.774822 2.367000 68 31 21
-0.364622 -0.770679 2.367000 70 30 21
-0.364622 -0.766535 2.367000 68 33 21
-0.367241 -0.767867 2.384000 66 35 17
-0.364622 -0.758248 2.367000 65 34 14
-0.364622 -0.754105 2.367000 65 34 10
-0.367241 -0.755348 2.384000 66 35 7
-0.367241 -0.751175 2.384000 67 35 19
-0.367241 -0.747001 2.384000 67 35 32
-0.367241 -0.742828 2.384000 67 36 25
-0.367241 -0.738655 2.384000 70 36 18
-0.367241 -0.734482 2.384000 73 38 14
-0.367241 -0.730309 2.384000 71 36 11
-0.367241 -0.726135 2.384000 70 36 14
-0.367241 -0.721962 2.384000 68 37 17
-0.367241 -0.717789 2.384000 67 39 19
-0.367241 -0.713616 2.384000 65 36 22
-0.364622 -0.704384 2.367000 63 33 21
-0.367241 -0.705269 2.384000 67 35 21
-0.364622 -0.696097 2.367000 72 38 22
-0.364622 -0.691953 2.367000 69 39 24
-0.367241 -0.692750 2.384000 66 39 23
-0.367241 -0.688577 2.384000 65 40 22
-0.369706 -0.688997 2.400000 65 42 17
-0.369706 -0.684796 2.400000 67 41 12
-0.369706 -0.680594 2.400000 69 41 18
-0.369706 -0.676393 2.400000 68 38 24
-0.367241 -0.667711 2.384000 67 38 25
-0.367241 -0.663538 2.384000 68 41 26
-0.367241 -0.659364 2.384000 69 42 23
-0.364622 -0.650519 2.367000 69 41 20
-0.367241 -0.651018 2.384000 69 41 19
-0.364622 -0.642232 2.367000 68 40 18
-0.364622 -0.638089 2.367000 68 40 22
-0.367241 -0.638498 2.384000 69 38 26
-0.364622 -0.629802 2.367000 70 36 20
-0.364622 -0.625658 2.367000 72 38 15
-0.364622 -0.621515 2.367000 75 39 18
-0.364622 -0.617372 2.367000 73 40 21
-0.362157 -0.609083 2.351000 72 40 25
-0.362157 -0.604968 2.351000 72 41 30
-0.362157 -0.600852 2.351000 73 42 28
-0.362157 -0.596737 2.351000 72 40 26
-0.364622 -0.596654 2.367000 72 39 29
-0.364622 -0.592511 2.367000 74 39 33
-0.364622 -0.588368 2.367000 76 37 30
-0.364622 -0.584224 2.367000 75 40 28
-0.364622 -0.580081 2.367000 74 42 21
-0.364622 -0.575937 2.367000 73 43 14
-0.364622 -0.571794 2.367000 72 44 18
-0.364622 -0.567650 2.367000 74 43 22
-0.362157 -0.559698 2.351000 76 42 15
-0.362157 -0.555583 2.351000 73 42 8
-0.362157 -0.551467 2.351000 71 42 17
-0.362157 -0.547352 2.351000 73 43 26
-0.362157 -0.543236 2.351000 74 45 26
-0.362157 -0.539121 2.351000 72 42 27
-0.364622 -0.538646 2.367000 70 40 19
-0.364622 -0.534503 2.367000 71 42 12
-0.364622 -0.530360 2.367000 73 45 18
-0.364622 -0.526216 2.367000 73 45 25
-0.364622 -0.522073 2.367000 74 46 25
-0.364622 -0.517929 2.367000 71 45 26
-0.364622 -0.513786 2.367000 69 46 28
-0.364622 -0.509642 2.367000 72 44 30
-0.364622 -0.505499 2.367000 75 42 33
-0.364622 -0.501355 2.367000 73 42 37
-0.364622 -0.497212 2.367000 70 44 32
-0.364622 -0.493069 2.367000 70 43 28
-0.364622 -0.488925 2.367000 70 42 23
-0.362157 -0.481505 2.351000 70 42 19
-0.362157 -0.477389 2.351000 71 42 24
-0.362157 -0.473274 2.351000 73 42 29
-0.362157 -0.469159 2.351000 75 42 31
-0.364622 -0.468208 2.367000 75 40 34
-0.364622 -0.464065 2.367000 75 39 30
-0.362157 -0.456812 2.351000 74 40 27
-0.362157 -0.452697 2.351000 74 41 26
-0.364622 -0.451634 2.367000 75 42 25
-0.367241 -0.450705 2.384000 76 45 30
-0.364622 -0.443347 2.367000 73 43 35
-0.364622 -0.439204 2.367000 70 42 32
-0.364622 -0.435061 2.367000 70 44 29
-0.364622 -0.430917 2.367000 69 44 27
-0.364622 -0.426774 2.367000 68 45 25
-0.364622 -0.422630 2.367000 67 49 26
-0.362157 -0.415658 2.351000 68 46 27
-0.362157 -0.411543 2.351000 69 45 19
-0.362157 -0.407427 2.351000 70 43 12
-0.362157 -0.403312 2.351000 71 44 20
-0.362157 -0.399196 2.351000 71 43 29
-0.362157 -0.395081 2.351000 72 45 27
-0.359693 -0.388305 2.335000 73 45 26
-0.359693 -0.384217 2.335000 74 45 28
-0.362157 -0.382735 2.351000 72 45 30
-0.362157 -0.378619 2.351000 71 46 29
-0.362157 -0.374504 2.351000 71 44 29
-0.359693 -0.367868 2.335000 71 45 27
-0.362157 -0.366273 2.351000 72 45 26
-0.359693 -0.359693 2.335000 73 45 37
-0.359693 -0.355605 2.335000 75 43 49
-0.359693 -0.351518 2.335000 77 42 28
-0.359693 -0.347430 2.335000 75 43 8
-0.359693 -0.343343 2.335000 73 45 19
-0.359693 -0.339256 2.335000 75 43 31
-0.359693 -0.335168 2.335000 77 43 31
-0.359693 -0.331081 2.335000 75 44 31
-0.359693 -0.326993 2.335000 73 46 25
-0.359693 -0.322906 2.335000 74 46 20
-0.359693 -0.318819 2.335000 74 47 14
-0.359693 -0.314731 2.335000 74 45 9
-0.359693 -0.310644 2.335000 73 44 13
-0.359693 -0.306556 2.335000 74 44 18
-0.359693 -0.302469 2.335000 76 45 24
-0.359693 -0.298381 2.335000 71 44 31
-0.359693 -0.294294 2.335000 67 44 22
-0.359693 -0.290207 2.335000 69 44 13
-0.359693 -0.286119 2.335000 72 43 22
-0.359693 -0.282032 2.335000 70 43 31
-0.359693 -0.277944 2.335000 69 44 26
-0.359693 -0.273857 2.335000 70 43 22
-0.359693 -0.269770 2.335000 70 44 24
-0.359693 -0.265682 2.335000 70 42 26
-0.359693 -0.261595 2.335000 70 42 30
-0.359693 -0.257507 2.335000 71 41 34
-0.359693 -0.253420 2.335000 73 40 31
-0.359693 -0.249332 2.335000 74 41 28
-0.359693 -0.245245 2.335000 74 42 35
-0.359693 -0.241158 2.335000 72 42 43
-0.359693 -0.237070 2.335000 70 42 24
-0.359693 -0.232983 2.335000 69 42 5
-0.359693 -0.228895 2.335000 69 42 11
-0.359693 -0.224808 2.335000 72 42 18
-0.359693 -0.220721 2.335000 75 44 24
-0.359693 -0.216633 2.335000 75 43 31
-0.359693 -0.212546 2.335000 75 40 29
-0.362157 -0.209887 2.351000 72 40 27
-0.362157 -0.205771 2.351000 69 40 20
-0.362157 -0.201656 2.351000 69 43 14
-0.362157 -0.197540 2.351000 70 45 17
-0.362157 -0.193425 2.351000 70 44 21
-0.362157 -0.189310 2.351000 70 43 25
-0.362157 -0.185194 2.351000 70 43 29
-0.362157 -0.181079 2.351000 70 41 31
-0.362157 -0.176963 2.351000 70 40 34
-0.362157 -0.172848 2.351000 70 39 29
-0.362157 -0.168732 2.351000 71 39 25
-0.362157 -0.164617 2.351000 73 40 25
-0.359693 -0.159409 2.335000 70 41 26
-0.359693 -0.155322 2.335000 68 45 22
-0.359693 -0.151234 2.335000 69 42 19
-0.359693 -0.147147 2.335000 70 41 23
-0.359693 -0.143060 2.335000 70 42 27
-0.359693 -0.138972 2.335000 70 42 26
-0.359693 -0.134885 2.335000 67 41 26
-0.359693 -0.130797 2.335000 64 41 26
-0.359693 -0.126710 2.335000 66 42 27
-0.359693 -0.122622 2.335000 69 43 33
-0.359693 -0.118535 2.335000 69 39 39
-0.359693 -0.114448 2.335000 69 39 32
-0.359693 -0.110360 2.335000 68 41 26
-0.359693 -0.106273 2.335000 66 42 22
-0.359693 -0.102185 2.335000 67 40 18
-0.359693 -0.098098 2.335000 68 41 19
-0.359693 -0.094011 2.335000 67 40 20
-0.359693 -0.089923 2.335000 67 41 20
-0.359693 -0.085836 2.335000 68 41 20
-0.359693 -0.081748 2.335000 69 40 22
-0.359693 -0.077661 2.335000 67 40 24
-0.359693 -0.073573 2.335000 64 43 15
-0.359693 -0.069486 2.335000 65 41 7
-0.359693 -0.065399 2.335000 67 41 12
-0.359693 -0.061311 2.335000 67 40 17
-0.359693 -0.057224 2.335000 67 39 18
-0.359693 -0.053136 2.335000 67 42 20
-0.359693 -0.049049 2.335000 68 44 20
-0.359693 -0.044962 2.335000 67 43 20
-0.359693 -0.040874 2.335000 67 44 21
-0.359693 -0.036787 2.335000 67 39 22
-0.359693 -0.032699 2.335000 66 37 23
-0.359693 -0.028612 2.335000 66 40 25
-0.359693 -0.024524 2.335000 67 44 22
-0.359693 -0.020437 2.335000 67 40 20
-0.359693 -0.016350 2.335000 67 39 24
-0.359693 -0.012262 2.335000 67 38 28
-0.359693 -0.008175 2.335000 68 39 21
-0.359693 -0.004087 2.335000 66 38 14
-0.359693 -0.000000 2.335000 64 36 17
-0.359693 0.004087 2.335000 65 41 20
-0.359693 0.008175 2.335000 66 44 19
-0.359693 0.012262 2.335000 66 42 19
-0.359693 0.016350 2.335000 66 42 14
-0.359693 0.020437 2.335000 67 39 9
-0.359693 0.024525 2.335000 68 39 13
-0.359693 0.028612 2.335000 67 38 17
-0.359693 0.032699 2.335000 67 34 17
-0.359693 0.036787 2.335000 67 38 17
-0.357382 0.040612 2.320000 68 40 21
-0.357382 0.044673 2.320000 67 38 26
-0.357382 0.048734 2.320000 66 37 22
-0.357382 0.052795 2.320000 68 35 19
-0.359693 0.057224 2.335000 70 38 20
-0.359693 0.061311 2.335000 66 39 22
-0.359693 0.065399 2.335000 63 39 21
-0.359693 0.069486 2.335000 63 36 20
-0.359693 0.073574 2.335000 64 33 16
-0.359693 0.077661 2.335000 65 35 13
-0.359693 0.081748 2.335000 66 38 13
-0.359693 0.085836 2.335000 65 36 14
-0.359693 0.089923 2.335000 65 37 15
-0.359693 0.094011 2.335000 69 37 16
-0.359693 0.098098 2.335000 73 39 18
-0.359693 0.102186 2.335000 70 36 21
-0.359693 0.106273 2.335000 67 36 18
-0.359693 0.110360 2.335000 67 36 15
-0.359693 0.114448 2.335000 68 34 12
-0.359693 0.118535 2.335000 67 37 10
-0.359693 0.122623 2.335000 66 39 14
-0.359693 0.126710 2.335000 64 38 19
-0.359693 0.130797 2.335000 63 39 18
-0.359693 0.134885 2.335000 64 39 17
-0.359693 0.138972 2.335000 65 38 15
-0.359693 0.143060 2.335000 66 37 14
-0.359693 0.147147 2.335000 67 38 17
-0.359693 0.151234 2.335000 65 37 20
-0.359693 0.155322 2.335000 64 37 22
-0.359693 0.159409 2.335000 64 38 24
-0.359693 0.163497 2.335000 65 37 22
-0.357382 0.166508 2.320000 67 36 20
-0.359693 0.171672 2.335000 69 38 17
-0.357382 0.174630 2.320000 68 36 15
-0.357382 0.178691 2.320000 67 36 14
-0.357382 0.182752 2.320000 67 37 14
-0.357382 0.186813 2.320000 68 37 17
-0.357382 0.190875 2.320000 68 35 21
-0.357382 0.194936 2.320000 69 33 24
-0.357382 0.198997 2.320000 71 33 27
-0.357382 0.203058 2.320000 73 33 20
-0.357382 0.207119 2.320000 67 36 14
-0.357382 0.211180 2.320000 61 39 15
-0.357382 0.215242 2.320000 63 36 17
-0.357382 0.219303 2.320000 65 32 16
-0.357382 0.223364 2.320000 65 36 16
-0.359693 0.228895 2.335000 65 38 12
-0.357382 0.231486 2.320000 65 37 9
-0.357382 0.235547 2.320000 65 38 11
-0.357382 0.239609 2.320000 66 37 14
-0.357382 0.243670 2.320000 68 35 14
-0.357382 0.247731 2.320000 68 36 15
-0.357382 0.251792 2.320000 68 38 14
-0.357382 0.255853 2.320000 70 36 14
-0.357382 0.259914 2.320000 71 34 15
-0.357382 0.263975 2.320000 69 37 16
-0.357382 0.268037 2.320000 68 39 16
-0.357382 0.272098 2.320000 66 39 17
-0.357382 0.276159 2.320000 64 41 13
-0.357382 0.280220 2.320000 64 39 9
-0.357382 0.284281 2.320000 64 37 11
-0.357382 0.288342 2.320000 65 36 14
-0.357382 0.292404 2.320000 66 38 9
-0.357382 0.296465 2.320000 67 35 5
-0.357382 0.300526 2.320000 69 33 13
-0.357382 0.304587 2.320000 69 35 21
-0.357382 0.308648 2.320000 70 40 19
-0.357382 0.312709 2.320000 66 40 17
-0.357382 0.316771 2.320000 63 42 13
-0.357382 0.320832 2.320000 65 40 10
-0.357382 0.324893 2.320000 67 39 18
-0.357382 0.328954 2.320000 65 41 26
-0.357382 0.333015 2.320000 64 43 25
-0.357382 0.337076 2.320000 66 40 24
-0.359693 0.343343 2.335000 67 39 16
-0.357382 0.345199 2.320000 70 36 9
-0.357382 0.349260 2.320000 72 34 9
-0.357382 0.353321 2.320000 69 34 9
-0.357382 0.357382 2.320000 66 38 11
-0.357382 0.361443 2.320000 65 35 14
-0.357382 0.365505 2.320000 64 34 17
-0.357382 0.369566 2.320000 66 33 20
-0.357382 0.373627 2.320000 67 36 17
-0.357382 0.377688 2.320000 66 35 14
-0.357382 0.381749 2.320000 65 36 13
-0.357382 0.385810 2.320000 66 35 13
-0.357382 0.389872 2.320000 67 36 13
-0.357382 0.393933 2.320000 65 36 13
-0.357382 0.397994 2.320000 64 34 12
-0.357382 0.402055 2.320000 64 34 11
-0.357382 0.406116 2.320000 64 32 12
-0.357382 0.410177 2.320000 66 35 14
-0.357382 0.414238 2.320000 68 38 17
-0.357382 0.418300 2.320000 67 35 20
-0.357382 0.422361 2.320000 67 34 17
-0.357382 0.426422 2.320000 66 34 14
-0.357382 0.430483 2.320000 66 36 12
-0.357382 0.434544 2.320000 63 33 10
-0.357382 0.438605 2.320000 60 32 7
-0.357382 0.442667 2.320000 62 33 5
-0.357382 0.446728 2.320000 64 36 9
-0.357382 0.450789 2.320000 64 36 13
-0.357382 0.454850 2.320000 65 39 11
-0.357382 0.458911 2.320000 67 35 9
-0.357382 0.462972 2.320000 69 34 11
-0.357382 0.467034 2.320000 66 35 14
-0.357382 0.471095 2.320000 64 36 11
-0.357382 0.475156 2.320000 64 30 8
-0.357382 0.479217 2.320000 65 30 9
-0.357382 0.483278 2.320000 66 32 10
-0.357382 0.487339 2.320000 67 34 11
-0.357382 0.491400 2.320000 63 35 13
-0.357382 0.495462 2.320000 60 37 18
-0.357382 0.499523 2.320000 61 34 23
-0.357382 0.503584 2.320000 63 30 16
-0.357382 0.507645 2.320000 67 29 10
-0.357382 0.511706 2.320000 71 28 11
-0.357382 0.515767 2.320000 67 31 12
-0.357382 0.519829 2.320000 63 32 8
-0.357382 0.523890 2.320000 61 31 5
-0.357382 0.527951 2.320000 60 32 7
-0.357382 0.532012 2.320000 61 31 9
-0.357382 0.536073 2.320000 62 30 12
-0.357382 0.540134 2.320000 59 31 15
-0.357382 0.544196 2.320000 55 33 12
-0.357382 0.548257 2.320000 59 33 10
-0.357382 0.552318 2.320000 64 32 13
-0.354917 0.552542 2.304000 61 32 16
-0.357382 0.560440 2.320000 59 35 17
-0.357382 0.564501 2.320000 62 35 19
-0.357382 0.568563 2.320000 66 34 17
-0.357382 0.572624 2.320000 64 29 16
-0.357382 0.576685 2.320000 62 30 13
-0.357382 0.580746 2.320000 58 25 10
-0.357382 0.584807 2.320000 55 26 9
-0.357382 0.588868 2.320000 30 13 8
-0.357382 0.592930 2.320000 5 6 6
-0.357382 0.596991 2.320000 5 5 5
-0.357382 0.601052 2.320000 5 6 4
-0.357382 0.605113 2.320000 5 5 3
-0.357382 0.609174 2.320000 5 5 3
-0.359693 0.617200 2.335000 4 5 3
-0.359693 0.621288 2.335000 4 6 2
-0.359693 0.625375 2.335000 4 4 2
-0.362157 0.633776 2.351000 5 4 2
-0.362157 0.637891 2.351000 6 4 2
-0.362157 0.642007 2.351000 7 4 5
-0.364622 0.650519 2.367000 5 3 9
-0.364622 0.654663 2.367000 4 4 5
-0.362157 0.654353 2.351000 3 3 1
-0.362157 0.658468 2.351000 3 2 3
-0.362157 0.662584 2.351000 2 2 6
-0.362157 0.666699 2.351000 2 2 4
-0.362157 0.670815 2.351000 2 3 3
-0.362157 0.674930 2.351000 2 3 3
-0.359693 0.674424 2.335000 2 3 3
-0.359693 0.678511 2.335000 2 3 2
-0.362157 0.687276 2.351000 3 2 1
-0.362157 0.691392 2.351000 4 2 1
-0.362157 0.695507 2.351000 3 2 1
-0.359693 0.694861 2.335000 3 3 1
-0.305931 0.670963 1.986000 67 57 58
-0.305931 0.674440 1.986000 125 121 85
-0.304237 0.674161 1.975000 133 122 112
-0.302542 0.673845 1.964000 141 125 118
-0.300694 0.673144 1.952000 138 123 125
-0.300694 0.676561 1.952000 136 121 120
-0.298999 0.676147 1.941000 138 122 116
-0.297459 0.676043 1.931000 141 124 116
-0.295764 0.675553 1.920000 142 123 117
-0.294070 0.675024 1.909000 143 124 118
-0.294070 0.678366 1.909000 142 124 119
-0.292530 0.678137 1.899000 142 126 111
-0.290835 0.677514 1.888000 143 126 104
-0.289295 0.677213 1.878000 143 128 109
-0.286214 0.673253 1.858000 145 127 115
-0.283133 0.669223 1.838000 148 127 107
-0.280206 0.665489 1.819000 148 129 100
-0.278666 0.664998 1.809000 148 131 112
-0.277279 0.664840 1.800000 147 131 125
-0.277279 0.667991 1.800000 147 132 128
-0.275739 0.667413 1.790000 147 130 131
-0.275739 0.670547 1.790000 148 129 127
-0.274352 0.670293 1.781000 146 129 124
-0.272966 0.670007 1.772000 145 131 125
-0.271580 0.669691 1.763000 143 130 126
-0.270193 0.669342 1.754000 142 130 125
-0.267420 0.665512 1.736000 145 128 124
-0.266188 0.665470 1.728000 147 127 118
-0.264802 0.665013 1.719000 146 128 113
-0.263569 0.664914 1.711000 145 129 123
-0.363068 -0.922275 2.384000 58 26 17
-0.363068 -0.918102 2.384000 58 27 14
-0.363068 -0.913929 2.384000 56 33 11
-0.363068 -0.909756 2.384000 55 30 12
-0.363068 -0.905583 2.384000 54 26 14
-0.363068 -0.901410 2.384000 54 30 10
-0.363068 -0.897236 2.384000 54 35 6
-0.363068 -0.893063 2.384000 55 31 7
-0.363068 -0.888890 2.384000 57 26 8
-0.363068 -0.884717 2.384000 60 25 10
-0.363068 -0.880544 2.384000 58 27 13
-0.363068 -0.876370 2.384000 56 30 16
-0.363068 -0.872197 2.384000 59 34 18
-0.363068 -0.868024 2.384000 63 31 23
-0.363068 -0.863851 2.384000 63 30 28
-0.363068 -0.859678 2.384000 63 29 27
-0.363068 -0.855504 2.384000 63 33 27
-0.363068 -0.851331 2.384000 64 33 23
-0.363068 -0.847158 2.384000 64 34 19
-0.363068 -0.842985 2.384000 65 36 22
-0.363068 -0.838812 2.384000 64 38 24
-0.363068 -0.834638 2.384000 63 37 22
-0.363068 -0.830465 2.384000 68 35 20
-0.363068 -0.826292 2.384000 73 34 18
-0.363068 -0.822119 2.384000 64 36 15
-0.365504 -0.823435 2.400000 56 36 17
-0.365504 -0.819234 2.400000 60 36 20
-0.365504 -0.815033 2.400000 65 34 17
-0.365504 -0.810832 2.400000 65 34 15
-0.363068 -0.801253 2.384000 65 36 11
-0.365504 -0.802429 2.400000 64 39 7
-0.363068 -0.792906 2.384000 63 37 13
-0.363068 -0.788733 2.384000 62 36 20
-0.363068 -0.784560 2.384000 62 32 20
-0.363068 -0.780387 2.384000 63 33 19
-0.363068 -0.776214 2.384000 64 31 17
-0.363068 -0.772041 2.384000 65 32 15
-0.363068 -0.767867 2.384000 66 34 14
-0.360479 -0.758248 2.367000 65 34 14
-0.360479 -0.754105 2.367000 65 34 12
-0.363068 -0.755348 2.384000 64 35 10
-0.363068 -0.751175 2.384000 63 34 18
-0.363068 -0.747001 2.384000 64 34 26
-0.363068 -0.742828 2.384000 66 34 22
-0.363068 -0.738655 2.384000 68 34 19
-0.363068 -0.734482 2.384000 70 36 15
-0.360479 -0.725101 2.367000 70 39 12
-0.360479 -0.720958 2.367000 70 35 13
-0.363068 -0.721962 2.384000 67 36 14
-0.360479 -0.712671 2.367000 65 36 14
-0.360479 -0.708527 2.367000 62 35 13
-0.360479 -0.704384 2.367000 60 34 15
-0.363068 -0.705269 2.384000 68 35 17
-0.360479 -0.696097 2.367000 76 36 20
-0.363068 -0.696923 2.384000 70 39 23
-0.363068 -0.692750 2.384000 65 39 28
-0.363068 -0.688577 2.384000 62 42 33
-0.365504 -0.688997 2.400000 60 42 20
-0.365504 -0.684796 2.400000 64 42 7
-0.365504 -0.680594 2.400000 68 39 13
-0.365504 -0.676393 2.400000 65 37 20
-0.363068 -0.667711 2.384000 62 39 26
-0.363068 -0.663538 2.384000 65 42 33
-0.363068 -0.659364 2.384000 69 40 29
-0.360479 -0.650519 2.367000 69 39 25
-0.360479 -0.646376 2.367000 69 39 24
-0.360479 -0.642232 2.367000 72 39 24
-0.360479 -0.638089 2.367000 76 38 28
-0.360479 -0.633945 2.367000 72 37 32
-0.360479 -0.629802 2.367000 69 38 26
-0.360479 -0.625658 2.367000 73 39 20
-0.360479 -0.621515 2.367000 77 38 21
-0.360479 -0.617372 2.367000 75 40 23
-0.360479 -0.613228 2.367000 73 39 25
-0.360479 -0.609085 2.367000 73 38 28
-0.360479 -0.604941 2.367000 74 39 26
-0.360479 -0.600798 2.367000 71 38 25
-0.363068 -0.600940 2.384000 69 38 25
-0.363068 -0.596766 2.384000 71 39 25
-0.360479 -0.588368 2.367000 74 39 31
-0.363068 -0.588420 2.384000 73 40 37
-0.360479 -0.580081 2.367000 72 40 29
-0.360479 -0.575937 2.367000 71 42 20
-0.360479 -0.571794 2.367000 71 43 20
-0.360479 -0.567650 2.367000 72 46 19
-0.360479 -0.563507 2.367000 73 43 15
-0.360479 -0.559363 2.367000 71 43 11
-0.360479 -0.555220 2.367000 69 41 19
-0.360479 -0.551077 2.367000 73 42 28
-0.360479 -0.546933 2.367000 77 41 28
-0.360479 -0.542790 2.367000 73 41 29
-0.360479 -0.538646 2.367000 69 40 26
-0.360479 -0.534503 2.367000 71 41 24
-0.360479 -0.530360 2.367000 73 43 25
-0.360479 -0.526216 2.367000 72 43 26
-0.360479 -0.522073 2.367000 71 45 24
-0.360479 -0.517929 2.367000 67 46 23
-0.360479 -0.513786 2.367000 64 45 26
-0.360479 -0.509642 2.367000 68 46 29
-0.360479 -0.505499 2.367000 72 43 31
-0.360479 -0.501355 2.367000 70 42 33
-0.360479 -0.497212 2.367000 68 43 30
-0.358042 -0.489736 2.351000 68 44 27
-0.358042 -0.485620 2.351000 68 42 26
-0.358042 -0.481505 2.351000 70 44 25
-0.358042 -0.477389 2.351000 72 43 28
-0.358042 -0.473274 2.351000 76 44 31
-0.358042 -0.469159 2.351000 80 42 30
-0.360479 -0.468208 2.367000 78 41 30
-0.360479 -0.464065 2.367000 76 41 31
-0.360479 -0.459921 2.367000 73 41 32
-0.358042 -0.452697 2.351000 70 42 28
-0.360479 -0.451634 2.367000 73 43 25
-0.363068 -0.450705 2.384000 76 43 27
-0.360479 -0.443347 2.367000 72 41 30
-0.360479 -0.439204 2.367000 68 45 28
-0.360479 -0.435061 2.367000 67 49 27
-0.360479 -0.430917 2.367000 67 46 27
-0.360479 -0.426774 2.367000 65 44 27
-0.360479 -0.422630 2.367000 64 46 28
-0.358042 -0.415658 2.351000 66 46 30
-0.358042 -0.411543 2.351000 68 44 26
-0.358042 -0.407427 2.351000 70 44 23
-0.358042 -0.403312 2.351000 72 42 24
-0.358042 -0.399196 2.351000 72 42 26
-0.358042 -0.395081 2.351000 73 44 25
-0.358042 -0.390965 2.351000 74 46 25
-0.358042 -0.386850 2.351000 76 45 30
-0.358042 -0.382735 2.351000 74 46 35
-0.358042 -0.378619 2.351000 72 46 30
-0.358042 -0.374504 2.351000 72 44 25
-0.358042 -0.370388 2.351000 73 44 26
-0.358042 -0.366273 2.351000 73 45 28
-0.358042 -0.362157 2.351000 74 43 35
-0.355605 -0.355605 2.335000 75 43 43
-0.358042 -0.353927 2.351000 76 42 29
-0.358042 -0.349811 2.351000 76 42 15
-0.355605 -0.343343 2.335000 76 42 25
-0.358042 -0.341580 2.351000 77 43 36
-0.358042 -0.337465 2.351000 78 43 32
-0.358042 -0.333349 2.351000 76 44 28
-0.358042 -0.329234 2.351000 74 45 22
-0.358042 -0.325119 2.351000 74 48 16
-0.358042 -0.321003 2.351000 75 46 14
-0.358042 -0.316888 2.351000 74 45 13
-0.358042 -0.312772 2.351000 73 44 16
-0.355605 -0.306556 2.335000 77 44 20
-0.355605 -0.302469 2.335000 81 43 28
-0.358042 -0.300426 2.351000 76 45 37
-0.355605 -0.294294 2.335000 72 43 28
-0.355605 -0.290207 2.335000 71 43 20
-0.355605 -0.286119 2.335000 71 41 24
-0.355605 -0.282032 2.335000 69 42 28
-0.355605 -0.277944 2.335000 67 43 22
-0.355605 -0.273857 2.335000 69 43 17
-0.355605 -0.269770 2.335000 71 42 22
-0.355605 -0.265682 2.335000 71 41 27
-0.355605 -0.261595 2.335000 72 42 32
-0.355605 -0.257507 2.335000 74 44 38
-0.355605 -0.253420 2.335000 76 41 27
-0.355605 -0.249332 2.335000 77 42 16
-0.355605 -0.245245 2.335000 78 42 24
-0.355605 -0.241158 2.335000 75 42 33
-0.355605 -0.237070 2.335000 73 43 22
-0.355605 -0.232983 2.335000 73 45 11
-0.355605 -0.228895 2.335000 73 43 17
-0.355605 -0.224808 2.335000 73 43 23
-0.355605 -0.220721 2.335000 73 44 27
-0.355605 -0.216633 2.335000 73 45 31
-0.355605 -0.212546 2.335000 74 43 28
-0.358042 -0.209887 2.351000 70 42 25
-0.358042 -0.205771 2.351000 67 42 19
-0.358042 -0.201656 2.351000 68 44 13
-0.360479 -0.198885 2.367000 69 44 18
-0.360479 -0.194741 2.367000 67 47 22
-0.360479 -0.190598 2.367000 65 46 24
-0.360479 -0.186454 2.367000 68 46 27
-0.358042 -0.181079 2.351000 71 42 27
-0.358042 -0.176963 2.351000 70 41 27
-0.358042 -0.172848 2.351000 70 40 22
-0.358042 -0.168732 2.351000 73 41 18
-0.358042 -0.164617 2.351000 77 42 21
-0.355605 -0.159409 2.335000 72 43 23
-0.355605 -0.155322 2.335000 67 43 21
-0.355605 -0.151234 2.335000 68 44 19
-0.355605 -0.147147 2.335000 70 42 21
-0.355605 -0.143060 2.335000 70 42 24
-0.355605 -0.138972 2.335000 71 41 22
-0.355605 -0.134885 2.335000 70 41 20
-0.355605 -0.130797 2.335000 69 41 23
-0.355605 -0.126710 2.335000 70 42 26
-0.355605 -0.122622 2.335000 71 41 35
-0.355605 -0.118535 2.335000 70 40 44
-0.355605 -0.114448 2.335000 70 39 36
-0.355605 -0.110360 2.335000 67 43 29
-0.355605 -0.106273 2.335000 64 41 23
-0.355605 -0.102185 2.335000 66 39 18
-0.355605 -0.098098 2.335000 69 40 19
-0.355605 -0.094011 2.335000 67 41 19
-0.355605 -0.089923 2.335000 65 42 19
-0.355605 -0.085836 2.335000 68 45 20
-0.355605 -0.081748 2.335000 71 41 25
-0.355605 -0.077661 2.335000 68 39 31
-0.355605 -0.073573 2.335000 66 41 22
-0.355605 -0.069486 2.335000 66 42 13
-0.355605 -0.065399 2.335000 66 41 17
-0.355605 -0.061311 2.335000 67 41 21
-0.355605 -0.057224 2.335000 68 40 21
-0.355605 -0.053136 2.335000 67 44 22
-0.355605 -0.049049 2.335000 67 43 22
-0.355605 -0.044962 2.335000 68 45 22
-0.355605 -0.040874 2.335000 69 41 25
-0.355605 -0.036787 2.335000 67 39 28
-0.355605 -0.032699 2.335000 66 40 26
-0.355605 -0.028612 2.335000 66 43 23
-0.355605 -0.024524 2.335000 67 41 23
-0.355605 -0.020437 2.335000 66 41 23
-0.355605 -0.016350 2.335000 66 40 28
-0.355605 -0.012262 2.335000 67 40 33
-0.355605 -0.008175 2.335000 68 39 27
-0.355605 -0.004087 2.335000 63 39 21
-0.355605 -0.000000 2.335000 59 39 22
-0.355605 0.004087 2.335000 62 42 23
-0.355605 0.008175 2.335000 66 42 20
-0.355605 0.012262 2.335000 67 42 18
-0.355605 0.016350 2.335000 68 41 12
-0.355605 0.020437 2.335000 68 41 7
-0.355605 0.024525 2.335000 69 40 17
-0.355605 0.028612 2.335000 67 41 27
-0.355605 0.032699 2.335000 65 39 23
-0.355605 0.036787 2.335000 66 40 20
-0.355605 0.040874 2.335000 68 39 22
-0.355605 0.044962 2.335000 67 36 23
-0.355605 0.049049 2.335000 66 36 19
-0.355605 0.053136 2.335000 67 38 15
-0.355605 0.057224 2.335000 69 39 20
-0.355605 0.061311 2.335000 64 41 25
-0.355605 0.065399 2.335000 59 39 18
-0.355605 0.069486 2.335000 62 40 12
-0.355605 0.073574 2.335000 65 36 12
-0.355605 0.077661 2.335000 65 35 13
-0.355605 0.081748 2.335000 65 37 13
-0.355605 0.085836 2.335000 64 37 14
-0.355605 0.089923 2.335000 63 38 15
-0.355605 0.094011 2.335000 67 40 16
-0.355605 0.098098 2.335000 71 38 18
-0.355605 0.102186 2.335000 69 36 21
-0.355605 0.106273 2.335000 67 37 24
-0.355605 0.110360 2.335000 69 39 27
-0.355605 0.114448 2.335000 71 37 21
-0.355605 0.118535 2.335000 68 40 15
-0.355605 0.122623 2.335000 65 39 14
-0.355605 0.126710 2.335000 63 39 13
-0.355605 0.130797 2.335000 62 39 15
-0.355605 0.134885 2.335000 63 43 17
-0.355605 0.138972 2.335000 65 40 17
-0.358042 0.144040 2.351000 66 41 18
-0.358042 0.148155 2.351000 67 37 18
-0.355605 0.151234 2.335000 66 34 19
-0.355605 0.155322 2.335000 65 36 20
-0.355605 0.159409 2.335000 66 40 20
-0.355605 0.163497 2.335000 67 37 19
-0.355605 0.167584 2.335000 67 34 18
-0.355605 0.171672 2.335000 68 37 15
-0.355605 0.175759 2.335000 67 38 12
-0.355605 0.179846 2.335000 66 36 10
-0.355605 0.183934 2.335000 68 36 9
-0.355605 0.188021 2.335000 70 35 15
-0.355605 0.192109 2.335000 70 33 20
-0.355605 0.196196 2.335000 71 34 22
-0.355605 0.200284 2.335000 73 34 24
-0.355605 0.204371 2.335000 76 34 17
-0.355605 0.208458 2.335000 66 35 11
-0.355605 0.212546 2.335000 56 38 15
-0.355605 0.216633 2.335000 59 40 20
-0.355605 0.220721 2.335000 63 38 24
-0.355605 0.224808 2.335000 63 40 27
-0.355605 0.228895 2.335000 63 38 16
-0.355605 0.232983 2.335000 63 37 6
-0.355605 0.237070 2.335000 64 38 8
-0.355605 0.241158 2.335000 66 38 11
-0.355605 0.245245 2.335000 69 35 13
-0.355605 0.249333 2.335000 68 35 15
-0.355605 0.253420 2.335000 67 38 13
-0.355605 0.257507 2.335000 69 41 12
-0.355605 0.261595 2.335000 72 37 11
-0.355605 0.265682 2.335000 70 36 10
-0.355605 0.269770 2.335000 68 38 13
-0.353321 0.272098 2.320000 66 40 16
-0.353321 0.276159 2.320000 65 39 14
-0.353321 0.280220 2.320000 65 41 11
-0.353321 0.284281 2.320000 66 38 13
-0.353321 0.288342 2.320000 66 36 14
-0.353321 0.292404 2.320000 67 36 14
-0.353321 0.296465 2.320000 68 36 13
-0.353321 0.300526 2.320000 69 33 17
-0.353321 0.304587 2.320000 70 33 20
-0.353321 0.308648 2.320000 71 36 18
-0.353321 0.312709 2.320000 69 39 16
-0.353321 0.316771 2.320000 68 41 11
-0.353321 0.320832 2.320000 67 42 7
-0.353321 0.324893 2.320000 67 40 18
-0.353321 0.328954 2.320000 67 42 30
-0.355605 0.335168 2.335000 67 41 27
-0.353321 0.337076 2.320000 67 41 24
-0.355605 0.343343 2.335000 68 38 17
-0.353321 0.345199 2.320000 67 37 11
-0.353321 0.349260 2.320000 67 36 13
-0.353321 0.353321 2.320000 66 36 15
-0.353321 0.357382 2.320000 66 36 14
-0.353321 0.361443 2.320000 64 37 13
-0.353321 0.365505 2.320000 62 35 13
-0.353321 0.369566 2.320000 63 34 13
-0.353321 0.373627 2.320000 65 34 13
-0.353321 0.377688 2.320000 65 35 14
-0.353321 0.381749 2.320000 65 35 13
-0.353321 0.385810 2.320000 65 35 12
-0.353321 0.389872 2.320000 65 36 11
-0.353321 0.393933 2.320000 65 35 11
-0.353321 0.397994 2.320000 65 35 12
-0.353321 0.402055 2.320000 64 36 12
-0.353321 0.406116 2.320000 64 34 12
-0.353321 0.410177 2.320000 64 35 12
-0.353321 0.414238 2.320000 65 36 12
-0.353321 0.418300 2.320000 62 36 12
-0.353321 0.422361 2.320000 59 34 11
-0.353321 0.426422 2.320000 62 35 10
-0.353321 0.430483 2.320000 65 35 9
-0.353321 0.434544 2.320000 64 33 8
-0.353321 0.438605 2.320000 63 33 7
-0.353321 0.442667 2.320000 64 34 6
-0.355605 0.449616 2.335000 65 35 9
-0.355605 0.453703 2.335000 64 36 13
-0.355605 0.457791 2.335000 63 36 11
-0.355605 0.461878 2.335000 64 35 10
-0.355605 0.465966 2.335000 65 33 15
-0.355605 0.470053 2.335000 63 34 20
-0.355605 0.474141 2.335000 62 32 16
-0.355605 0.478228 2.335000 62 27 12
-0.355605 0.482315 2.335000 63 30 11
-0.353321 0.483278 2.320000 68 34 10
-0.353321 0.487339 2.320000 73 33 10
-0.353321 0.491400 2.320000 67 34 11
-0.353321 0.495462 2.320000 61 36 14
-0.353321 0.499523 2.320000 62 37 17
-0.353321 0.503584 2.320000 63 31 12
-0.353321 0.507645 2.320000 69 27 6
-0.353321 0.511706 2.320000 76 27 14
-0.353321 0.515767 2.320000 70 30 23
-0.353321 0.519829 2.320000 65 29 13
-0.355605 0.527277 2.335000 63 27 3
-0.355605 0.531364 2.335000 62 30 6
-0.353321 0.532012 2.320000 62 32 9
-0.353321 0.536073 2.320000 63 31 13
-0.353321 0.540134 2.320000 60 34 18
-0.353321 0.544196 2.320000 58 33 13
-0.353321 0.548257 2.320000 64 35 7
-0.353321 0.552318 2.320000 70 32 11
-0.353321 0.556379 2.320000 66 31 15
-0.353321 0.560440 2.320000 63 32 13
-0.353321 0.564501 2.320000 65 37 11
-0.353321 0.568563 2.320000 68 33 13
-0.353321 0.572624 2.320000 63 29 15
-0.353321 0.576685 2.320000 58 28 12
-0.353321 0.580746 2.320000 52 26 8
-0.353321 0.584807 2.320000 46 22 8
-0.353321 0.588868 2.320000 27 11 9
-0.353321 0.592930 2.320000 9 6 7
-0.353321 0.596991 2.320000 7 4 6
-0.355605 0.604938 2.335000 5 4 5
-0.355605 0.609025 2.335000 4 4 3
-0.355605 0.613113 2.335000 4 4 2
-0.355605 0.617200 2.335000 4 6 2
-0.355605 0.621288 2.335000 5 5 2
-0.358042 0.629660 2.351000 6 4 2
-0.358042 0.633776 2.351000 7 4 1
-0.360479 0.642232 2.367000 7 3 1
-0.360479 0.646376 2.367000 8 3 3
-0.360479 0.650519 2.367000 5 3 6
-0.360479 0.654663 2.367000 3 3 4
-0.358042 0.654353 2.351000 2 3 2
-0.358042 0.658468 2.351000 1 2 3
-0.358042 0.662584 2.351000 1 3 5
-0.358042 0.666699 2.351000 1 2 4
-0.358042 0.670815 2.351000 2 3 3
-0.358042 0.674930 2.351000 3 3 3
-0.358042 0.679045 2.351000 2 3 4
-0.355605 0.678511 2.335000 2 3 5
-0.358042 0.687276 2.351000 2 3 7
-0.358042 0.691392 2.351000 3 2 4
-0.355605 0.690774 2.335000 3 3 2
-0.355605 0.694861 2.335000 3 3 1
-0.302455 0.670963 1.986000 74 74 75
-0.302455 0.674440 1.986000 136 109 93
-0.300780 0.674161 1.975000 137 125 112
-0.299104 0.673845 1.964000 138 123 116
-0.297277 0.673144 1.952000 137 122 120
-0.297277 0.676561 1.952000 137 121 117
-0.295602 0.676147 1.941000 139 122 114
-0.294079 0.676043 1.931000 141 122 116
-0.292404 0.675553 1.920000 143 122 118
-0.290728 0.675024 1.909000 145 123 120
-0.290728 0.678366 1.909000 143 123 122
-0.290728 0.681708 1.909000 142 125 116
-0.289205 0.681461 1.899000 142 128 111
-0.287530 0.680819 1.888000 142 128 115
-0.281438 0.669629 1.848000 143 129 120
-0.279915 0.669223 1.838000 144 128 115
-0.277022 0.665489 1.819000 146 129 109
-0.275499 0.664998 1.809000 148 130 117
-0.274128 0.664840 1.800000 147 131 126
-0.274128 0.667991 1.800000 146 130 127
-0.272605 0.667413 1.790000 147 131 129
-0.272605 0.670547 1.790000 149 129 127
-0.271235 0.670293 1.781000 147 130 125
-0.269864 0.670007 1.772000 146 130 126
-0.268493 0.669691 1.763000 146 129 128
-0.265752 0.665908 1.745000 147 128 125
-0.264382 0.665512 1.736000 146 129 122
-0.263163 0.665470 1.728000 145 128 118
-0.261793 0.665013 1.719000 145 129 115
-0.260574 0.664914 1.711000 145 130 122
-0.356335 -0.915699 2.367000 54 22 10
-0.358895 -0.918102 2.384000 54 21 11
-0.358895 -0.913929 2.384000 53 26 12
-0.358895 -0.909756 2.384000 52 27 11
-0.358895 -0.905583 2.384000 51 26 11
-0.358895 -0.901410 2.384000 50 26 7
-0.358895 -0.897236 2.384000 51 29 4
-0.361303 -0.899057 2.400000 52 28 5
-0.361303 -0.894856 2.400000 54 24 7
-0.361303 -0.890654 2.400000 56 21 7
-0.361303 -0.886453 2.400000 55 25 7
-0.361303 -0.882252 2.400000 55 27 9
-0.361303 -0.878051 2.400000 58 29 12
-0.361303 -0.873850 2.400000 61 29 14
-0.358895 -0.863851 2.384000 62 30 17
-0.358895 -0.859678 2.384000 63 30 20
-0.358895 -0.855504 2.384000 62 30 23
-0.358895 -0.851331 2.384000 62 33 21
-0.358895 -0.847158 2.384000 62 36 19
-0.358895 -0.842985 2.384000 62 39 27
-0.358895 -0.838812 2.384000 62 39 35
-0.358895 -0.834638 2.384000 62 38 27
-0.358895 -0.830465 2.384000 66 35 20
-0.358895 -0.826292 2.384000 70 34 12
-0.358895 -0.822119 2.384000 65 35 5
-0.358895 -0.817946 2.384000 59 40 9
-0.361303 -0.819234 2.400000 61 36 14
-0.358895 -0.809599 2.384000 64 31 14
-0.358895 -0.805426 2.384000 64 33 15
-0.358895 -0.801253 2.384000 65 36 9
-0.358895 -0.797080 2.384000 64 39 4
-0.358895 -0.792906 2.384000 63 40 11
-0.358895 -0.788733 2.384000 62 36 18
-0.358895 -0.784560 2.384000 61 34 18
-0.358895 -0.780387 2.384000 61 34 18
-0.358895 -0.776214 2.384000 62 31 14
-0.358895 -0.772041 2.384000 63 32 10
-0.358895 -0.767867 2.384000 64 37 12
-0.358895 -0.763694 2.384000 64 33 14
-0.358895 -0.759521 2.384000 64 33 13
-0.358895 -0.755348 2.384000 63 33 13
-0.358895 -0.751175 2.384000 63 33 16
-0.358895 -0.747001 2.384000 64 34 20
-0.358895 -0.742828 2.384000 65 34 20
-0.358895 -0.738655 2.384000 67 33 20
-0.358895 -0.734482 2.384000 69 33 17
-0.358895 -0.730309 2.384000 69 34 14
-0.358895 -0.726135 2.384000 68 32 13
-0.358895 -0.721962 2.384000 66 34 12
-0.358895 -0.717789 2.384000 65 35 8
-0.358895 -0.713616 2.384000 64 35 5
-0.358895 -0.709443 2.384000 63 34 9
-0.358895 -0.705269 2.384000 67 35 14
-0.358895 -0.701096 2.384000 72 34 18
-0.358895 -0.696923 2.384000 69 37 22
-0.358895 -0.692750 2.384000 67 39 33
-0.358895 -0.688577 2.384000 65 40 45
-0.358895 -0.684403 2.384000 64 42 23
-0.358895 -0.680230 2.384000 68 40 2
-0.358895 -0.676057 2.384000 72 37 9
-0.358895 -0.671884 2.384000 68 38 16
-0.358895 -0.667711 2.384000 65 40 28
-0.358895 -0.663538 2.384000 66 40 41
-0.358895 -0.659364 2.384000 68 39 35
-0.356335 -0.650519 2.367000 67 37 30
-0.356335 -0.646376 2.367000 66 38 30
-0.356335 -0.642232 2.367000 68 39 30
-0.356335 -0.638089 2.367000 70 39 34
-0.356335 -0.633945 2.367000 66 39 39
-0.356335 -0.629802 2.367000 61 41 32
-0.356335 -0.625658 2.367000 67 39 25
-0.356335 -0.621515 2.367000 72 37 25
-0.358895 -0.621806 2.384000 71 39 26
-0.356335 -0.613228 2.367000 71 39 26
-0.358895 -0.613459 2.384000 72 38 26
-0.358895 -0.609286 2.384000 74 39 25
-0.358895 -0.605113 2.384000 71 37 24
-0.358895 -0.600940 2.384000 69 36 21
-0.358895 -0.596766 2.384000 69 39 18
-0.358895 -0.592593 2.384000 70 41 32
-0.358895 -0.588420 2.384000 70 40 47
-0.356335 -0.580081 2.367000 70 39 37
-0.356335 -0.575937 2.367000 70 40 27
-0.356335 -0.571794 2.367000 70 41 22
-0.356335 -0.567650 2.367000 70 42 17
-0.356335 -0.563507 2.367000 71 43 15
-0.356335 -0.559363 2.367000 68 41 14
-0.356335 -0.555220 2.367000 66 39 22
-0.356335 -0.551077 2.367000 67 38 30
-0.356335 -0.546933 2.367000 68 38 30
-0.358895 -0.546688 2.384000 68 39 31
-0.358895 -0.542515 2.384000 68 40 34
-0.358895 -0.538342 2.384000 70 41 37
-0.358895 -0.534169 2.384000 72 44 32
-0.358895 -0.529995 2.384000 71 43 27
-0.358895 -0.525822 2.384000 71 45 24
-0.358895 -0.521649 2.384000 69 44 21
-0.358895 -0.517476 2.384000 67 45 25
-0.358895 -0.513303 2.384000 71 44 29
-0.358895 -0.509129 2.384000 75 43 29
-0.358895 -0.504956 2.384000 72 41 29
-0.356335 -0.497212 2.367000 69 42 27
-0.356335 -0.493069 2.367000 69 41 26
-0.356335 -0.488925 2.367000 69 41 29
-0.356335 -0.484782 2.367000 69 42 32
-0.353927 -0.477389 2.351000 70 42 33
-0.356335 -0.476495 2.367000 73 40 34
-0.356335 -0.472351 2.367000 77 41 30
-0.356335 -0.468208 2.367000 76 43 26
-0.356335 -0.464065 2.367000 76 46 31
-0.356335 -0.459921 2.367000 74 43 37
-0.356335 -0.455778 2.367000 72 44 31
-0.356335 -0.451634 2.367000 73 45 26
-0.356335 -0.447491 2.367000 75 46 25
-0.358895 -0.446532 2.384000 72 45 25
-0.358895 -0.442358 2.384000 69 48 25
-0.358895 -0.438185 2.384000 69 48 26
-0.358895 -0.434012 2.384000 69 48 27
-0.358895 -0.429839 2.384000 68 44 29
-0.358895 -0.425666 2.384000 67 45 31
-0.356335 -0.418487 2.367000 68 44 33
-0.356335 -0.414343 2.367000 69 42 33
-0.356335 -0.410200 2.367000 70 42 34
-0.356335 -0.406056 2.367000 71 41 29
-0.356335 -0.401913 2.367000 71 42 24
-0.353927 -0.395081 2.351000 72 45 24
-0.353927 -0.390965 2.351000 71 45 24
-0.353927 -0.386850 2.351000 70 46 32
-0.353927 -0.382735 2.351000 70 46 41
-0.353927 -0.378619 2.351000 71 50 31
-0.353927 -0.374504 2.351000 71 46 21
-0.353927 -0.370388 2.351000 70 44 25
-0.353927 -0.366273 2.351000 72 44 30
-0.353927 -0.362157 2.351000 73 42 33
-0.353927 -0.358042 2.351000 74 42 37
-0.353927 -0.353927 2.351000 75 42 29
-0.353927 -0.349811 2.351000 75 41 22
-0.353927 -0.345696 2.351000 75 40 32
-0.353927 -0.341580 2.351000 75 41 42
-0.353927 -0.337465 2.351000 75 44 33
-0.353927 -0.333349 2.351000 74 44 25
-0.353927 -0.329234 2.351000 73 44 19
-0.353927 -0.325119 2.351000 72 46 13
-0.353927 -0.321003 2.351000 72 46 15
-0.353927 -0.316888 2.351000 72 45 17
-0.353927 -0.312772 2.351000 71 46 19
-0.353927 -0.308657 2.351000 74 43 22
-0.353927 -0.304541 2.351000 77 40 32
-0.353927 -0.300426 2.351000 74 42 43
-0.353927 -0.296311 2.351000 72 43 35
-0.351518 -0.290207 2.335000 71 41 28
-0.351518 -0.286119 2.335000 71 39 27
-0.351518 -0.282032 2.335000 71 42 26
-0.351518 -0.277944 2.335000 72 44 19
-0.351518 -0.273857 2.335000 71 42 12
-0.351518 -0.269770 2.335000 71 42 20
-0.351518 -0.265682 2.335000 72 42 29
-0.351518 -0.261595 2.335000 72 44 35
-0.351518 -0.257507 2.335000 74 42 42
-0.351518 -0.253420 2.335000 76 39 23
-0.351518 -0.249332 2.335000 76 42 4
-0.351518 -0.245245 2.335000 77 45 14
-0.351518 -0.241158 2.335000 76 43 24
-0.351518 -0.237070 2.335000 74 43 20
-0.351518 -0.232983 2.335000 73 44 17
-0.351518 -0.228895 2.335000 73 45 23
-0.351518 -0.224808 2.335000 72 44 29
-0.351518 -0.220721 2.335000 71 45 30
-0.351518 -0.216633 2.335000 72 45 31
-0.351518 -0.212546 2.335000 73 45 27
-0.353927 -0.209887 2.351000 71 43 24
-0.353927 -0.205771 2.351000 70 43 18
-0.353927 -0.201656 2.351000 72 44 13
-0.356335 -0.198885 2.367000 74 43 18
-0.356335 -0.194741 2.367000 70 45 24
-0.356335 -0.190598 2.367000 66 48 24
-0.356335 -0.186454 2.367000 68 45 25
-0.353927 -0.181079 2.351000 70 42 22
-0.353927 -0.176963 2.351000 70 42 20
-0.353927 -0.172848 2.351000 70 42 16
-0.353927 -0.168732 2.351000 71 41 12
-0.353927 -0.164617 2.351000 72 44 16
-0.353927 -0.160502 2.351000 70 42 21
-0.351518 -0.155322 2.335000 68 41 20
-0.351518 -0.151234 2.335000 69 42 19
-0.351518 -0.147147 2.335000 70 42 20
-0.351518 -0.143060 2.335000 69 42 21
-0.351518 -0.138972 2.335000 69 42 18
-0.351518 -0.134885 2.335000 67 42 15
-0.351518 -0.130797 2.335000 66 43 20
-0.351518 -0.126710 2.335000 67 42 25
-0.351518 -0.122622 2.335000 68 42 37
-0.351518 -0.118535 2.335000 69 39 49
-0.351518 -0.114448 2.335000 69 37 40
-0.353927 -0.111116 2.351000 68 40 32
-0.353927 -0.107001 2.351000 66 42 25
-0.351518 -0.102185 2.335000 69 40 19
-0.351518 -0.098098 2.335000 71 39 19
-0.351518 -0.094011 2.335000 69 41 19
-0.351518 -0.089923 2.335000 66 43 19
-0.351518 -0.085836 2.335000 68 42 20
-0.351518 -0.081748 2.335000 70 42 29
-0.351518 -0.077661 2.335000 68 41 39
-0.351518 -0.073573 2.335000 66 42 29
-0.351518 -0.069486 2.335000 66 42 20
-0.351518 -0.065399 2.335000 66 42 22
-0.351518 -0.061311 2.335000 67 40 25
-0.351518 -0.057224 2.335000 68 39 24
-0.353927 -0.053500 2.351000 67 40 24
-0.351518 -0.049049 2.335000 67 42 24
-0.351518 -0.044962 2.335000 67 41 24
-0.351518 -0.040874 2.335000 68 39 29
-0.351518 -0.036787 2.335000 68 40 35
-0.351518 -0.032699 2.335000 67 41 28
-0.351518 -0.028612 2.335000 69 40 22
-0.351518 -0.024524 2.335000 70 39 24
-0.351518 -0.020437 2.335000 68 40 26
-0.351518 -0.016350 2.335000 66 42 32
-0.351518 -0.012262 2.335000 68 39 39
-0.351518 -0.008175 2.335000 70 38 33
-0.351518 -0.004087 2.335000 66 37 28
-0.351518 -0.000000 2.335000 63 39 27
-0.351518 0.004087 2.335000 64 41 26
-0.351518 0.008175 2.335000 65 42 22
-0.353927 0.012346 2.351000 66 41 18
-0.353927 0.016462 2.351000 68 41 11
-0.353927 0.020577 2.351000 69 40 5
-0.353927 0.024693 2.351000 71 41 21
-0.351518 0.028612 2.335000 65 42 37
-0.353927 0.032923 2.351000 60 43 30
-0.353927 0.037039 2.351000 63 41 24
-0.353927 0.041154 2.351000 66 42 22
-0.351518 0.044962 2.335000 66 38 21
-0.351518 0.049049 2.335000 66 33 16
