ply
format ascii 1.0
element vertex 1232
property float x
property float y
property float z
property uchar red
property uchar green
property uchar blue
end_header
-0.158664 0.393721 3.357000 65 34 25
-0.158664 0.399597 3.357000 67 35 29
-0.158664 0.405474 3.357000 67 34 34
-0.158664 0.411350 3.357000 67 34 36
-0.158664 0.417226 3.357000 67 34 38
-0.158664 0.423103 3.357000 67 37 35
-0.158664 0.428979 3.357000 65 39 32
-0.158664 0.434856 3.357000 63 40 33
-0.158664 0.440732 3.357000 62 39 34
-0.158664 0.446609 3.357000 62 36 27
-0.158664 0.452485 3.357000 64 34 21
-0.158664 0.458362 3.357000 67 36 30
-0.158664 0.464238 3.357000 63 37 40
-0.158664 0.470114 3.357000 60 38 36
-0.158664 0.475991 3.357000 62 39 33
-0.158664 0.481867 3.357000 65 38 33
-0.158664 0.487744 3.357000 62 36 34
-0.158664 0.493620 3.357000 59 34 32
-0.158664 0.499497 3.357000 55 34 31
-0.158664 0.505373 3.357000 51 34 28
-0.158664 0.511249 3.357000 57 34 25
-0.158664 0.517126 3.357000 63 32 26
-0.158664 0.523002 3.357000 62 31 26
-0.158664 0.528879 3.357000 61 32 28
-0.158664 0.534755 3.357000 65 29 29
-0.158664 0.540632 3.357000 70 30 29
-0.158664 0.546508 3.357000 65 29 29
-0.158664 0.552384 3.357000 61 32 31
-0.158664 0.558261 3.357000 60 32 33
-0.158664 0.564137 3.357000 59 30 28
-0.158664 0.570014 3.357000 64 30 24
-0.158664 0.575890 3.357000 69 29 24
-0.157104 0.576048 3.324000 65 26 24
-0.157104 0.581866 3.324000 62 27 25
-0.157104 0.587685 3.324000 63 29 26
-0.157104 0.593504 3.324000 64 28 31
-0.157104 0.599322 3.324000 59 33 37
-0.157104 0.605141 3.324000 54 30 27
-0.157104 0.610960 3.324000 57 32 18
-0.157104 0.616778 3.324000 61 30 17
-0.157104 0.622597 3.324000 57 29 16
-0.157104 0.628416 3.324000 53 28 17
-0.157104 0.634234 3.324000 57 29 18
-0.157104 0.640053 3.324000 62 24 19
-0.157104 0.645872 3.324000 56 21 20
-0.157104 0.651690 3.324000 50 24 18
-0.157104 0.657509 3.324000 50 33 16
-0.155639 0.657141 3.293000 50 29 14
-0.155639 0.662906 3.293000 48 31 12
-0.155639 0.668670 3.293000 46 25 14
-0.154174 0.668085 3.262000 54 21 16
-0.154174 0.673796 3.262000 62 19 15
-0.154174 0.679506 3.262000 57 20 15
-0.155639 0.691728 3.293000 52 20 18
-0.155639 0.697492 3.293000 47 20 21
-0.155639 0.703257 3.293000 42 18 16
-0.157104 0.715696 3.324000 40 17 12
-0.157104 0.721514 3.324000 38 15 12
-0.157104 0.727333 3.324000 34 17 12
-0.157104 0.733152 3.324000 30 14 11
-0.158664 0.746306 3.357000 29 10 10
-0.157104 0.744789 3.324000 28 8 8
-0.157104 0.750607 3.324000 25 7 6
-0.157104 0.756426 3.324000 23 9 7
-0.157104 0.762245 3.324000 17 9 8
-0.155639 0.760900 3.293000 12 7 6
-0.155639 0.766665 3.293000 13 7 5
-0.155639 0.772429 3.293000 14 9 6
-0.155639 0.778194 3.293000 20 12 7
-0.154174 0.776578 3.262000 26 13 13
-0.154174 0.782288 3.262000 21 12 18
-0.117544 0.727034 2.487000 134 103 127
-0.116694 0.726094 2.469000 136 103 129
-0.115843 0.725091 2.451000 138 103 130
-0.115843 0.729381 2.451000 140 101 132
-0.115039 0.728583 2.434000 140 99 134
-0.114236 0.727725 2.417000 140 104 135
-0.114236 0.731956 2.417000 143 108 136
-0.113432 0.731009 2.400000 146 113 136
-0.111873 0.725101 2.367000 147 120 136
-0.110360 0.719386 2.335000 148 119 139
-0.108895 0.713868 2.304000 151 120 143
-0.108186 0.713227 2.289000 154 119 145
-0.107477 0.712534 2.274000 156 122 148
-0.107477 0.716515 2.274000 158 124 149
-0.106768 0.715743 2.259000 160 126 151
-0.106059 0.714918 2.244000 162 126 154
-0.105398 0.714362 2.230000 167 127 158
-0.104689 0.713434 2.215000 173 126 154
-0.104689 0.717311 2.215000 170 124 151
-0.104027 0.716630 2.201000 168 126 154
-0.104027 0.720483 2.201000 168 132 157
-0.103365 0.719729 2.187000 169 133 161
-0.102751 0.719256 2.174000 175 134 165
-0.100813 0.709425 2.133000 181 131 165
-0.099017 0.700454 2.095000 177 129 165
-0.098403 0.699752 2.082000 174 136 168
-0.098403 0.703397 2.082000 175 139 171
-0.097788 0.702626 2.069000 176 137 170
-0.097788 0.706248 2.069000 177 137 169
-0.097221 0.705753 2.057000 179 137 174
-0.097221 0.709354 2.057000 177 136 179
-0.096087 0.704636 2.033000 175 138 175
-0.095520 0.704014 2.021000 177 139 172
-0.095520 0.707552 2.021000 179 137 171
-0.094952 0.706868 2.009000 176 133 169
-0.094669 0.708263 2.003000 174 136 171
-0.093345 0.701819 1.975000 174 143 173
-0.092258 0.697063 1.952000 175 140 172
-0.091738 0.696533 1.941000 172 141 172
-0.091266 0.696325 1.931000 169 141 172
-0.090746 0.695719 1.920000 173 140 172
-0.090226 0.695075 1.909000 178 138 175
-0.090226 0.698416 1.909000 181 139 178
-0.089753 0.698082 1.899000 184 143 183
-0.089234 0.697343 1.888000 184 149 189
-0.089234 0.700648 1.888000 184 149 186
-0.088761 0.700225 1.878000 184 148 183
-0.088288 0.699766 1.868000 185 150 183
-0.087816 0.699272 1.858000 185 152 183
-0.086870 0.694963 1.838000 185 148 183
-0.086398 0.694381 1.828000 184 146 183
-0.085500 0.690331 1.809000 183 146 183
-0.085500 0.693498 1.809000 179 151 183
-0.085074 0.693198 1.800000 176 148 182
-0.084602 0.692480 1.790000 180 146 182
-0.145687 -0.140084 3.201000 71 13 1
-0.144367 -0.133262 3.172000 80 31 6
-0.144367 -0.127709 3.172000 97 36 12
-0.144367 -0.122157 3.172000 114 45 39
-0.143047 -0.115538 3.143000 164 116 66
-0.143047 -0.110036 3.143000 214 218 150
-0.143047 -0.104535 3.143000 191 155 235
-0.145687 0.061637 3.201000 85 34 14
-0.144367 0.066631 3.172000 85 41 15
-0.145687 0.072844 3.201000 85 39 17
-0.145687 0.078447 3.201000 86 39 25
-0.145687 0.084050 3.201000 84 36 34
-0.145687 0.089654 3.201000 82 36 24
-0.144367 0.094394 3.172000 84 32 14
-0.145687 0.100860 3.201000 87 34 12
-0.145687 0.106464 3.201000 86 32 11
-0.145687 0.112067 3.201000 85 32 12
-0.145687 0.117671 3.201000 84 30 14
-0.145687 0.123274 3.201000 83 29 11
-0.144367 0.127710 3.172000 82 31 8
-0.145687 0.134480 3.201000 81 34 8
-0.144367 0.138815 3.172000 81 33 8
-0.144367 0.144367 3.172000 81 33 10
-0.144367 0.149920 3.172000 81 30 13
-0.144367 0.155472 3.172000 82 27 15
-0.144367 0.161025 3.172000 82 26 17
-0.144367 0.166578 3.172000 83 28 14
-0.144367 0.172130 3.172000 86 28 12
-0.144367 0.177683 3.172000 89 28 14
-0.144367 0.183235 3.172000 84 26 17
-0.144367 0.188788 3.172000 79 26 16
-0.143047 0.192564 3.143000 79 30 16
-0.144367 0.199893 3.172000 79 34 22
-0.143047 0.203567 3.143000 77 32 29
-0.144367 0.210998 3.172000 75 34 34
-0.144367 0.216551 3.172000 73 39 39
-0.145687 0.224134 3.201000 72 42 37
-0.147053 0.231891 3.231000 70 42 35
-0.148464 0.239826 3.262000 69 44 38
-0.152787 0.252686 3.357000 70 42 41
-0.154289 0.261105 3.390000 72 41 39
-0.154289 0.267039 3.390000 70 42 37
-0.155791 0.275630 3.423000 68 44 37
-0.154289 0.278907 3.390000 71 44 37
-0.154289 0.284841 3.390000 74 45 35
-0.154289 0.290776 3.390000 75 44 33
-0.154289 0.296710 3.390000 76 45 33
-0.152787 0.299698 3.357000 73 44 33
-0.152787 0.305574 3.357000 70 45 36
-0.152787 0.311451 3.357000 71 45 39
-0.152787 0.317327 3.357000 73 44 41
-0.152787 0.323204 3.357000 74 43 43
-0.151285 0.325845 3.324000 76 45 43
-0.151285 0.331664 3.324000 70 44 44
-0.151285 0.337482 3.324000 64 46 51
-0.151285 0.343301 3.324000 67 43 58
-0.151285 0.349120 3.324000 70 45 49
-0.151285 0.354938 3.324000 71 44 41
-0.151285 0.360757 3.324000 73 44 39
-0.151285 0.366576 3.324000 69 40 37
-0.151285 0.372395 3.324000 66 39 34
-0.151285 0.378213 3.324000 65 40 31
-0.152787 0.387844 3.357000 64 42 31
-0.151285 0.389850 3.324000 63 38 32
-0.152787 0.399597 3.357000 63 39 33
-0.152787 0.405474 3.357000 64 35 35
-0.152787 0.411350 3.357000 65 34 35
-0.151285 0.413125 3.324000 65 35 35
-0.151285 0.418944 3.324000 66 38 31
-0.151285 0.424763 3.324000 64 39 27
-0.151285 0.430581 3.324000 62 41 30
-0.151285 0.436400 3.324000 60 39 34
-0.151285 0.442218 3.324000 57 38 29
-0.151285 0.448037 3.324000 61 35 25
-0.151285 0.453856 3.324000 65 35 29
-0.151285 0.459674 3.324000 61 38 34
-0.151285 0.465493 3.324000 58 42 33
-0.151285 0.471312 3.324000 61 42 32
-0.151285 0.477130 3.324000 65 44 33
-0.151285 0.482949 3.324000 62 39 34
-0.151285 0.488768 3.324000 59 39 34
-0.151285 0.494586 3.324000 58 38 34
-0.152787 0.505373 3.357000 56 39 30
-0.151285 0.506224 3.324000 59 36 26
-0.151285 0.512042 3.324000 63 35 29
-0.151285 0.517861 3.324000 61 33 32
-0.151285 0.523680 3.324000 59 34 30
-0.151285 0.529498 3.324000 59 32 29
-0.151285 0.535317 3.324000 59 32 29
-0.151285 0.541136 3.324000 59 33 30
-0.151285 0.546954 3.324000 59 35 26
-0.151285 0.552773 3.324000 60 33 23
-0.151285 0.558592 3.324000 60 30 21
-0.151285 0.564410 3.324000 59 30 20
-0.151285 0.570229 3.324000 58 31 18
-0.151285 0.576048 3.324000 58 27 16
-0.151285 0.581866 3.324000 59 27 18
-0.151285 0.587685 3.324000 58 27 21
-0.151285 0.593504 3.324000 58 25 22
-0.151285 0.599322 3.324000 53 27 24
-0.151285 0.605141 3.324000 48 29 20
-0.151285 0.610960 3.324000 52 28 16
-0.151285 0.616778 3.324000 55 28 16
-0.151285 0.622597 3.324000 53 26 16
-0.149874 0.622555 3.293000 51 26 18
-0.151285 0.634234 3.324000 53 25 21
-0.149874 0.634084 3.293000 55 24 24
-0.149874 0.639848 3.293000 52 22 27
-0.149874 0.645613 3.293000 48 24 24
-0.149874 0.651377 3.293000 48 25 21
-0.149874 0.657141 3.293000 48 26 16
-0.149874 0.662906 3.293000 47 27 11
-0.149874 0.668670 3.293000 46 25 13
-0.148464 0.668085 3.262000 48 21 16
-0.148464 0.673796 3.262000 51 18 14
-0.148464 0.679506 3.262000 50 19 12
-0.148464 0.685216 3.262000 49 20 20
-0.149874 0.697492 3.293000 47 19 29
-0.149874 0.703257 3.293000 44 18 24
-0.149874 0.709021 3.293000 42 16 20
-0.151285 0.721514 3.324000 40 14 17
-0.151285 0.727333 3.324000 37 16 15
-0.151285 0.733152 3.324000 34 16 14
-0.151285 0.738970 3.324000 31 13 14
-0.151285 0.744789 3.324000 27 11 11
-0.151285 0.750607 3.324000 25 9 9
-0.151285 0.756426 3.324000 23 10 7
-0.151285 0.762245 3.324000 18 8 5
-0.149874 0.760900 3.293000 12 5 3
-0.149874 0.766665 3.293000 13 6 1
-0.149874 0.772429 3.293000 13 8 3
-0.149874 0.778194 3.293000 21 10 5
-0.148464 0.776578 3.262000 30 13 7
-0.148464 0.782288 3.262000 22 11 10
-0.147053 0.780510 3.231000 14 9 6
-0.112372 0.726094 2.469000 134 102 128
-0.110779 0.720061 2.434000 136 102 130
-0.110779 0.724322 2.434000 139 105 131
-0.110779 0.728583 2.434000 138 103 133
-0.110005 0.727725 2.417000 138 103 133
-0.110005 0.731956 2.417000 140 108 133
-0.109231 0.731009 2.400000 143 113 133
-0.108503 0.730309 2.384000 145 116 134
-0.106273 0.719386 2.335000 148 118 138
-0.104862 0.713868 2.304000 151 117 143
-0.104179 0.713227 2.289000 154 117 144
-0.103497 0.712534 2.274000 155 119 146
-0.102814 0.711788 2.259000 157 121 147
-0.102131 0.710990 2.244000 158 123 149
-0.102131 0.714918 2.244000 159 126 152
-0.101494 0.714362 2.230000 163 126 155
-0.100811 0.713434 2.215000 167 126 151
-0.100811 0.717311 2.215000 165 124 148
-0.100174 0.716630 2.201000 164 124 151
-0.100174 0.720483 2.201000 165 128 154
-0.099537 0.719729 2.187000 167 132 159
-0.098945 0.719256 2.174000 171 131 164
-0.097079 0.709425 2.133000 175 130 164
-0.095350 0.700454 2.095000 173 132 164
-0.094758 0.699752 2.082000 172 138 165
-0.094758 0.703397 2.082000 174 137 167
-0.094166 0.702626 2.069000 175 137 168
-0.094166 0.706248 2.069000 176 137 169
-0.093620 0.705753 2.057000 176 139 172
-0.093620 0.709354 2.057000 173 139 175
-0.092528 0.704636 2.033000 170 141 173
-0.092528 0.708195 2.033000 172 139 172
-0.091982 0.707552 2.021000 175 140 170
-0.091436 0.706868 2.009000 172 135 168
-0.091436 0.710385 2.009000 170 129 168
-0.089388 0.697910 1.964000 172 136 168
-0.088341 0.693135 1.941000 175 140 168
-0.088341 0.696533 1.941000 175 140 169
-0.087886 0.696325 1.931000 176 139 169
-0.087385 0.695719 1.920000 176 140 170
-0.086884 0.695075 1.909000 177 143 173
-0.086884 0.698416 1.909000 179 142 176
-0.086429 0.698082 1.899000 181 145 179
-0.085929 0.697343 1.888000 182 146 183
-0.085929 0.700648 1.888000 183 147 182
-0.085474 0.700225 1.878000 184 148 182
-0.085018 0.699766 1.868000 185 151 181
-0.084563 0.699272 1.858000 184 150 181
-0.083653 0.694963 1.838000 184 151 181
-0.083198 0.694381 1.828000 184 147 182
-0.082788 0.694147 1.819000 184 148 182
-0.082333 0.693498 1.809000 184 148 182
-0.081468 0.689347 1.790000 184 148 181
-0.081059 0.688999 1.781000 185 147 181
-0.136320 -0.136320 3.115000 74 20 10
-0.136320 -0.130867 3.115000 81 32 23
-0.138815 -0.127709 3.172000 106 41 35
-0.137546 -0.121040 3.143000 131 71 51
-0.136320 -0.114509 3.115000 152 85 67
-0.137546 -0.110036 3.143000 174 113 92
-0.136320 -0.103603 3.115000 129 148 118
-0.140084 0.061637 3.201000 87 41 14
-0.138815 0.066631 3.172000 86 40 15
-0.138815 0.072184 3.172000 87 37 17
-0.138815 0.077736 3.172000 88 35 20
-0.138815 0.083289 3.172000 86 32 23
-0.138815 0.088841 3.172000 85 33 16
-0.138815 0.094394 3.172000 87 31 9
-0.138815 0.099947 3.172000 90 33 10
-0.138815 0.105499 3.172000 87 34 11
-0.138815 0.111052 3.172000 84 33 15
-0.138815 0.116604 3.172000 84 33 20
-0.138815 0.122157 3.172000 84 32 15
-0.138815 0.127710 3.172000 82 32 10
-0.138815 0.133262 3.172000 81 33 8
-0.137546 0.137546 3.143000 81 34 7
-0.137546 0.143047 3.143000 81 32 10
-0.137546 0.148549 3.143000 78 32 13
-0.138815 0.155472 3.172000 76 28 15
-0.137546 0.159553 3.143000 79 27 17
-0.137546 0.165055 3.143000 83 28 13
-0.137546 0.170557 3.143000 89 27 10
-0.137546 0.176058 3.143000 95 28 12
-0.137546 0.181560 3.143000 87 26 14
-0.137546 0.187062 3.143000 79 28 15
-0.136320 0.190848 3.115000 78 34 16
-0.137546 0.198066 3.143000 78 32 22
-0.137546 0.203567 3.143000 76 27 28
-0.137546 0.209069 3.143000 74 32 32
-0.137546 0.214571 3.143000 73 39 36
-0.138815 0.222104 3.172000 72 40 35
-0.141397 0.231891 3.231000 70 41 34
-0.142753 0.239826 3.262000 68 41 33
-0.145467 0.250202 3.324000 69 41 32
-0.146911 0.258563 3.357000 71 41 35
-0.146911 0.264439 3.357000 71 43 38
-0.148355 0.272973 3.390000 71 42 37
-0.148355 0.278907 3.390000 72 43 36
-0.146911 0.282069 3.357000 74 44 34
-0.146911 0.287945 3.357000 74 45 33
-0.146911 0.293821 3.357000 74 45 31
-0.146911 0.299698 3.357000 69 46 29
-0.146911 0.305574 3.357000 64 45 33
-0.146911 0.311451 3.357000 68 47 36
-0.146911 0.317327 3.357000 72 43 39
-0.146911 0.323204 3.357000 73 42 41
-0.145467 0.325845 3.324000 74 42 40
-0.145467 0.331664 3.324000 72 45 38
-0.145467 0.337482 3.324000 70 43 37
-0.145467 0.343301 3.324000 69 42 36
-0.145467 0.349120 3.324000 69 43 37
-0.145467 0.354938 3.324000 69 47 37
-0.145467 0.360757 3.324000 69 44 36
-0.145467 0.366576 3.324000 68 42 35
-0.145467 0.372395 3.324000 67 41 30
-0.145467 0.378213 3.324000 66 41 25
-0.145467 0.384032 3.324000 65 40 30
-0.145467 0.389850 3.324000 62 40 35
-0.145467 0.395669 3.324000 59 38 35
-0.145467 0.401488 3.324000 61 35 36
-0.145467 0.407306 3.324000 64 36 38
-0.145467 0.413125 3.324000 64 36 39
-0.145467 0.418944 3.324000 65 38 36
-0.145467 0.424763 3.324000 63 41 34
-0.145467 0.430581 3.324000 62 41 35
-0.145467 0.436400 3.324000 57 39 36
-0.145467 0.442218 3.324000 53 38 32
-0.145467 0.448037 3.324000 58 36 28
-0.145467 0.453856 3.324000 63 37 34
-0.145467 0.459674 3.324000 59 39 40
-0.145467 0.465493 3.324000 56 41 38
-0.145467 0.471312 3.324000 61 44 35
-0.145467 0.477130 3.324000 66 41 34
-0.145467 0.482949 3.324000 63 39 33
-0.145467 0.488768 3.324000 60 40 35
-0.145467 0.494586 3.324000 61 40 37
-0.145467 0.500405 3.324000 62 38 37
-0.145467 0.506224 3.324000 62 37 37
-0.145467 0.512042 3.324000 63 36 36
-0.145467 0.517861 3.324000 60 35 36
-0.145467 0.523680 3.324000 58 35 36
-0.145467 0.529498 3.324000 53 36 37
-0.145467 0.535317 3.324000 48 37 34
-0.145467 0.541136 3.324000 53 39 32
-0.145467 0.546954 3.324000 58 36 27
-0.145467 0.552773 3.324000 60 35 22
-0.145467 0.558592 3.324000 62 33 22
-0.145467 0.564410 3.324000 54 30 21
-0.145467 0.570229 3.324000 47 29 22
-0.145467 0.576048 3.324000 52 26 22
-0.145467 0.581866 3.324000 57 27 23
-0.144110 0.582204 3.293000 54 28 23
-0.144110 0.587969 3.293000 52 24 22
-0.144110 0.593733 3.293000 47 23 21
-0.144110 0.599497 3.293000 43 26 18
-0.144110 0.605262 3.293000 46 23 15
-0.144110 0.611026 3.293000 50 25 16
-0.144110 0.616791 3.293000 49 24 17
-0.144110 0.622555 3.293000 49 23 21
-0.144110 0.628319 3.293000 49 22 26
-0.144110 0.634084 3.293000 49 22 28
-0.144110 0.639848 3.293000 48 22 30
-0.142753 0.639535 3.262000 47 23 26
-0.142753 0.645245 3.262000 47 20 22
-0.142753 0.650955 3.262000 47 24 19
-0.142753 0.656665 3.262000 46 26 16
-0.142753 0.662375 3.262000 46 24 16
-0.142753 0.668085 3.262000 43 21 16
-0.141397 0.667392 3.231000 41 20 13
-0.142753 0.679506 3.262000 44 19 10
-0.142753 0.685216 3.262000 47 19 18
-0.142753 0.690926 3.262000 47 18 27
-0.142753 0.696636 3.262000 47 18 23
-0.144110 0.709021 3.293000 45 16 20
-0.144110 0.714785 3.293000 43 15 18
-0.144110 0.720550 3.293000 41 17 16
-0.145467 0.733152 3.324000 39 17 15
-0.145467 0.738970 3.324000 33 15 14
-0.145467 0.744789 3.324000 27 12 11
-0.145467 0.750607 3.324000 25 10 9
-0.145467 0.756426 3.324000 24 9 8
-0.144110 0.755136 3.293000 18 8 7
-0.144110 0.760900 3.293000 13 6 5
-0.142753 0.759448 3.262000 13 5 4
-0.144110 0.772429 3.293000 13 7 6
-0.144110 0.778194 3.293000 23 10 7
-0.142753 0.776578 3.262000 34 10 13
-0.141397 0.774854 3.231000 22 11 18
-0.141397 0.780510 3.231000 11 11 13
-0.108837 0.731387 2.487000 132 99 126
-0.108050 0.730416 2.469000 135 98 127
-0.107262 0.729381 2.451000 138 102 128
-0.107262 0.733671 2.451000 137 106 129
-0.106518 0.732843 2.434000 137 106 130
-0.105774 0.731956 2.417000 138 109 132
-0.105774 0.736187 2.417000 140 110 133
-0.105030 0.735210 2.400000 144 113 135
-0.101529 0.714764 2.320000 148 114 138
-0.100829 0.713868 2.304000 151 113 141
-0.100172 0.713227 2.289000 154 114 143
-0.099516 0.712534 2.274000 155 118 145
-0.098860 0.711788 2.259000 156 118 145
-0.098203 0.710990 2.244000 156 121 146
-0.098203 0.714918 2.244000 157 124 149
-0.097590 0.714362 2.230000 159 125 152
-0.097590 0.718265 2.230000 161 124 147
-0.096934 0.717311 2.215000 160 123 143
-0.096934 0.721189 2.215000 160 123 147
-0.096321 0.720483 2.201000 163 127 151
-0.095709 0.719729 2.187000 166 129 156
-0.095140 0.719256 2.174000 167 131 162
-0.092777 0.705102 2.120000 169 131 163
-0.092208 0.704466 2.107000 170 134 164
-0.091682 0.704121 2.095000 171 134 166
-0.091114 0.703397 2.082000 173 135 167
-0.090545 0.702626 2.069000 175 136 168
-0.090545 0.706248 2.069000 174 137 169
-0.090019 0.705753 2.057000 174 138 171
-0.089494 0.705215 2.045000 170 140 172
-0.088969 0.704636 2.033000 166 139 171
-0.088444 0.704014 2.021000 168 138 170
-0.088444 0.707552 2.021000 171 139 168
-0.087919 0.706868 2.009000 168 141 167
-0.087919 0.710385 2.009000 166 132 163
-0.086431 0.701819 1.975000 171 132 159
-0.085424 0.697063 1.952000 176 137 162
-0.084943 0.696533 1.941000 179 141 165
-0.084505 0.696325 1.931000 183 140 166
-0.084024 0.695719 1.920000 180 141 168
-0.084024 0.699080 1.920000 177 141 172
-0.083543 0.698416 1.909000 178 142 175
-0.083105 0.698082 1.899000 179 143 178
-0.082624 0.697343 1.888000 181 145 181
-0.082186 0.696937 1.878000 183 145 181
-0.082186 0.700225 1.878000 184 147 182
-0.081748 0.699766 1.868000 186 147 182
-0.081311 0.699272 1.858000 184 146 183
-0.080435 0.694963 1.838000 183 146 182
-0.079998 0.694381 1.828000 184 144 182
-0.079166 0.690331 1.809000 186 146 181
-0.078773 0.690047 1.800000 189 148 181
-0.078335 0.689347 1.790000 193 148 182
-0.077941 0.688999 1.781000 190 148 183
-0.130867 -0.141773 3.115000 77 10 10
-0.130867 -0.136320 3.115000 81 25 20
-0.130867 -0.130867 3.115000 86 38 39
-0.130867 -0.125415 3.115000 110 62 59
-0.130867 -0.119962 3.115000 135 114 63
-0.130867 -0.114509 3.115000 119 70 68
-0.130867 -0.109056 3.115000 104 1 34
-0.130867 -0.103603 3.115000 80 37 1
-0.132044 0.060520 3.143000 85 41 15
-0.132044 0.066022 3.143000 82 41 16
-0.132044 0.071524 3.143000 86 36 17
-0.132044 0.077026 3.143000 91 34 14
-0.132044 0.082527 3.143000 88 32 12
-0.132044 0.088029 3.143000 86 34 8
-0.132044 0.093531 3.143000 87 33 4
-0.133262 0.099947 3.172000 87 34 7
-0.133262 0.105499 3.172000 85 34 11
-0.133262 0.111052 3.172000 84 34 18
-0.133262 0.116604 3.172000 83 34 26
-0.132044 0.121040 3.143000 83 34 19
-0.132044 0.126542 3.143000 81 33 12
-0.132044 0.132044 3.143000 80 34 9
-0.132044 0.137546 3.143000 82 33 7
-0.130867 0.141773 3.115000 83 32 10
-0.130867 0.147226 3.115000 80 29 13
-0.132044 0.154051 3.143000 78 27 15
-0.132044 0.159553 3.143000 80 29 17
-0.132044 0.165055 3.143000 82 31 13
-0.130867 0.169037 3.115000 85 30 9
-0.130867 0.174490 3.115000 88 34 10
-0.130867 0.179943 3.115000 81 29 12
-0.130867 0.185396 3.115000 74 29 14
-0.130867 0.190848 3.115000 76 32 17
-0.130867 0.196301 3.115000 77 34 22
-0.130867 0.201754 3.115000 74 31 28
-0.130867 0.207207 3.115000 70 30 30
-0.132044 0.214571 3.143000 71 37 33
-0.132044 0.220073 3.143000 72 41 33
-0.134481 0.229737 3.201000 70 41 33
-0.135741 0.237546 3.231000 69 41 28
-0.139648 0.250202 3.324000 68 40 24
-0.139648 0.256021 3.324000 68 39 31
-0.141034 0.264439 3.357000 65 40 39
-0.141034 0.270316 3.357000 63 39 37
-0.141034 0.276192 3.357000 67 41 35
-0.141034 0.282069 3.357000 70 44 34
-0.139648 0.285115 3.324000 71 44 34
-0.141034 0.293821 3.357000 72 45 30
-0.139648 0.296752 3.324000 69 45 26
-0.139648 0.302570 3.324000 66 44 30
-0.139648 0.308389 3.324000 69 44 34
-0.139648 0.314208 3.324000 72 42 37
-0.139648 0.320027 3.324000 73 41 40
-0.139648 0.325845 3.324000 75 39 36
-0.139648 0.331664 3.324000 73 41 33
-0.139648 0.337482 3.324000 72 41 24
-0.139648 0.343301 3.324000 71 41 15
-0.139648 0.349120 3.324000 71 39 24
-0.139648 0.354938 3.324000 70 43 34
-0.138346 0.357393 3.293000 69 44 34
-0.138346 0.363157 3.293000 65 43 34
-0.138346 0.368922 3.293000 61 42 27
-0.138346 0.374686 3.293000 64 41 20
-0.138346 0.380450 3.293000 66 37 29
-0.138346 0.386215 3.293000 64 40 38
-0.138346 0.391979 3.293000 62 40 38
-0.139648 0.401488 3.324000 64 38 38
-0.139648 0.407306 3.324000 66 39 41
-0.139648 0.413125 3.324000 68 39 44
-0.138346 0.415037 3.293000 71 39 42
-0.138346 0.420801 3.293000 68 41 41
-0.139648 0.430581 3.324000 65 44 39
-0.139648 0.436400 3.324000 62 41 38
-0.139648 0.442218 3.324000 60 39 35
-0.139648 0.448037 3.324000 63 37 32
-0.139648 0.453856 3.324000 66 39 39
-0.139648 0.459674 3.324000 65 40 47
-0.138346 0.461152 3.293000 63 42 43
-0.138346 0.466916 3.293000 67 41 39
-0.138346 0.472681 3.293000 71 39 35
-0.138346 0.478445 3.293000 67 40 32
-0.137043 0.479651 3.262000 64 42 36
-0.138346 0.489974 3.293000 67 40 40
-0.138346 0.495738 3.293000 71 38 44
-0.138346 0.501503 3.293000 68 37 49
-0.138346 0.507267 3.293000 66 37 44
-0.138346 0.513031 3.293000 63 36 40
-0.138346 0.518796 3.293000 61 37 42
-0.138346 0.524560 3.293000 58 38 45
-0.138346 0.530325 3.293000 56 41 39
-0.138346 0.536089 3.293000 59 39 34
-0.138346 0.541853 3.293000 61 38 28
-0.139648 0.552773 3.324000 61 38 22
-0.138346 0.553382 3.293000 62 38 22
-0.138346 0.559147 3.293000 57 34 23
-0.138346 0.564911 3.293000 52 29 26
-0.138346 0.570675 3.293000 55 28 29
-0.138346 0.576440 3.293000 59 28 27
-0.138346 0.582204 3.293000 56 27 26
-0.137043 0.582434 3.262000 54 21 22
-0.137043 0.588144 3.262000 51 24 19
-0.138346 0.599497 3.293000 48 29 17
-0.138346 0.605262 3.293000 49 26 15
-0.138346 0.611026 3.293000 50 26 17
-0.138346 0.616791 3.293000 47 24 19
-0.138346 0.622555 3.293000 44 23 25
-0.138346 0.628319 3.293000 46 23 31
-0.137043 0.628115 3.262000 48 21 32
-0.137043 0.633825 3.262000 50 24 34
-0.137043 0.639535 3.262000 52 28 29
-0.135741 0.639113 3.231000 50 25 24
-0.135741 0.644769 3.231000 49 26 22
-0.135741 0.650425 3.231000 48 26 21
-0.135741 0.656081 3.231000 48 26 19
-0.135741 0.661736 3.231000 46 23 17
-0.135741 0.667392 3.231000 45 22 13
-0.135741 0.673048 3.231000 46 20 9
-0.135741 0.678704 3.231000 47 21 17
-0.137043 0.690926 3.262000 48 21 25
-0.137043 0.696636 3.262000 50 20 23
-0.137043 0.702346 3.262000 48 16 21
-0.137043 0.708056 3.262000 46 15 19
-0.138346 0.720550 3.293000 44 18 18
-0.138346 0.726314 3.293000 42 20 16
-0.138346 0.732078 3.293000 38 16 14
-0.138346 0.737843 3.293000 34 13 12
-0.138346 0.743607 3.293000 30 12 10
-0.138346 0.749372 3.293000 27 11 9
-0.138346 0.755136 3.293000 21 8 9
-0.137043 0.753737 3.262000 15 6 8
-0.137043 0.759448 3.262000 12 6 8
-0.137043 0.765158 3.262000 9 8 9
-0.138346 0.778194 3.293000 18 8 10
-0.137043 0.776578 3.262000 27 7 18
-0.135741 0.774854 3.231000 22 9 27
-0.135741 0.780510 3.231000 17 13 20
-0.103728 0.726094 2.469000 130 99 124
-0.102971 0.725091 2.451000 133 98 125
-0.102971 0.729381 2.451000 135 100 125
-0.102257 0.728583 2.434000 134 105 126
-0.101543 0.727725 2.417000 133 106 128
-0.101543 0.731956 2.417000 136 106 131
-0.100829 0.731009 2.400000 140 105 133
-0.100157 0.730309 2.384000 142 109 136
-0.097468 0.714764 2.320000 144 113 137
-0.096166 0.709220 2.289000 148 112 139
-0.096166 0.713227 2.289000 151 111 141
-0.095535 0.712534 2.274000 153 114 144
-0.094905 0.711788 2.259000 155 115 144
-0.094905 0.715743 2.259000 155 120 144
-0.094275 0.714918 2.244000 155 125 146
-0.093687 0.714362 2.230000 157 123 149
-0.093687 0.718265 2.230000 159 122 143
-0.093057 0.717311 2.215000 159 121 138
-0.093057 0.721189 2.215000 159 121 143
-0.092468 0.720483 2.201000 164 125 148
-0.091880 0.719729 2.187000 169 129 154
-0.090746 0.714624 2.160000 165 128 160
-0.089066 0.705102 2.120000 161 129 162
-0.088519 0.704466 2.107000 165 131 165
-0.087469 0.699752 2.082000 170 132 166
-0.087469 0.703397 2.082000 171 133 168
-0.086923 0.702626 2.069000 173 135 169
-0.086923 0.706248 2.069000 174 136 170
-0.086419 0.705753 2.057000 175 138 170
-0.085915 0.705215 2.045000 174 139 170
-0.085410 0.704636 2.033000 174 139 169
-0.084906 0.704014 2.021000 173 138 169
-0.084906 0.707552 2.021000 172 138 167
-0.084402 0.706868 2.009000 170 135 166
-0.084402 0.710385 2.009000 168 126 158
-0.082512 0.697910 1.964000 171 132 150
-0.082007 0.697063 1.952000 174 137 155
-0.081545 0.696533 1.941000 176 139 161
-0.081125 0.696325 1.931000 178 140 164
-0.080663 0.695719 1.920000 176 140 167
-0.080201 0.695075 1.909000 174 140 171
-0.079781 0.694758 1.899000 176 141 175
-0.079319 0.694038 1.888000 179 142 177
-0.079319 0.697343 1.888000 180 142 179
-0.078899 0.696937 1.878000 182 143 181
-0.078899 0.700225 1.878000 185 145 183
-0.078478 0.699766 1.868000 189 147 184
-0.078058 0.699272 1.858000 186 147 185
-0.077638 0.698744 1.848000 183 146 183
-0.076798 0.694381 1.828000 184 145 182
-0.076000 0.690331 1.809000 185 146 181
-0.075622 0.690047 1.800000 187 147 181
-0.075202 0.689347 1.790000 189 149 183
-0.074823 0.688999 1.781000 186 148 185
-0.125415 -0.141773 3.115000 87 26 10
-0.124287 -0.135095 3.087000 89 35 11
-0.125415 -0.130867 3.115000 91 42 40
-0.125415 -0.125415 3.115000 115 55 70
-0.125415 -0.119962 3.115000 139 86 71
-0.125415 -0.114509 3.115000 86 81 72
-0.125415 -0.109056 3.115000 34 21 37
-0.125415 -0.103603 3.115000 31 1 3
-0.126542 0.060520 3.143000 82 41 17
-0.125415 0.065434 3.115000 79 37 20
-0.126542 0.071524 3.143000 86 34 23
-0.125415 0.076339 3.115000 94 32 18
-0.125415 0.081792 3.115000 91 31 14
-0.125415 0.087245 3.115000 88 33 11
-0.126542 0.093531 3.143000 86 34 7
-0.126542 0.099033 3.143000 85 34 9
-0.126542 0.104535 3.143000 84 34 11
-0.126542 0.110036 3.143000 84 34 16
-0.126542 0.115538 3.143000 83 37 20
-0.126542 0.121040 3.143000 82 34 16
-0.126542 0.126542 3.143000 81 32 12
-0.126542 0.132044 3.143000 80 32 10
-0.126542 0.137546 3.143000 83 34 9
-0.125415 0.141773 3.115000 86 30 13
-0.125415 0.147226 3.115000 83 27 16
-0.126542 0.154051 3.143000 80 28 16
-0.125415 0.158132 3.115000 81 31 16
-0.125415 0.163584 3.115000 82 31 16
-0.125415 0.169037 3.115000 81 31 16
-0.125415 0.174490 3.115000 81 30 15
-0.125415 0.179943 3.115000 75 27 13
-0.125415 0.185396 3.115000 70 29 15
-0.125415 0.190848 3.115000 73 31 17
-0.125415 0.196301 3.115000 77 32 22
-0.125415 0.201754 3.115000 72 34 28
-0.125415 0.207207 3.115000 67 36 34
-0.125415 0.212660 3.115000 69 40 40
-0.125415 0.218112 3.115000 72 41 36
-0.126542 0.225575 3.143000 71 41 33
-0.128877 0.235341 3.201000 71 42 31
-0.132581 0.247869 3.293000 68 42 29
-0.133829 0.256021 3.324000 65 42 37
-0.133829 0.261840 3.324000 60 42 46
-0.133829 0.267659 3.324000 56 41 43
-0.133829 0.273477 3.324000 61 39 41
-0.133829 0.279296 3.324000 67 43 39
-0.133829 0.285115 3.324000 68 44 38
-0.133829 0.290933 3.324000 70 44 39
-0.133829 0.296752 3.324000 69 45 40
-0.133829 0.302570 3.324000 69 44 39
-0.133829 0.308389 3.324000 71 43 37
-0.133829 0.314208 3.324000 73 43 40
-0.133829 0.320027 3.324000 74 42 42
-0.133829 0.325845 3.324000 76 41 39
-0.133829 0.331664 3.324000 75 39 37
-0.133829 0.337482 3.324000 74 42 36
-0.132581 0.340099 3.293000 74 45 36
-0.132581 0.345864 3.293000 74 42 36
-0.132581 0.351628 3.293000 71 43 37
-0.132581 0.357393 3.293000 69 44 36
-0.131333 0.359738 3.262000 62 47 36
-0.131333 0.365449 3.262000 56 45 31
-0.132581 0.374686 3.293000 62 44 27
-0.132581 0.380450 3.293000 68 42 33
-0.132581 0.386215 3.293000 66 43 39
-0.132581 0.391979 3.293000 65 42 42
-0.132581 0.397743 3.293000 67 40 46
-0.132581 0.403508 3.293000 69 41 44
-0.132581 0.409272 3.293000 73 42 42
-0.132581 0.415037 3.293000 77 41 44
-0.132581 0.420801 3.293000 73 42 47
-0.132581 0.426565 3.293000 69 43 42
-0.132581 0.432330 3.293000 68 42 38
-0.132581 0.438094 3.293000 67 40 35
-0.132581 0.443859 3.293000 68 37 32
-0.132581 0.449623 3.293000 70 39 38
-0.132581 0.455387 3.293000 70 41 44
-0.131333 0.456811 3.262000 71 41 40
-0.131333 0.462521 3.262000 74 42 37
-0.131333 0.468231 3.262000 77 41 36
-0.131333 0.473941 3.262000 72 41 35
-0.130085 0.475093 3.231000 68 41 38
-0.131333 0.485361 3.262000 74 41 41
-0.131333 0.491071 3.262000 80 39 42
-0.132581 0.501503 3.293000 75 38 44
-0.132581 0.507267 3.293000 70 37 43
-0.132581 0.513031 3.293000 67 35 42
-0.132581 0.518796 3.293000 64 36 42
-0.132581 0.524560 3.293000 64 40 41
-0.131333 0.525332 3.262000 65 40 37
-0.131333 0.531042 3.262000 65 41 33
-0.131333 0.536752 3.262000 65 40 29
-0.131333 0.542463 3.262000 63 41 26
-0.131333 0.548173 3.262000 62 39 26
-0.131333 0.553883 3.262000 60 39 27
-0.131333 0.559593 3.262000 58 33 32
-0.131333 0.565303 3.262000 59 30 38
-0.131333 0.571013 3.262000 61 32 32
-0.131333 0.576723 3.262000 58 31 26
-0.131333 0.582434 3.262000 56 26 24
-0.131333 0.588144 3.262000 55 26 22
-0.131333 0.593854 3.262000 54 28 21
-0.132581 0.605262 3.293000 52 28 19
-0.132581 0.611026 3.293000 50 25 21
-0.131333 0.610984 3.262000 45 23 22
-0.132581 0.622555 3.293000 40 24 26
-0.132581 0.628319 3.293000 43 26 29
-0.131333 0.628115 3.262000 47 25 27
-0.131333 0.633825 3.262000 52 26 24
-0.131333 0.639535 3.262000 58 26 24
-0.131333 0.645245 3.262000 54 26 24
-0.130085 0.644769 3.231000 51 27 23
-0.130085 0.650425 3.231000 50 26 23
-0.130085 0.656081 3.231000 50 25 22
-0.130085 0.661736 3.231000 49 23 21
-0.130085 0.667392 3.231000 49 22 17
-0.130085 0.673048 3.231000 48 18 12
-0.131333 0.685216 3.262000 47 20 18
-0.131333 0.690926 3.262000 50 25 25
-0.131333 0.696636 3.262000 53 20 24
-0.131333 0.702346 3.262000 51 15 24
-0.131333 0.708056 3.262000 49 17 21
-0.132581 0.720550 3.293000 47 23 18
-0.132581 0.726314 3.293000 46 20 18
-0.132581 0.732078 3.293000 43 16 18
-0.132581 0.737843 3.293000 41 16 14
-0.132581 0.743607 3.293000 35 14 11
-0.132581 0.749372 3.293000 30 11 10
-0.131333 0.748027 3.262000 23 8 9
-0.130085 0.746574 3.231000 17 7 9
-0.130085 0.752230 3.231000 11 5 8
-0.130085 0.757886 3.231000 5 7 8
-0.130085 0.763542 3.231000 12 8 8
-0.130085 0.769198 3.231000 20 7 12
-0.130085 0.774854 3.231000 21 8 16
-0.128877 0.773263 3.201000 23 10 14
-0.128877 0.778866 3.201000 22 10 11
-0.100130 0.727034 2.487000 129 125 122
-0.100130 0.731387 2.487000 129 108 122
-0.099406 0.730416 2.469000 131 96 122
-0.098681 0.729381 2.451000 133 100 123
-0.098681 0.733671 2.451000 131 109 125
-0.097996 0.732843 2.434000 129 107 127
-0.097312 0.731956 2.417000 134 107 129
-0.096628 0.731009 2.400000 140 107 131
-0.095983 0.730309 2.384000 140 108 134
-0.093407 0.714764 2.320000 141 111 135
-0.092762 0.713868 2.304000 145 112 137
-0.092762 0.717901 2.304000 149 112 139
-0.092159 0.717234 2.289000 151 113 141
-0.091555 0.716515 2.274000 154 116 142
-0.090951 0.715743 2.259000 153 122 143
-0.090347 0.714918 2.244000 153 122 145
-0.089783 0.714362 2.230000 155 120 147
-0.089783 0.718265 2.230000 157 121 144
-0.089179 0.717311 2.215000 158 121 141
-0.088616 0.716630 2.201000 159 122 143
-0.088616 0.720483 2.201000 165 126 145
-0.088052 0.719729 2.187000 172 127 152
-0.086965 0.714624 2.160000 163 126 158
-0.085354 0.705102 2.120000 154 128 161
-0.084348 0.700454 2.095000 161 130 163
-0.083824 0.699752 2.082000 169 131 165
-0.083824 0.703397 2.082000 170 132 166
-0.083301 0.702626 2.069000 172 134 168
-0.082818 0.702152 2.057000 174 135 170
-0.082818 0.705753 2.057000 176 138 170
-0.082335 0.705215 2.045000 179 140 170
-0.081852 0.704636 2.033000 183 140 168
-0.081368 0.704014 2.021000 178 139 166
-0.081368 0.707552 2.021000 173 137 166
-0.080885 0.706868 2.009000 172 135 167
-0.080885 0.710385 2.009000 171 132 162
-0.079074 0.697910 1.964000 172 134 157
-0.078590 0.697063 1.952000 173 136 159
-0.078148 0.696533 1.941000 173 138 162
-0.077745 0.696325 1.931000 173 139 164
-0.077302 0.695719 1.920000 172 140 167
-0.076859 0.695075 1.909000 171 141 171
-0.076457 0.694758 1.899000 175 143 175
-0.076457 0.698082 1.899000 179 141 176
-0.076014 0.697343 1.888000 180 140 178
-0.076014 0.700648 1.888000 181 141 180
-0.075611 0.700225 1.878000 186 143 182
-0.075208 0.699766 1.868000 192 147 182
-0.075208 0.703036 1.868000 187 152 182
-0.074403 0.698744 1.848000 183 146 181
-0.074001 0.698180 1.838000 184 145 181
-0.072833 0.690331 1.809000 185 146 180
-0.072471 0.690047 1.800000 185 147 179
-0.072068 0.689347 1.790000 185 148 183
-0.071706 0.688999 1.781000 182 148 187
-0.119962 -0.141773 3.115000 80 30 9
-0.119962 -0.136320 3.115000 88 32 2
-0.119962 -0.130867 3.115000 96 40 42
-0.119962 -0.125415 3.115000 114 70 82
-0.119962 -0.119962 3.115000 132 95 79
-0.119962 -0.114509 3.115000 77 63 76
-0.119962 -0.109056 3.115000 23 1 40
-0.119962 -0.103603 3.115000 32 8 5
-0.119962 0.059981 3.115000 83 38 19
-0.119962 0.065434 3.115000 82 34 24
-0.119962 0.070887 3.115000 86 32 29
-0.119962 0.076339 3.115000 90 30 23
-0.119962 0.081792 3.115000 88 32 17
-0.119962 0.087245 3.115000 86 34 14
-0.119962 0.092698 3.115000 85 34 11
-0.119962 0.098151 3.115000 84 37 11
-0.119962 0.103603 3.115000 84 35 12
-0.119962 0.109056 3.115000 84 33 13
-0.119962 0.114509 3.115000 82 33 15
-0.119962 0.119962 3.115000 80 33 13
-0.119962 0.125415 3.115000 81 30 12
-0.119962 0.130867 3.115000 81 31 12
-0.119962 0.136320 3.115000 82 31 12
-0.119962 0.141773 3.115000 83 30 16
-0.119962 0.147226 3.115000 81 28 20
-0.119962 0.152679 3.115000 79 27 18
-0.119962 0.158132 3.115000 78 28 16
-0.119962 0.163584 3.115000 77 31 20
-0.119962 0.169037 3.115000 78 30 24
-0.119962 0.174490 3.115000 80 28 19
-0.119962 0.179943 3.115000 77 28 15
-0.119962 0.185396 3.115000 75 30 16
-0.118884 0.189133 3.087000 78 29 17
-0.118884 0.194537 3.087000 82 29 22
-0.118884 0.199940 3.087000 77 35 28
-0.118884 0.205344 3.087000 72 41 37
-0.119962 0.212660 3.115000 74 42 47
-0.119962 0.218112 3.115000 76 42 40
-0.121040 0.225575 3.143000 75 42 34
-0.123274 0.235341 3.201000 73 44 34
-0.126817 0.247869 3.293000 73 44 35
-0.128011 0.256021 3.324000 72 46 44
-0.128011 0.261840 3.324000 69 45 53
-0.128011 0.267659 3.324000 65 46 50
-0.128011 0.273477 3.324000 66 44 48
-0.128011 0.279296 3.324000 68 46 45
-0.128011 0.285115 3.324000 70 45 42
-0.128011 0.290933 3.324000 73 44 48
-0.128011 0.296752 3.324000 72 44 55
-0.128011 0.302570 3.324000 72 46 48
-0.128011 0.308389 3.324000 73 45 41
-0.128011 0.314208 3.324000 74 45 43
-0.128011 0.320027 3.324000 75 44 45
-0.126817 0.322806 3.293000 76 45 43
-0.126817 0.328571 3.293000 76 43 41
-0.126817 0.334335 3.293000 76 45 49
-0.126817 0.340099 3.293000 75 45 57
-0.126817 0.345864 3.293000 75 44 48
-0.126817 0.351628 3.293000 73 44 40
-0.126817 0.357393 3.293000 72 45 39
-0.125623 0.359738 3.262000 71 47 38
-0.126817 0.368922 3.293000 71 47 36
-0.126817 0.374686 3.293000 71 45 35
-0.125623 0.376869 3.262000 71 47 38
-0.125623 0.382579 3.262000 70 45 41
-0.125623 0.388289 3.262000 69 45 47
-0.126817 0.397743 3.293000 69 43 54
-0.126817 0.403508 3.293000 70 44 47
-0.126817 0.409272 3.293000 71 44 41
-0.126817 0.415037 3.293000 73 44 47
-0.126817 0.420801 3.293000 69 44 53
-0.126817 0.426565 3.293000 65 46 46
-0.126817 0.432330 3.293000 67 44 39
-0.126817 0.438094 3.293000 69 43 36
-0.126817 0.443859 3.293000 69 42 33
-0.126817 0.449623 3.293000 69 42 37
-0.126817 0.455387 3.293000 70 43 41
-0.125623 0.456811 3.262000 72 42 38
-0.125623 0.462521 3.262000 73 42 35
-0.125623 0.468231 3.262000 74 43 36
-0.125623 0.473941 3.262000 71 42 38
-0.124429 0.475093 3.231000 68 42 40
-0.124429 0.480749 3.231000 72 41 42
-0.125623 0.491071 3.262000 76 40 40
-0.125623 0.496782 3.262000 72 40 39
-0.125623 0.502492 3.262000 69 41 42
-0.126817 0.513031 3.293000 66 36 45
-0.125623 0.513912 3.262000 64 34 41
-0.125623 0.519622 3.262000 64 38 38
-0.125623 0.525332 3.262000 64 39 35
-0.125623 0.531042 3.262000 64 40 32
-0.125623 0.536752 3.262000 65 41 31
-0.125623 0.542463 3.262000 64 38 30
-0.124429 0.542963 3.231000 64 39 30
-0.124429 0.548619 3.231000 64 38 31
-0.124429 0.554275 3.231000 63 37 39
-0.125623 0.565303 3.262000 66 36 47
-0.125623 0.571013 3.262000 70 39 36
-0.125623 0.576723 3.262000 64 33 26
-0.125623 0.582434 3.262000 59 29 26
-0.124429 0.582554 3.231000 58 28 26
-0.125623 0.593854 3.262000 57 32 25
-0.125623 0.599564 3.262000 55 27 24
-0.125623 0.605274 3.262000 52 23 25
-0.125623 0.610984 3.262000 49 24 26
-0.125623 0.616694 3.262000 45 27 27
-0.125623 0.622404 3.262000 47 26 28
-0.125623 0.628115 3.262000 49 27 21
-0.125623 0.633825 3.262000 51 26 15
-0.125623 0.639535 3.262000 54 25 19
-0.124429 0.639113 3.231000 53 26 24
-0.124429 0.644769 3.231000 52 30 25
-0.124429 0.650425 3.231000 51 28 26
-0.124429 0.656081 3.231000 50 27 26
-0.124429 0.661736 3.231000 50 24 26
-0.124429 0.667392 3.231000 50 25 21
-0.124429 0.673048 3.231000 48 21 16
-0.124429 0.678704 3.231000 47 19 20
-0.124429 0.684360 3.231000 49 21 25
-0.124429 0.690016 3.231000 51 21 26
-0.125623 0.702346 3.262000 48 18 28
-0.125623 0.708056 3.262000 45 18 23
-0.125623 0.713767 3.262000 46 21 18
-0.125623 0.719477 3.262000 48 23 20
-0.125623 0.725187 3.262000 45 21 22
-0.125623 0.730897 3.262000 43 21 17
-0.125623 0.736607 3.262000 39 16 13
-0.125623 0.742317 3.262000 36 14 11
-0.124429 0.740919 3.231000 30 11 10
-0.124429 0.746574 3.231000 24 11 9
-0.124429 0.752230 3.231000 18 7 9
-0.124429 0.757886 3.231000 12 7 7
-0.124429 0.763542 3.231000 16 9 6
-0.124429 0.769198 3.231000 21 8 6
-0.123274 0.767659 3.201000 23 8 6
-0.123274 0.773263 3.201000 26 9 7
-0.123274 0.778866 3.201000 24 10 9
-0.095084 0.726094 2.469000 134 112 120
-0.094391 0.725091 2.451000 133 101 119
-0.094391 0.729381 2.451000 133 95 121
-0.093736 0.728583 2.434000 133 103 124
-0.093081 0.727725 2.417000 133 108 126
-0.092426 0.726808 2.400000 135 107 128
-0.092426 0.731009 2.400000 138 108 130
-0.091156 0.725101 2.367000 139 109 132
-0.089346 0.714764 2.320000 140 112 133
-0.088729 0.713868 2.304000 144 112 135
-0.088729 0.717901 2.304000 147 113 136
-0.088152 0.717234 2.289000 150 114 138
-0.087574 0.716515 2.274000 152 117 140
-0.086996 0.715743 2.259000 152 120 142
-0.086419 0.714918 2.244000 152 124 144
-0.085880 0.714362 2.230000 153 122 146
-0.085302 0.713434 2.215000 154 122 145
-0.085302 0.717311 2.215000 156 121 144
-0.084763 0.716630 2.201000 158 121 143
-0.084224 0.715900 2.187000 163 125 143
-0.083723 0.715450 2.174000 169 128 150
-0.082683 0.710323 2.147000 163 127 157
-0.081643 0.705102 2.120000 158 127 159
-0.080681 0.700454 2.095000 163 129 162
-0.080180 0.699752 2.082000 168 131 163
-0.080180 0.703397 2.082000 169 133 165
-0.079679 0.702626 2.069000 171 135 167
-0.079217 0.702152 2.057000 171 136 170
-0.078755 0.701636 2.045000 172 139 170
-0.078755 0.705215 2.045000 174 139 170
-0.078293 0.704636 2.033000 176 142 166
-0.077831 0.704014 2.021000 174 139 163
-0.077831 0.707552 2.021000 172 136 166
-0.077369 0.706868 2.009000 172 135 169
-0.077369 0.710385 2.009000 172 135 166
-0.075636 0.697910 1.964000 171 134 164
-0.075174 0.697063 1.952000 170 135 164
-0.074750 0.696533 1.941000 171 136 164
-0.074365 0.696325 1.931000 171 138 165
-0.073941 0.695719 1.920000 169 139 167
-0.073518 0.695075 1.909000 168 142 171
-0.073132 0.694758 1.899000 172 141 176
-0.072709 0.694038 1.888000 177 140 176
-0.072709 0.697343 1.888000 178 140 177
-0.072324 0.696937 1.878000 179 140 179
-0.072324 0.700225 1.878000 183 143 181
-0.071939 0.699766 1.868000 186 146 180
-0.071939 0.703036 1.868000 184 146 180
-0.071553 0.702525 1.858000 182 143 180
-0.070783 0.698180 1.838000 183 144 180
-0.069666 0.690331 1.809000 184 146 179
-0.069320 0.690047 1.800000 184 147 178
-0.068588 0.685881 1.781000 184 150 184
-0.068242 0.685517 1.772000 182 151 190
-0.114509 -0.141773 3.115000 73 29 10
-0.113480 -0.135095 3.087000 87 26 3
-0.113480 -0.129691 3.087000 102 58 44
-0.114509 -0.125415 3.115000 114 90 85
-0.114509 -0.119962 3.115000 126 88 75
-0.113480 -0.113480 3.087000 69 78 64
-0.114509 -0.109056 3.115000 12 24 42
-0.114509 0.059981 3.115000 85 38 16
-0.114509 0.065434 3.115000 85 34 19
-0.114509 0.070887 3.115000 86 32 23
-0.114509 0.076339 3.115000 87 33 18
-0.114509 0.081792 3.115000 85 34 13
-0.113480 0.086461 3.087000 84 35 12
-0.113480 0.091865 3.087000 83 34 12
-0.113480 0.097268 3.087000 83 35 12
-0.114509 0.103603 3.115000 83 36 11
-0.114509 0.109056 3.115000 84 33 15
-0.114509 0.114509 3.115000 81 32 18
-0.114509 0.119962 3.115000 79 30 15
-0.114509 0.125415 3.115000 81 27 11
-0.114509 0.130867 3.115000 83 29 10
-0.114509 0.136320 3.115000 82 30 9
-0.114509 0.141773 3.115000 81 28 12
-0.114509 0.147226 3.115000 79 28 16
-0.114509 0.152679 3.115000 78 26 15
-0.114509 0.158132 3.115000 75 24 15
-0.114509 0.163584 3.115000 73 28 17
-0.114509 0.169037 3.115000 76 30 20
-0.113480 0.172922 3.087000 79 29 15
-0.113480 0.178325 3.087000 79 30 9
-0.113480 0.183729 3.087000 80 29 13
-0.113480 0.189133 3.087000 84 29 17
-0.113480 0.194537 3.087000 88 31 20
-0.113480 0.199940 3.087000 83 37 24
-0.113480 0.205344 3.087000 78 40 33
-0.113480 0.210748 3.087000 79 45 43
-0.114509 0.218112 3.115000 81 43 37
-0.115538 0.225575 3.143000 78 44 32
-0.116604 0.233209 3.172000 76 44 35
-0.119913 0.245536 3.262000 78 46 39
-0.121052 0.253634 3.293000 80 45 45
-0.121052 0.259398 3.293000 77 46 51
-0.121052 0.265162 3.293000 75 45 48
-0.121052 0.270927 3.293000 72 47 46
-0.119913 0.274086 3.262000 69 47 43
-0.121052 0.282456 3.293000 72 49 41
-0.121052 0.288220 3.293000 76 45 41
-0.121052 0.293984 3.293000 76 44 42
-0.121052 0.299749 3.293000 76 46 41
-0.121052 0.305513 3.293000 76 47 41
-0.121052 0.311277 3.293000 76 45 41
-0.122192 0.320027 3.324000 76 44 42
-0.121052 0.322806 3.293000 76 43 38
-0.121052 0.328571 3.293000 77 44 35
-0.121052 0.334335 3.293000 78 44 43
-0.121052 0.340099 3.293000 77 48 50
-0.121052 0.345864 3.293000 76 45 46
-0.121052 0.351628 3.293000 75 44 42
-0.119913 0.354028 3.262000 75 46 42
-0.119913 0.359738 3.262000 80 50 42
-0.119913 0.365449 3.262000 86 47 39
-0.119913 0.371159 3.262000 80 45 37
-0.119913 0.376869 3.262000 75 46 38
-0.119913 0.382579 3.262000 74 47 40
-0.119913 0.388289 3.262000 73 45 44
-0.119913 0.393999 3.262000 72 44 49
-0.119913 0.399709 3.262000 72 45 43
-0.119913 0.405419 3.262000 70 49 37
-0.119913 0.411130 3.262000 69 46 43
-0.121052 0.420801 3.293000 65 46 48
-0.121052 0.426565 3.293000 62 46 44
-0.121052 0.432330 3.293000 67 47 40
-0.121052 0.438094 3.293000 72 45 38
-0.121052 0.443859 3.293000 70 46 36
-0.121052 0.449623 3.293000 68 45 38
-0.121052 0.455387 3.293000 70 47 40
-0.119913 0.456811 3.262000 73 43 39
-0.118773 0.458125 3.231000 72 43 39
-0.118773 0.463781 3.231000 71 43 39
-0.118773 0.469437 3.231000 69 44 40
-0.118773 0.475093 3.231000 68 42 41
-0.118773 0.480749 3.231000 70 44 43
-0.119913 0.491071 3.262000 72 43 42
-0.119913 0.496782 3.262000 70 43 41
-0.119913 0.502492 3.262000 68 40 43
-0.119913 0.508202 3.262000 66 37 46
-0.119913 0.513912 3.262000 64 37 43
-0.119913 0.519622 3.262000 64 41 40
-0.118773 0.520340 3.231000 64 37 36
-0.118773 0.525996 3.231000 64 41 33
-0.118773 0.531652 3.231000 65 39 29
-0.118773 0.537307 3.231000 66 34 25
-0.118773 0.542963 3.231000 67 37 28
-0.118773 0.548619 3.231000 68 40 32
-0.118773 0.554275 3.231000 69 38 35
-0.118773 0.559931 3.231000 74 39 39
-0.118773 0.565587 3.231000 79 36 33
-0.119913 0.576723 3.262000 71 33 27
-0.118773 0.576898 3.231000 63 30 27
-0.118773 0.582554 3.231000 62 26 27
-0.118773 0.588210 3.231000 61 27 27
-0.119913 0.599564 3.262000 58 25 27
-0.118773 0.599522 3.231000 55 24 26
-0.118773 0.605178 3.231000 53 26 26
-0.118773 0.610834 3.231000 51 26 31
-0.118773 0.616490 3.231000 51 25 35
-0.118773 0.622145 3.231000 51 26 29
-0.118773 0.627801 3.231000 51 27 22
-0.118773 0.633457 3.231000 51 26 24
-0.118773 0.639113 3.231000 52 26 27
-0.118773 0.644769 3.231000 54 29 28
-0.118773 0.650425 3.231000 52 31 30
-0.118773 0.656081 3.231000 51 26 28
-0.118773 0.661736 3.231000 51 23 26
-0.118773 0.667392 3.231000 51 24 20
-0.118773 0.673048 3.231000 49 23 15
-0.118773 0.678704 3.231000 47 21 19
-0.118773 0.684360 3.231000 48 21 24
-0.118773 0.690016 3.231000 49 20 26
-0.118773 0.695672 3.231000 45 19 29
-0.118773 0.701328 3.231000 42 21 24
-0.118773 0.706983 3.231000 46 23 19
-0.118773 0.712639 3.231000 50 24 21
-0.118773 0.718295 3.231000 47 25 23
-0.118773 0.723951 3.231000 45 22 18
-0.118773 0.729607 3.231000 43 17 13
-0.119913 0.742317 3.262000 42 14 13
-0.118773 0.740919 3.231000 36 11 12
-0.117671 0.739642 3.201000 31 10 10
-0.117671 0.745246 3.201000 25 8 8
-0.117671 0.750849 3.201000 20 8 6
-0.117671 0.756453 3.201000 21 13 4
-0.117671 0.762056 3.201000 22 10 4
-0.117671 0.767659 3.201000 26 10 5
-0.116604 0.766257 3.172000 30 10 6
-0.116604 0.771810 3.172000 27 12 8
-0.089475 0.728583 2.434000 135 102 123
-0.088225 0.722606 2.400000 137 105 124
-0.088225 0.726808 2.400000 137 108 125
-0.087637 0.726136 2.384000 137 108 127
-0.087012 0.725101 2.367000 138 110 130
-0.085836 0.719386 2.335000 140 111 132
-0.085284 0.718825 2.320000 143 112 134
-0.084696 0.717901 2.304000 146 113 135
-0.084145 0.717234 2.289000 148 115 137
-0.083593 0.716515 2.274000 151 116 139
-0.083042 0.715743 2.259000 151 120 142
-0.082491 0.714918 2.244000 151 122 143
-0.081976 0.714362 2.230000 151 124 145
-0.081425 0.713434 2.215000 152 121 144
-0.080910 0.712777 2.201000 155 120 143
-0.080910 0.716630 2.201000 158 119 141
-0.080395 0.715900 2.187000 162 127 138
-0.079917 0.715450 2.174000 166 127 147
-0.078925 0.710323 2.147000 164 127 155
