ply
format ascii 1.0
element vertex 1243
property float x
property float y
property float z
property uchar red
property uchar green
property uchar blue
end_header
-0.662584 -0.563813 2.351000 75 44 19
-0.658074 -0.555889 2.335000 79 42 27
-0.662584 -0.555583 2.351000 79 41 36
-0.658074 -0.547714 2.335000 79 44 30
-0.658074 -0.543627 2.335000 77 45 24
-0.662584 -0.543236 2.351000 76 45 28
-0.662584 -0.539121 2.351000 77 46 33
-0.662584 -0.535005 2.351000 78 44 31
-0.662584 -0.530890 2.351000 77 45 30
-0.658074 -0.523189 2.335000 77 44 32
-0.662584 -0.522659 2.351000 78 43 35
-0.662584 -0.518544 2.351000 80 42 39
-0.658074 -0.510927 2.335000 81 41 43
-0.653847 -0.503584 2.320000 82 42 42
-0.658074 -0.502752 2.335000 81 43 41
-0.658074 -0.498665 2.335000 81 44 38
-0.658074 -0.494577 2.335000 79 46 35
-0.658074 -0.490490 2.335000 78 47 32
-0.658074 -0.486403 2.335000 80 49 30
-0.658074 -0.482315 2.335000 82 45 33
-0.662584 -0.481505 2.351000 82 43 36
-0.662584 -0.477389 2.351000 82 44 36
-0.662584 -0.473274 2.351000 80 45 36
-0.662584 -0.469159 2.351000 78 42 29
-0.662584 -0.465043 2.351000 80 38 22
-0.662584 -0.460928 2.351000 82 41 30
-0.667093 -0.459921 2.367000 82 44 38
-0.662584 -0.452697 2.351000 82 44 38
-0.662584 -0.448581 2.351000 83 44 38
-0.662584 -0.444466 2.351000 84 43 39
-0.662584 -0.440351 2.351000 86 42 41
-0.662584 -0.436235 2.351000 89 43 39
-0.667093 -0.435061 2.367000 85 44 37
-0.662584 -0.428004 2.351000 81 47 37
-0.662584 -0.423889 2.351000 81 49 37
-0.662584 -0.419773 2.351000 82 47 37
-0.662584 -0.415658 2.351000 81 46 37
-0.662584 -0.411543 2.351000 80 46 40
-0.662584 -0.407427 2.351000 81 45 44
-0.662584 -0.403312 2.351000 83 46 48
-0.662584 -0.399196 2.351000 78 46 52
-0.662584 -0.395081 2.351000 74 48 47
-0.662584 -0.390965 2.351000 77 50 43
-0.662584 -0.386850 2.351000 81 47 41
-0.662584 -0.382735 2.351000 80 46 40
-0.658074 -0.376042 2.335000 79 46 40
-0.658074 -0.371955 2.335000 81 48 40
-0.658074 -0.367868 2.335000 84 47 37
-0.658074 -0.363780 2.335000 82 45 35
-0.658074 -0.359693 2.335000 81 44 36
-0.658074 -0.355605 2.335000 82 46 37
-0.658074 -0.351518 2.335000 83 46 35
-0.662584 -0.349811 2.351000 81 48 33
-0.662584 -0.345696 2.351000 80 46 42
-0.662584 -0.341580 2.351000 80 45 52
-0.662584 -0.337465 2.351000 81 44 47
-0.662584 -0.333349 2.351000 80 45 42
-0.667093 -0.331475 2.367000 80 45 42
-0.662584 -0.325119 2.351000 77 45 43
-0.662584 -0.321003 2.351000 75 44 39
-0.662584 -0.316888 2.351000 76 45 35
-0.658074 -0.310644 2.335000 77 46 35
-0.653847 -0.304587 2.320000 77 48 35
-0.653847 -0.300526 2.320000 78 46 32
-0.653847 -0.296465 2.320000 79 46 29
-0.653847 -0.292404 2.320000 80 43 31
-0.653847 -0.288342 2.320000 80 43 32
-0.653847 -0.284281 2.320000 80 43 33
-0.653847 -0.280220 2.320000 80 44 34
-0.658074 -0.277944 2.335000 80 44 30
-0.658074 -0.273857 2.335000 78 46 26
-0.658074 -0.269770 2.335000 77 46 33
-0.658074 -0.265682 2.335000 77 45 40
-0.662584 -0.263387 2.351000 77 44 35
-0.658074 -0.257507 2.335000 79 42 29
-0.658074 -0.253420 2.335000 81 41 34
-0.658074 -0.249332 2.335000 80 41 39
-0.662584 -0.246926 2.351000 80 43 38
-0.658074 -0.241158 2.335000 78 47 38
-0.662584 -0.238695 2.351000 77 45 43
-0.662584 -0.234579 2.351000 77 41 49
-0.662584 -0.230464 2.351000 77 38 43
-0.662584 -0.226348 2.351000 78 40 38
-0.662584 -0.222233 2.351000 79 40 38
-0.662584 -0.218118 2.351000 79 41 38
-0.662584 -0.214002 2.351000 79 40 39
-0.662584 -0.209887 2.351000 81 41 41
-0.662584 -0.205771 2.351000 83 39 39
-0.658074 -0.200283 2.335000 80 39 37
-0.658074 -0.196196 2.335000 78 42 36
-0.658074 -0.192109 2.335000 76 44 36
-0.658074 -0.188021 2.335000 74 40 34
-0.653847 -0.182752 2.320000 74 41 31
-0.653847 -0.178691 2.320000 74 42 39
-0.653847 -0.174630 2.320000 73 43 47
-0.653847 -0.170569 2.320000 73 42 37
-0.653847 -0.166508 2.320000 74 42 28
-0.658074 -0.163497 2.335000 76 42 27
-0.658074 -0.159409 2.335000 77 41 27
-0.658074 -0.155322 2.335000 79 40 37
-0.658074 -0.151234 2.335000 77 38 47
-0.658074 -0.147147 2.335000 75 42 37
-0.658074 -0.143060 2.335000 73 45 28
-0.653847 -0.138079 2.320000 71 42 34
-0.653847 -0.134018 2.320000 72 41 40
-0.653847 -0.129957 2.320000 74 47 34
-0.653847 -0.125896 2.320000 78 30 28
-0.653847 -0.121835 2.320000 82 34 26
-0.653847 -0.117774 2.320000 78 36 23
-0.653847 -0.113712 2.320000 74 40 20
-0.653847 -0.109651 2.320000 75 44 17
-0.653847 -0.105590 2.320000 76 42 24
-0.653847 -0.101529 2.320000 75 40 30
-0.653847 -0.097468 2.320000 75 41 26
-0.653847 -0.093407 2.320000 74 43 21
-0.653847 -0.089346 2.320000 73 41 24
-0.653847 -0.085284 2.320000 75 38 28
-0.653847 -0.081223 2.320000 77 37 27
-0.653847 -0.077162 2.320000 80 38 27
-0.653847 -0.073101 2.320000 84 38 26
-0.653847 -0.069040 2.320000 80 42 25
-0.653847 -0.064979 2.320000 76 41 26
-0.653847 -0.060917 2.320000 77 38 27
-0.653847 -0.056856 2.320000 79 37 27
-0.653847 -0.052795 2.320000 76 37 26
-0.653847 -0.048734 2.320000 74 37 28
-0.653847 -0.044673 2.320000 70 34 29
-0.653847 -0.040612 2.320000 67 35 33
-0.653847 -0.036550 2.320000 69 37 36
-0.653847 -0.032489 2.320000 72 36 26
-0.653847 -0.028428 2.320000 71 38 16
-0.653847 -0.024367 2.320000 70 39 19
-0.658074 -0.020437 2.335000 70 40 22
-0.658074 -0.016350 2.335000 71 36 22
-0.653847 -0.012183 2.320000 69 34 22
-0.653847 -0.008122 2.320000 68 36 27
-0.653847 -0.004061 2.320000 69 36 32
-0.653847 -0.000000 2.320000 71 35 29
-0.653847 0.004061 2.320000 72 36 26
-0.653847 0.008122 2.320000 73 35 29
-0.653847 0.012184 2.320000 74 34 33
-0.653847 0.016245 2.320000 76 34 27
-0.653847 0.020306 2.320000 75 38 21
-0.653847 0.024367 2.320000 74 37 25
-0.653847 0.028428 2.320000 72 39 29
-0.658074 0.032699 2.335000 71 38 33
-0.658074 0.036787 2.335000 66 39 37
-0.658074 0.040874 2.335000 62 37 27
-0.658074 0.044962 2.335000 67 34 16
-0.658074 0.049049 2.335000 73 37 27
-0.653847 0.052795 2.320000 75 38 38
-0.653847 0.056856 2.320000 77 36 35
-0.653847 0.060917 2.320000 69 35 31
-0.653847 0.064979 2.320000 61 34 28
-0.653847 0.069040 2.320000 65 33 25
-0.653847 0.073101 2.320000 70 32 23
-0.653847 0.077162 2.320000 74 33 21
-0.653847 0.081223 2.320000 78 31 26
-0.653847 0.085284 2.320000 74 29 31
-0.653847 0.089346 2.320000 70 32 21
-0.653847 0.093407 2.320000 74 36 12
-0.653847 0.097468 2.320000 79 35 15
-0.653847 0.101529 2.320000 73 39 19
-0.653847 0.105590 2.320000 68 36 28
-0.653847 0.109651 2.320000 69 34 37
-0.653847 0.113713 2.320000 71 34 31
-0.653847 0.117774 2.320000 71 34 26
-0.653847 0.121835 2.320000 71 34 29
-0.653847 0.125896 2.320000 71 35 33
-0.653847 0.129957 2.320000 71 33 22
-0.653847 0.134018 2.320000 69 30 10
-0.653847 0.138080 2.320000 68 32 15
-0.653847 0.142141 2.320000 69 33 20
-0.653847 0.146202 2.320000 71 29 18
-0.658074 0.151234 2.335000 69 27 17
-0.658074 0.155322 2.335000 67 28 12
-0.653847 0.158385 2.320000 70 31 7
-0.653847 0.162447 2.320000 73 31 18
-0.653847 0.166508 2.320000 70 30 30
-0.653847 0.170569 2.320000 68 31 21
-0.653847 0.174630 2.320000 72 34 13
-0.653847 0.178691 2.320000 76 30 19
-0.658074 0.183934 2.335000 69 28 25
-0.658074 0.188021 2.335000 62 29 27
-0.658074 0.192109 2.335000 64 29 28
-0.658074 0.196196 2.335000 67 28 22
-0.658074 0.200284 2.335000 68 27 17
-0.658074 0.204371 2.335000 69 31 13
-0.658074 0.208458 2.335000 66 33 10
-0.658074 0.212546 2.335000 63 32 18
-0.658074 0.216633 2.335000 66 33 25
-0.658074 0.220721 2.335000 69 31 23
-0.658074 0.224808 2.335000 72 29 22
-0.658074 0.228895 2.335000 76 29 17
-0.658074 0.232983 2.335000 72 30 12
-0.658074 0.237070 2.335000 69 30 19
-0.658074 0.241158 2.335000 68 30 26
-0.653847 0.243670 2.320000 67 29 20
-0.653847 0.247731 2.320000 67 28 14
-0.653847 0.251792 2.320000 68 30 14
-0.653847 0.255853 2.320000 68 31 13
-0.653847 0.259914 2.320000 69 31 15
-0.653847 0.263975 2.320000 67 31 16
-0.653847 0.268037 2.320000 65 31 22
-0.653847 0.272098 2.320000 65 30 28
-0.653847 0.276159 2.320000 65 31 19
-0.653847 0.280220 2.320000 64 30 11
-0.653847 0.284281 2.320000 63 30 14
-0.653847 0.288342 2.320000 63 30 17
-0.653847 0.292404 2.320000 63 31 19
-0.653847 0.296465 2.320000 64 30 21
-0.653847 0.300526 2.320000 65 30 22
-0.653847 0.304587 2.320000 66 30 23
-0.653847 0.308648 2.320000 67 29 25
-0.653847 0.312709 2.320000 66 30 28
-0.658074 0.318819 2.335000 65 29 20
-0.658074 0.322906 2.335000 65 30 11
-0.653847 0.324893 2.320000 65 32 17
-0.653847 0.328954 2.320000 63 30 23
-0.653847 0.333015 2.320000 61 32 15
-0.658074 0.339256 2.335000 64 36 8
-0.653847 0.341137 2.320000 68 31 16
-0.653847 0.345199 2.320000 67 28 23
-0.653847 0.349260 2.320000 67 28 27
-0.653847 0.353321 2.320000 72 31 31
-0.653847 0.357382 2.320000 77 29 27
-0.653847 0.361443 2.320000 72 26 23
-0.653847 0.365505 2.320000 68 28 21
-0.653847 0.369566 2.320000 67 29 19
-0.653847 0.373627 2.320000 67 30 19
-0.653847 0.377688 2.320000 67 33 19
-0.653847 0.381749 2.320000 67 28 19
-0.653847 0.385810 2.320000 69 24 20
-0.653847 0.389872 2.320000 72 25 18
-0.653847 0.393933 2.320000 68 26 17
-0.653847 0.397994 2.320000 65 27 14
-0.653847 0.402055 2.320000 63 30 12
-0.653847 0.406116 2.320000 62 30 9
-0.653847 0.410177 2.320000 62 30 6
-0.653847 0.414238 2.320000 62 29 8
-0.653847 0.418300 2.320000 62 29 11
-0.653847 0.422361 2.320000 62 27 20
-0.653847 0.426422 2.320000 62 28 29
-0.653847 0.430483 2.320000 62 28 23
-0.653847 0.434544 2.320000 61 27 16
-0.653847 0.438605 2.320000 60 26 12
-0.653847 0.442667 2.320000 58 24 7
-0.653847 0.446728 2.320000 56 30 7
-0.653847 0.450789 2.320000 63 33 8
-0.658074 0.457791 2.335000 70 31 9
-0.658074 0.461878 2.335000 68 30 10
-0.658074 0.465966 2.335000 67 25 10
-0.653847 0.467034 2.320000 66 23 10
-0.653847 0.471095 2.320000 65 25 6
-0.653847 0.475156 2.320000 64 27 2
-0.653847 0.479217 2.320000 63 25 11
-0.653847 0.483278 2.320000 59 26 20
-0.653847 0.487339 2.320000 55 26 17
-0.653847 0.491400 2.320000 59 28 14
-0.653847 0.495462 2.320000 64 25 10
-0.653847 0.499523 2.320000 60 22 6
-0.653847 0.503584 2.320000 57 25 17
-0.653847 0.507645 2.320000 57 28 27
-0.653847 0.511706 2.320000 57 25 25
-0.653847 0.515767 2.320000 51 21 23
-0.653847 0.519829 2.320000 46 22 19
-0.653847 0.523890 2.320000 54 20 14
-0.653847 0.527951 2.320000 62 22 12
-0.653847 0.532012 2.320000 61 27 11
-0.653847 0.536073 2.320000 60 27 11
-0.653847 0.540134 2.320000 62 26 12
-0.653847 0.544196 2.320000 64 25 14
-0.653847 0.548257 2.320000 61 21 15
-0.653847 0.552318 2.320000 58 23 22
-0.653847 0.556379 2.320000 56 21 28
-0.653847 0.560440 2.320000 54 19 22
-0.653847 0.564501 2.320000 35 10 16
-0.653847 0.568563 2.320000 17 6 11
-0.653847 0.572624 2.320000 13 6 6
-0.653847 0.576685 2.320000 10 4 4
-0.658074 0.584501 2.335000 10 5 3
-0.658074 0.588588 2.335000 10 4 5
-0.662584 0.596737 2.351000 8 3 7
-0.667093 0.604941 2.367000 7 3 10
-0.667093 0.609085 2.367000 7 3 13
-0.662584 0.609083 2.351000 7 3 8
-0.658074 0.609025 2.335000 9 3 3
-0.653847 0.609174 2.320000 12 3 4
-0.653847 0.613235 2.320000 9 3 5
-0.653847 0.617297 2.320000 6 2 8
-0.649338 0.617072 2.304000 6 2 11
-0.649338 0.621106 2.304000 6 2 6
-0.649338 0.625139 2.304000 5 3 1
-0.653847 0.633541 2.320000 4 4 1
-0.653847 0.637602 2.320000 5 5 2
-0.653847 0.641663 2.320000 7 3 2
-0.653847 0.645725 2.320000 12 3 3
-0.658074 0.653987 2.335000 17 4 3
-0.658074 0.658074 2.335000 11 5 3
-0.658074 0.662162 2.335000 6 3 4
-0.653847 0.661969 2.320000 5 2 6
-0.653847 0.666030 2.320000 4 3 3
-0.653847 0.670092 2.320000 4 4 1
-0.649338 0.669503 2.304000 5 2 3
-0.624255 0.647519 2.215000 10 3 6
-0.624255 0.651396 2.215000 16 2 4
-0.624255 0.655274 2.215000 11 2 2
-0.620309 0.654985 2.201000 6 3 2
-0.620309 0.658838 2.201000 7 4 3
-0.620309 0.662690 2.201000 8 3 3
-0.620309 0.666543 2.201000 17 3 3
-0.550133 0.645809 1.952000 135 111 104
-0.550133 0.649226 1.952000 140 110 110
-0.550133 0.652643 1.952000 137 111 117
-0.547033 0.652362 1.941000 135 112 115
-0.544215 0.652382 1.931000 136 111 113
-0.541115 0.652026 1.920000 138 111 116
-0.538015 0.651632 1.909000 138 113 119
-0.538015 0.654974 1.909000 138 113 114
-0.535196 0.654867 1.899000 139 113 110
-0.532096 0.654379 1.888000 141 115 116
-0.529278 0.654201 1.878000 141 116 123
-0.526459 0.653987 1.868000 142 117 125
-0.526459 0.657257 1.868000 145 118 127
-0.520823 0.653455 1.848000 149 120 123
-0.515186 0.649583 1.828000 148 123 119
-0.515186 0.652783 1.828000 147 124 119
-0.509831 0.649164 1.809000 147 125 119
-0.507295 0.649086 1.800000 148 122 120
-0.504477 0.648613 1.790000 149 118 122
-0.501940 0.648469 1.781000 151 122 123
-0.499404 0.648294 1.772000 151 127 124
-0.496867 0.648088 1.763000 152 126 116
-0.496867 0.651174 1.763000 153 124 109
-0.494331 0.650920 1.754000 154 121 118
-0.491794 0.650635 1.745000 151 119 128
-0.487003 0.647321 1.728000 149 121 123
-0.487003 0.650346 1.728000 143 124 119
-0.484467 0.649968 1.719000 137 124 119
-0.479676 0.646519 1.702000 143 125 119
-0.477421 0.646446 1.694000 149 125 122
-0.475166 0.646344 1.686000 149 123 124
-0.472630 0.645830 1.677000 150 123 126
-0.468121 0.642576 1.661000 152 125 127
-0.465866 0.642374 1.653000 154 124 128
-0.658468 -0.913625 2.351000 77 33 24
-0.662949 -0.915699 2.367000 73 34 25
-0.658468 -0.905394 2.351000 69 37 29
-0.653987 -0.895145 2.335000 71 36 33
-0.662949 -0.903269 2.367000 73 38 25
-0.662949 -0.899125 2.367000 73 38 17
-0.662949 -0.894982 2.367000 73 39 18
-0.658468 -0.884817 2.351000 72 40 20
-0.658468 -0.880701 2.351000 72 41 12
-0.658468 -0.876586 2.351000 73 39 4
-0.658468 -0.872470 2.351000 75 37 16
-0.658468 -0.868355 2.351000 77 31 28
-0.653987 -0.858358 2.335000 78 30 29
-0.658468 -0.860124 2.351000 73 35 30
-0.658468 -0.856009 2.351000 68 38 30
-0.658468 -0.851893 2.351000 70 36 30
-0.658468 -0.847778 2.351000 73 34 27
-0.658468 -0.843662 2.351000 73 35 25
-0.658468 -0.839547 2.351000 74 34 25
-0.658468 -0.835431 2.351000 73 36 26
-0.658468 -0.831316 2.351000 72 39 26
-0.658468 -0.827201 2.351000 72 37 26
-0.658468 -0.823085 2.351000 73 38 36
-0.658468 -0.818970 2.351000 73 38 46
-0.658468 -0.814854 2.351000 73 37 39
-0.658468 -0.810739 2.351000 73 36 32
-0.658468 -0.806624 2.351000 72 38 30
-0.653987 -0.797046 2.335000 72 38 28
-0.653987 -0.792959 2.335000 72 39 41
-0.653987 -0.788872 2.335000 71 40 55
-0.653987 -0.784784 2.335000 70 40 41
-0.653987 -0.780697 2.335000 73 40 28
-0.653987 -0.776609 2.335000 77 42 26
-0.653987 -0.772522 2.335000 76 42 24
-0.658468 -0.773700 2.351000 76 42 28
-0.658468 -0.769585 2.351000 72 38 32
-0.658468 -0.765469 2.351000 69 36 33
-0.662949 -0.766535 2.367000 72 39 34
-0.662949 -0.762392 2.367000 76 42 34
-0.662949 -0.758248 2.367000 75 44 34
-0.662949 -0.754105 2.367000 74 46 39
-0.662949 -0.749961 2.367000 73 42 44
-0.662949 -0.745818 2.367000 73 39 27
-0.662949 -0.741675 2.367000 71 41 11
-0.662949 -0.737531 2.367000 69 41 30
-0.662949 -0.733388 2.367000 74 38 49
-0.658468 -0.724315 2.351000 80 35 38
-0.662949 -0.725101 2.367000 78 37 28
-0.658468 -0.716084 2.351000 77 42 24
-0.662949 -0.716814 2.367000 77 39 21
-0.662949 -0.712671 2.367000 78 40 14
-0.662949 -0.708527 2.367000 78 39 7
-0.658468 -0.699622 2.351000 78 40 16
-0.658468 -0.695507 2.351000 78 41 25
-0.658468 -0.691392 2.351000 78 43 28
-0.658468 -0.687276 2.351000 79 41 31
-0.658468 -0.683161 2.351000 80 41 30
-0.658468 -0.679045 2.351000 79 39 29
-0.662949 -0.679523 2.367000 79 39 30
-0.662949 -0.675380 2.367000 78 36 31
-0.662949 -0.671236 2.367000 76 36 24
-0.662949 -0.667093 2.367000 77 39 17
-0.662949 -0.662949 2.367000 78 40 24
-0.662949 -0.658806 2.367000 78 41 31
-0.662949 -0.654662 2.367000 79 42 19
-0.662949 -0.650519 2.367000 79 42 8
-0.662949 -0.646376 2.367000 79 42 20
-0.662949 -0.642232 2.367000 79 41 32
-0.662949 -0.638089 2.367000 80 42 33
-0.662949 -0.633945 2.367000 79 41 34
-0.662949 -0.629802 2.367000 79 41 35
-0.662949 -0.625658 2.367000 77 43 37
-0.662949 -0.621515 2.367000 76 45 39
-0.662949 -0.617372 2.367000 77 43 41
-0.658468 -0.609083 2.351000 79 44 46
-0.658468 -0.604968 2.351000 79 42 51
-0.662949 -0.604941 2.367000 79 41 46
-0.662949 -0.600798 2.367000 76 42 41
-0.662949 -0.596654 2.367000 73 43 31
-0.662949 -0.592511 2.367000 75 42 21
-0.658468 -0.584390 2.351000 77 43 30
-0.658468 -0.580275 2.351000 77 43 39
-0.662949 -0.580081 2.367000 77 47 45
-0.662949 -0.575937 2.367000 76 43 51
-0.662949 -0.571794 2.367000 75 42 31
-0.658468 -0.563813 2.351000 77 43 12
-0.658468 -0.559698 2.351000 79 43 25
-0.658468 -0.555583 2.351000 80 44 39
-0.658468 -0.551467 2.351000 82 47 30
-0.658468 -0.547352 2.351000 79 45 21
-0.658468 -0.543236 2.351000 77 47 24
-0.658468 -0.539121 2.351000 77 46 28
-0.658468 -0.535005 2.351000 78 46 28
-0.658468 -0.530890 2.351000 77 45 28
-0.658468 -0.526775 2.351000 76 45 32
-0.658468 -0.522659 2.351000 78 45 37
-0.658468 -0.518544 2.351000 80 45 49
-0.658468 -0.514428 2.351000 81 43 61
-0.653987 -0.506840 2.335000 82 44 52
-0.653987 -0.502752 2.335000 82 45 44
-0.653987 -0.498665 2.335000 82 47 38
-0.658468 -0.497966 2.351000 80 47 32
-0.658468 -0.493851 2.351000 78 50 29
-0.653987 -0.486403 2.335000 79 49 27
-0.658468 -0.485620 2.351000 80 46 32
-0.662949 -0.484782 2.367000 80 45 37
-0.662949 -0.480638 2.367000 81 46 40
-0.658468 -0.473274 2.351000 77 44 43
-0.658468 -0.469159 2.351000 73 44 41
-0.658468 -0.465043 2.351000 77 42 39
-0.658468 -0.460928 2.351000 81 43 38
-0.658468 -0.456812 2.351000 81 44 38
-0.658468 -0.452697 2.351000 81 45 37
-0.658468 -0.448581 2.351000 81 43 37
-0.658468 -0.444466 2.351000 82 42 31
-0.658468 -0.440351 2.351000 83 42 26
-0.658468 -0.436235 2.351000 84 44 30
-0.662949 -0.435061 2.367000 81 46 34
-0.662949 -0.430917 2.367000 78 49 34
-0.658468 -0.423889 2.351000 81 48 34
-0.658468 -0.419773 2.351000 85 46 33
-0.658468 -0.415658 2.351000 82 45 33
-0.658468 -0.411543 2.351000 79 46 36
-0.658468 -0.407427 2.351000 80 46 39
-0.658468 -0.403312 2.351000 81 47 42
-0.658468 -0.399196 2.351000 79 48 45
-0.658468 -0.395081 2.351000 77 50 42
-0.658468 -0.390965 2.351000 79 49 40
-0.662949 -0.389483 2.367000 81 49 41
-0.658468 -0.382735 2.351000 79 46 43
-0.658468 -0.378619 2.351000 78 46 53
-0.658468 -0.374504 2.351000 80 47 63
-0.658468 -0.370388 2.351000 82 48 52
-0.658468 -0.366273 2.351000 81 46 42
-0.658468 -0.362157 2.351000 81 44 35
-0.653987 -0.355605 2.335000 81 45 28
-0.658468 -0.353927 2.351000 82 47 26
-0.662949 -0.352192 2.367000 82 46 24
-0.662949 -0.348048 2.367000 82 45 31
-0.662949 -0.343905 2.367000 82 44 39
-0.662949 -0.339762 2.367000 82 42 39
-0.662949 -0.335618 2.367000 81 45 39
-0.662949 -0.331475 2.367000 80 47 40
-0.662949 -0.327331 2.367000 80 45 41
-0.658468 -0.321003 2.351000 80 45 42
-0.658468 -0.316888 2.351000 79 46 43
-0.653987 -0.310644 2.335000 78 45 38
-0.653987 -0.306556 2.335000 80 47 33
-0.649786 -0.300526 2.320000 81 47 29
-0.649786 -0.296465 2.320000 81 45 25
-0.649786 -0.292404 2.320000 81 43 33
-0.653987 -0.290207 2.335000 80 43 41
-0.653987 -0.286119 2.335000 80 45 35
-0.653987 -0.282032 2.335000 81 44 29
-0.658468 -0.279849 2.351000 82 45 29
-0.658468 -0.275734 2.351000 79 45 29
-0.662949 -0.273467 2.367000 77 47 38
-0.662949 -0.269323 2.367000 77 45 47
-0.658468 -0.263387 2.351000 78 44 37
-0.658468 -0.259272 2.351000 80 42 28
-0.658468 -0.255156 2.351000 82 41 36
-0.658468 -0.251041 2.351000 81 42 44
-0.658468 -0.246926 2.351000 80 42 40
-0.658468 -0.242810 2.351000 78 45 37
-0.658468 -0.238695 2.351000 77 47 46
-0.658468 -0.234579 2.351000 78 44 56
-0.658468 -0.230464 2.351000 79 41 48
-0.662949 -0.227889 2.367000 78 42 41
-0.662949 -0.223745 2.367000 78 43 39
-0.662949 -0.219602 2.367000 78 41 38
-0.658468 -0.214002 2.351000 79 39 38
-0.658468 -0.209887 2.351000 80 39 39
-0.658468 -0.205771 2.351000 81 39 30
-0.658468 -0.201656 2.351000 77 40 21
-0.653987 -0.196196 2.335000 73 45 27
-0.653987 -0.192109 2.335000 73 42 33
-0.653987 -0.188021 2.335000 74 35 34
-0.653987 -0.183934 2.335000 73 41 35
-0.653987 -0.179846 2.335000 73 45 33
-0.653987 -0.175759 2.335000 72 43 31
-0.649786 -0.170569 2.320000 70 41 28
-0.653987 -0.167584 2.335000 72 44 26
-0.653987 -0.163497 2.335000 75 45 29
-0.653987 -0.159409 2.335000 75 42 32
-0.658468 -0.156386 2.351000 75 40 43
-0.658468 -0.152271 2.351000 74 41 54
-0.653987 -0.147147 2.335000 74 46 35
-0.658468 -0.144040 2.351000 72 46 17
-0.653987 -0.138972 2.335000 71 46 22
-0.653987 -0.134885 2.335000 73 51 28
-0.649786 -0.129957 2.320000 75 76 25
-0.649786 -0.125896 2.320000 77 46 22
-0.649786 -0.121835 2.320000 79 34 21
-0.649786 -0.117774 2.320000 76 37 21
-0.649786 -0.113712 2.320000 74 41 23
-0.653987 -0.110360 2.335000 76 42 25
-0.653987 -0.106273 2.335000 78 42 31
-0.653987 -0.102185 2.335000 76 41 37
-0.649786 -0.097468 2.320000 74 40 29
-0.649786 -0.093407 2.320000 73 42 22
-0.649786 -0.089346 2.320000 72 44 18
-0.653987 -0.085836 2.335000 74 39 15
-0.653987 -0.081748 2.335000 76 36 20
-0.653987 -0.077661 2.335000 77 37 26
-0.653987 -0.073573 2.335000 79 35 23
-0.653987 -0.069486 2.335000 75 39 20
-0.653987 -0.065399 2.335000 71 43 20
-0.653987 -0.061311 2.335000 74 39 21
-0.649786 -0.056856 2.320000 76 38 23
-0.649786 -0.052795 2.320000 74 38 26
-0.649786 -0.048734 2.320000 72 39 25
-0.649786 -0.044673 2.320000 72 36 24
-0.653987 -0.040874 2.335000 71 37 27
-0.653987 -0.036787 2.335000 73 34 30
-0.649786 -0.032489 2.320000 75 34 28
-0.649786 -0.028428 2.320000 73 37 26
-0.653987 -0.024524 2.335000 71 39 26
-0.653987 -0.020437 2.335000 70 38 26
-0.653987 -0.016350 2.335000 69 39 25
-0.649786 -0.012183 2.320000 69 38 25
-0.653987 -0.008175 2.335000 69 41 31
-0.653987 -0.004087 2.335000 69 37 37
-0.653987 -0.000000 2.335000 70 34 30
-0.653987 0.004087 2.335000 70 36 24
-0.653987 0.008175 2.335000 70 37 26
-0.649786 0.012184 2.320000 73 34 28
-0.649786 0.016245 2.320000 76 34 26
-0.653987 0.020437 2.335000 75 34 24
-0.649786 0.024367 2.320000 75 35 25
-0.649786 0.028428 2.320000 73 39 27
-0.653987 0.032699 2.335000 70 41 29
-0.653987 0.036787 2.335000 67 39 31
-0.653987 0.040874 2.335000 65 39 17
-0.653987 0.044962 2.335000 68 37 3
-0.653987 0.049049 2.335000 72 38 17
-0.653987 0.053136 2.335000 73 38 32
-0.653987 0.057224 2.335000 74 37 32
-0.649786 0.060917 2.320000 69 35 33
-0.649786 0.064979 2.320000 64 35 27
-0.649786 0.069040 2.320000 65 33 21
-0.649786 0.073101 2.320000 67 32 18
-0.649786 0.077162 2.320000 69 33 16
-0.653987 0.081748 2.335000 72 33 18
-0.649786 0.085284 2.320000 70 32 20
-0.649786 0.089346 2.320000 69 34 12
-0.649786 0.093407 2.320000 72 36 5
-0.649786 0.097468 2.320000 75 37 12
-0.649786 0.101529 2.320000 72 37 20
-0.649786 0.105590 2.320000 69 35 32
-0.649786 0.109651 2.320000 70 33 44
-0.649786 0.113713 2.320000 71 32 37
-0.649786 0.117774 2.320000 71 33 30
-0.649786 0.121835 2.320000 71 34 37
-0.649786 0.125896 2.320000 70 33 45
-0.649786 0.129957 2.320000 69 36 24
-0.649786 0.134018 2.320000 69 33 3
-0.649786 0.138080 2.320000 69 34 8
-0.649786 0.142141 2.320000 72 32 14
-0.653987 0.147147 2.335000 75 29 12
-0.653987 0.151234 2.335000 72 27 11
-0.653987 0.155322 2.335000 69 28 7
-0.649786 0.158385 2.320000 70 30 3
-0.649786 0.162447 2.320000 71 33 20
-0.649786 0.166508 2.320000 69 32 38
-0.649786 0.170569 2.320000 68 33 20
-0.649786 0.174630 2.320000 70 32 3
-0.649786 0.178691 2.320000 73 31 14
-0.649786 0.182752 2.320000 68 31 25
-0.653987 0.188021 2.335000 63 30 29
-0.653987 0.192109 2.335000 65 30 34
-0.653987 0.196196 2.335000 67 33 26
-0.653987 0.200284 2.335000 69 30 19
-0.653987 0.204371 2.335000 71 32 19
-0.658468 0.209887 2.351000 68 33 20
-0.653987 0.212546 2.335000 65 33 27
-0.653987 0.216633 2.335000 67 32 34
-0.653987 0.220721 2.335000 69 31 27
-0.653987 0.224808 2.335000 71 30 21
-0.653987 0.228895 2.335000 74 29 13
-0.653987 0.232983 2.335000 71 29 5
-0.653987 0.237070 2.335000 69 29 9
-0.649786 0.239609 2.320000 67 29 14
-0.649786 0.243670 2.320000 66 30 9
-0.649786 0.247731 2.320000 66 31 4
-0.649786 0.251792 2.320000 66 35 6
-0.649786 0.255853 2.320000 66 34 8
-0.649786 0.259914 2.320000 67 34 11
-0.649786 0.263975 2.320000 66 34 14
-0.649786 0.268037 2.320000 65 34 16
-0.653987 0.273857 2.335000 66 33 19
-0.653987 0.277945 2.335000 68 34 16
-0.653987 0.282032 2.335000 65 32 13
-0.649786 0.284281 2.320000 62 31 12
-0.649786 0.288342 2.320000 63 32 11
-0.649786 0.292404 2.320000 64 33 17
-0.649786 0.296465 2.320000 65 30 23
-0.649786 0.300526 2.320000 67 28 19
-0.649786 0.304587 2.320000 67 28 15
-0.649786 0.308648 2.320000 67 30 15
-0.649786 0.312709 2.320000 66 28 15
-0.653987 0.318819 2.335000 66 26 12
-0.653987 0.322906 2.335000 66 30 10
-0.653987 0.326993 2.335000 66 34 18
-0.649786 0.328954 2.320000 65 31 27
-0.649786 0.333015 2.320000 64 34 14
-0.649786 0.337076 2.320000 64 32 2
-0.649786 0.341137 2.320000 65 30 10
-0.649786 0.345199 2.320000 65 29 18
-0.649786 0.349260 2.320000 64 28 18
-0.649786 0.353321 2.320000 65 31 18
-0.649786 0.357382 2.320000 66 34 17
-0.649786 0.361443 2.320000 65 30 17
-0.649786 0.365505 2.320000 65 28 16
-0.649786 0.369566 2.320000 66 30 16
-0.649786 0.373627 2.320000 66 30 13
-0.649786 0.377688 2.320000 65 30 10
-0.649786 0.381749 2.320000 65 29 12
-0.649786 0.385810 2.320000 64 27 15
-0.649786 0.389872 2.320000 63 26 14
-0.649786 0.393933 2.320000 63 26 13
-0.649786 0.397994 2.320000 63 30 11
-0.649786 0.402055 2.320000 62 30 10
-0.649786 0.406116 2.320000 62 30 6
-0.649786 0.410177 2.320000 62 29 3
-0.649786 0.414238 2.320000 63 30 8
-0.649786 0.418300 2.320000 62 28 14
-0.649786 0.422361 2.320000 62 28 27
-0.649786 0.426422 2.320000 60 29 40
-0.649786 0.430483 2.320000 58 31 27
-0.649786 0.434544 2.320000 59 30 15
-0.649786 0.438605 2.320000 61 32 9
-0.649786 0.442667 2.320000 60 30 3
-0.653987 0.449616 2.335000 59 34 4
-0.653987 0.453703 2.335000 62 33 5
-0.653987 0.457791 2.335000 66 31 7
-0.653987 0.461878 2.335000 65 29 10
-0.653987 0.465966 2.335000 64 27 9
-0.653987 0.470053 2.335000 64 26 9
-0.653987 0.474141 2.335000 65 29 6
-0.653987 0.478228 2.335000 64 26 3
-0.653987 0.482315 2.335000 63 25 5
-0.649786 0.483278 2.320000 63 25 7
-0.649786 0.487339 2.320000 63 29 8
-0.649786 0.491400 2.320000 63 27 9
-0.649786 0.495462 2.320000 64 26 6
-0.649786 0.499523 2.320000 60 27 3
-0.649786 0.503584 2.320000 57 29 18
-0.649786 0.507645 2.320000 56 30 33
-0.649786 0.511706 2.320000 56 31 26
-0.649786 0.515767 2.320000 53 26 20
-0.649786 0.519829 2.320000 51 24 17
-0.649786 0.523890 2.320000 59 21 15
-0.649786 0.527951 2.320000 67 19 14
-0.649786 0.532012 2.320000 61 25 14
-0.649786 0.536073 2.320000 55 29 10
-0.649786 0.540134 2.320000 59 28 7
-0.649786 0.544196 2.320000 62 29 10
-0.649786 0.548257 2.320000 59 26 14
-0.649786 0.552318 2.320000 57 26 29
-0.649786 0.556379 2.320000 54 22 45
-0.649786 0.560440 2.320000 51 22 34
-0.649786 0.564501 2.320000 33 10 23
-0.649786 0.568563 2.320000 15 4 15
-0.649786 0.572624 2.320000 12 4 8
-0.649786 0.576685 2.320000 9 4 4
-0.653987 0.584501 2.335000 10 5 1
-0.653987 0.588588 2.335000 10 7 3
-0.658468 0.596737 2.351000 7 4 5
-0.662949 0.604941 2.367000 5 4 5
-0.662949 0.609085 2.367000 5 4 5
-0.658468 0.609083 2.351000 6 5 3
-0.658468 0.613199 2.351000 8 4 2
-0.653987 0.613113 2.335000 10 4 2
-0.649786 0.613235 2.320000 8 3 2
-0.649786 0.617297 2.320000 6 2 2
-0.645304 0.617072 2.304000 5 3 3
-0.645304 0.621106 2.304000 4 3 2
-0.645304 0.625139 2.304000 4 3 1
-0.649786 0.633541 2.320000 4 5 1
-0.649786 0.637602 2.320000 5 4 1
-0.649786 0.641663 2.320000 7 3 1
-0.653987 0.649900 2.335000 10 3 2
-0.653987 0.653987 2.335000 13 5 2
-0.653987 0.658074 2.335000 8 4 2
-0.653987 0.662162 2.335000 4 3 2
-0.649786 0.661969 2.320000 4 3 3
-0.649786 0.666030 2.320000 4 4 2
-0.645304 0.665470 2.304000 5 3 1
-0.645304 0.669503 2.304000 6 2 2
-0.620377 0.647519 2.215000 9 2 4
-0.620377 0.651396 2.215000 12 3 3
-0.620377 0.655274 2.215000 9 3 2
-0.616456 0.654985 2.201000 7 4 2
-0.616456 0.658838 2.201000 8 4 2
-0.616456 0.662690 2.201000 9 5 2
-0.616456 0.666543 2.201000 14 3 3
-0.550077 0.649779 1.964000 134 109 96
-0.546716 0.649226 1.952000 136 107 103
-0.546716 0.652643 1.952000 135 110 111
-0.543635 0.652362 1.941000 133 113 111
-0.540835 0.652382 1.931000 135 112 111
-0.537754 0.652026 1.920000 137 112 112
-0.534673 0.651632 1.909000 137 114 114
-0.531872 0.651543 1.899000 138 117 113
-0.531872 0.654867 1.899000 140 115 112
-0.528791 0.654379 1.888000 143 115 117
-0.523189 0.650717 1.868000 142 116 123
-0.523189 0.653987 1.868000 142 118 122
-0.523189 0.657257 1.868000 144 119 122
-0.517588 0.653455 1.848000 147 122 119
-0.514787 0.653136 1.838000 147 123 117
-0.511986 0.652783 1.828000 147 125 117
-0.506665 0.649164 1.809000 148 124 118
-0.504144 0.649086 1.800000 149 123 121
-0.501343 0.648613 1.790000 152 121 124
-0.498823 0.648469 1.781000 154 122 120
-0.498823 0.651587 1.781000 153 124 117
-0.496302 0.651396 1.772000 151 125 105
-0.493781 0.651174 1.763000 151 123 93
-0.488740 0.647580 1.745000 151 122 106
-0.486219 0.647279 1.736000 150 121 119
-0.483978 0.647321 1.728000 148 123 121
-0.481458 0.646959 1.719000 145 124 123
-0.481458 0.649968 1.719000 142 127 120
-0.476696 0.646519 1.702000 147 129 118
-0.472215 0.643393 1.686000 152 129 121
-0.469694 0.642894 1.677000 152 124 125
-0.467454 0.642749 1.669000 152 122 125
-0.465213 0.642576 1.661000 156 124 126
-0.462972 0.642374 1.653000 160 125 122
-0.654353 -0.913625 2.351000 81 32 21
-0.654353 -0.909509 2.351000 77 34 25
-0.654353 -0.905394 2.351000 73 36 33
-0.649899 -0.895145 2.335000 73 37 42
-0.658806 -0.903269 2.367000 73 36 30
-0.658806 -0.899125 2.367000 75 38 18
-0.658806 -0.894982 2.367000 77 37 23
-0.654353 -0.884817 2.351000 75 39 27
-0.654353 -0.880701 2.351000 74 39 19
-0.658806 -0.882551 2.367000 75 40 12
-0.658806 -0.878408 2.367000 77 36 18
-0.658806 -0.874265 2.367000 80 31 25
-0.658806 -0.870121 2.367000 83 33 25
-0.658806 -0.865978 2.367000 78 37 26
-0.658806 -0.861834 2.367000 73 36 25
-0.658806 -0.857691 2.367000 73 36 25
-0.658806 -0.853547 2.367000 74 34 24
-0.658806 -0.849404 2.367000 75 36 23
-0.658806 -0.845261 2.367000 76 35 22
-0.658806 -0.841117 2.367000 78 37 22
-0.658806 -0.836974 2.367000 80 36 22
-0.658806 -0.832830 2.367000 76 34 21
-0.658806 -0.828687 2.367000 73 36 28
-0.658806 -0.824543 2.367000 73 39 36
-0.654353 -0.814854 2.351000 74 38 31
-0.654353 -0.810739 2.351000 73 38 26
-0.654353 -0.806624 2.351000 73 37 26
-0.649899 -0.797046 2.335000 72 40 26
-0.649899 -0.792959 2.335000 71 40 32
-0.649899 -0.788872 2.335000 69 42 38
-0.649899 -0.784784 2.335000 67 41 32
-0.654353 -0.786046 2.351000 73 42 26
-0.654353 -0.781931 2.351000 79 40 24
-0.654353 -0.777816 2.351000 77 40 22
-0.654353 -0.773700 2.351000 76 40 23
-0.654353 -0.769585 2.351000 71 39 24
-0.658806 -0.770679 2.367000 67 37 27
-0.658806 -0.766535 2.367000 71 41 30
-0.658806 -0.762392 2.367000 75 42 30
-0.658806 -0.758248 2.367000 74 46 30
-0.658806 -0.754105 2.367000 74 44 33
-0.658806 -0.749961 2.367000 73 43 37
-0.658806 -0.745818 2.367000 72 42 27
-0.658806 -0.741675 2.367000 71 45 17
-0.658806 -0.737531 2.367000 71 40 29
-0.658806 -0.733388 2.367000 74 37 41
-0.658806 -0.729244 2.367000 77 36 32
-0.658806 -0.725101 2.367000 77 37 24
-0.658806 -0.720958 2.367000 77 38 24
-0.658806 -0.716814 2.367000 78 35 23
-0.658806 -0.712671 2.367000 80 38 25
-0.658806 -0.708527 2.367000 78 42 26
-0.658806 -0.704384 2.367000 77 41 24
-0.654353 -0.695507 2.351000 78 42 23
-0.654353 -0.691392 2.351000 79 41 23
-0.654353 -0.687276 2.351000 80 42 24
-0.654353 -0.683161 2.351000 81 39 26
-0.654353 -0.679045 2.351000 80 36 28
-0.658806 -0.679523 2.367000 80 37 29
-0.658806 -0.675380 2.367000 78 38 30
-0.658806 -0.671236 2.367000 77 40 26
-0.658806 -0.667093 2.367000 78 44 21
-0.658806 -0.662949 2.367000 79 43 28
-0.658806 -0.658806 2.367000 79 44 35
-0.658806 -0.654662 2.367000 79 43 28
-0.658806 -0.650519 2.367000 79 45 21
-0.654353 -0.642006 2.351000 79 43 26
-0.658806 -0.642232 2.367000 81 40 31
-0.658806 -0.638089 2.367000 83 41 32
-0.658806 -0.633945 2.367000 81 42 33
-0.658806 -0.629802 2.367000 79 43 34
-0.658806 -0.625658 2.367000 78 44 35
-0.658806 -0.621515 2.367000 78 44 34
-0.658806 -0.617372 2.367000 79 42 34
-0.658806 -0.613228 2.367000 80 43 38
-0.658806 -0.609085 2.367000 81 44 42
-0.658806 -0.604941 2.367000 82 43 38
-0.658806 -0.600798 2.367000 80 43 34
-0.658806 -0.596654 2.367000 79 42 29
-0.658806 -0.592511 2.367000 78 43 25
-0.658806 -0.588368 2.367000 77 43 32
-0.658806 -0.584224 2.367000 77 42 38
-0.658806 -0.580081 2.367000 78 42 42
-0.658806 -0.575937 2.367000 78 43 45
-0.658806 -0.571794 2.367000 79 43 32
-0.654353 -0.563813 2.351000 79 44 19
-0.654353 -0.559698 2.351000 80 43 26
-0.654353 -0.555583 2.351000 82 45 34
-0.654353 -0.551467 2.351000 85 45 24
-0.654353 -0.547352 2.351000 81 44 15
-0.654353 -0.543236 2.351000 78 45 21
-0.654353 -0.539121 2.351000 78 45 26
-0.654353 -0.535005 2.351000 78 45 24
-0.654353 -0.530890 2.351000 77 46 21
-0.649899 -0.523189 2.335000 76 46 25
-0.654353 -0.522659 2.351000 78 47 29
-0.654353 -0.518544 2.351000 81 45 36
-0.654353 -0.514428 2.351000 81 44 43
-0.649899 -0.506840 2.335000 82 45 41
-0.649899 -0.502752 2.335000 82 47 39
-0.654353 -0.502082 2.351000 83 45 35
-0.654353 -0.497966 2.351000 80 47 32
-0.654353 -0.493851 2.351000 78 49 27
-0.654353 -0.489736 2.351000 78 53 22
-0.658806 -0.488925 2.367000 78 47 30
-0.658806 -0.484782 2.367000 79 45 38
-0.658806 -0.480638 2.367000 80 45 39
-0.658806 -0.476495 2.367000 74 44 41
-0.658806 -0.472351 2.367000 68 45 40
-0.654353 -0.465043 2.351000 74 46 39
-0.654353 -0.460928 2.351000 80 45 38
-0.654353 -0.456812 2.351000 80 45 38
-0.654353 -0.452697 2.351000 81 44 38
-0.654353 -0.448581 2.351000 80 44 38
-0.654353 -0.444466 2.351000 80 43 35
-0.654353 -0.440351 2.351000 80 42 32
-0.654353 -0.436235 2.351000 80 45 34
-0.658806 -0.435061 2.367000 78 49 36
-0.658806 -0.430917 2.367000 76 48 30
-0.658806 -0.426774 2.367000 82 50 25
-0.658806 -0.422630 2.367000 88 47 27
-0.654353 -0.415658 2.351000 83 45 29
-0.654353 -0.411543 2.351000 78 47 32
-0.654353 -0.407427 2.351000 79 48 36
-0.654353 -0.403312 2.351000 80 48 39
-0.654353 -0.399196 2.351000 80 49 42
-0.654353 -0.395081 2.351000 80 49 42
-0.654353 -0.390965 2.351000 80 50 42
-0.658806 -0.389483 2.367000 81 48 42
-0.658806 -0.385339 2.367000 79 46 42
-0.654353 -0.378619 2.351000 78 46 48
-0.654353 -0.374504 2.351000 79 48 54
-0.658806 -0.372909 2.367000 81 47 45
-0.658806 -0.368766 2.367000 81 47 37
-0.658806 -0.364622 2.367000 81 46 32
-0.654353 -0.358042 2.351000 81 46 27
-0.658806 -0.356335 2.367000 82 46 26
-0.658806 -0.352192 2.367000 83 45 26
-0.658806 -0.348048 2.367000 84 44 32
-0.658806 -0.343905 2.367000 83 45 38
-0.658806 -0.339762 2.367000 83 44 37
-0.658806 -0.335618 2.367000 82 47 36
-0.658806 -0.331475 2.367000 81 46 38
-0.658806 -0.327331 2.367000 83 45 41
-0.654353 -0.321003 2.351000 85 45 44
-0.654353 -0.316888 2.351000 82 49 47
-0.654353 -0.312772 2.351000 80 48 40
-0.654353 -0.308657 2.351000 82 50 33
-0.649899 -0.302469 2.335000 85 47 25
-0.645725 -0.296465 2.320000 83 47 17
-0.649899 -0.294294 2.335000 82 44 32
-0.649899 -0.290207 2.335000 81 42 47
-0.649899 -0.286119 2.335000 80 43 41
-0.654353 -0.283964 2.351000 82 44 35
-0.654353 -0.279849 2.351000 84 44 31
-0.658806 -0.277610 2.367000 81 45 27
-0.658806 -0.273467 2.367000 78 45 32
-0.658806 -0.269323 2.367000 78 45 37
-0.658806 -0.265180 2.367000 79 45 27
-0.654353 -0.259272 2.351000 81 44 17
-0.654353 -0.255156 2.351000 83 43 37
-0.654353 -0.251041 2.351000 81 44 56
-0.654353 -0.246926 2.351000 80 44 47
-0.654353 -0.242810 2.351000 79 46 38
-0.654353 -0.238695 2.351000 78 46 42
-0.654353 -0.234579 2.351000 79 47 46
-0.654353 -0.230464 2.351000 81 44 42
-0.658806 -0.227889 2.367000 79 45 37
-0.658806 -0.223745 2.367000 78 43 34
-0.658806 -0.219602 2.367000 78 42 31
-0.654353 -0.214002 2.351000 79 41 33
-0.654353 -0.209887 2.351000 79 39 35
-0.654353 -0.205771 2.351000 79 39 31
-0.654353 -0.201656 2.351000 74 39 27
-0.654353 -0.197540 2.351000 69 43 32
-0.654353 -0.193425 2.351000 71 45 36
-0.654353 -0.189310 2.351000 74 42 35
-0.654353 -0.185194 2.351000 73 44 35
-0.649899 -0.179846 2.335000 73 44 28
-0.649899 -0.175759 2.335000 70 45 22
-0.649899 -0.171672 2.335000 68 45 24
-0.649899 -0.167584 2.335000 71 49 26
-0.654353 -0.164617 2.351000 74 45 27
-0.654353 -0.160502 2.351000 72 45 29
-0.654353 -0.156386 2.351000 71 41 38
-0.654353 -0.152271 2.351000 72 41 47
-0.654353 -0.148155 2.351000 74 44 34
-0.654353 -0.144040 2.351000 72 47 21
-0.649899 -0.138972 2.335000 71 45 24
-0.649899 -0.134885 2.335000 73 44 27
-0.649899 -0.130797 2.335000 76 50 23
-0.649899 -0.126710 2.335000 76 44 20
-0.649899 -0.122622 2.335000 77 40 21
-0.649899 -0.118535 2.335000 75 39 22
-0.649899 -0.114448 2.335000 74 40 24
-0.649899 -0.110360 2.335000 77 41 26
-0.649899 -0.106273 2.335000 80 42 28
-0.649899 -0.102185 2.335000 77 42 29
-0.649899 -0.098098 2.335000 74 41 25
-0.649899 -0.094011 2.335000 73 44 22
-0.649899 -0.089923 2.335000 72 42 21
-0.649899 -0.085836 2.335000 74 39 20
-0.649899 -0.081748 2.335000 76 37 27
-0.649899 -0.077661 2.335000 75 40 34
-0.649899 -0.073573 2.335000 74 38 26
-0.649899 -0.069486 2.335000 70 39 19
-0.649899 -0.065399 2.335000 67 40 19
-0.649899 -0.061311 2.335000 70 39 18
-0.645725 -0.056856 2.320000 74 37 26
-0.645725 -0.052795 2.320000 72 38 35
-0.645725 -0.048734 2.320000 71 38 31
-0.645725 -0.044673 2.320000 73 36 28
-0.649899 -0.040874 2.335000 76 34 28
-0.645725 -0.036550 2.320000 77 30 29
-0.645725 -0.032489 2.320000 78 33 28
-0.645725 -0.028428 2.320000 75 37 28
-0.645725 -0.024367 2.320000 73 36 27
-0.649899 -0.020437 2.335000 70 34 27
-0.645725 -0.016245 2.320000 67 38 23
-0.645725 -0.012183 2.320000 68 40 20
-0.645725 -0.008122 2.320000 70 39 22
-0.649899 -0.004087 2.335000 69 39 25
-0.649899 -0.000000 2.335000 69 38 21
-0.649899 0.004087 2.335000 68 40 17
-0.649899 0.008175 2.335000 68 36 19
-0.645725 0.012184 2.320000 72 33 21
-0.649899 0.016350 2.335000 76 33 22
-0.645725 0.020306 2.320000 76 32 23
-0.645725 0.024367 2.320000 77 36 23
-0.645725 0.028428 2.320000 73 43 24
-0.649899 0.032699 2.335000 70 40 25
-0.649899 0.036787 2.335000 69 37 27
-0.649899 0.040874 2.335000 68 38 18
-0.654353 0.045270 2.351000 70 39 10
-0.649899 0.049049 2.335000 72 39 19
-0.649899 0.053136 2.335000 71 39 28
-0.649899 0.057224 2.335000 71 36 29
-0.649899 0.061311 2.335000 69 36 31
-0.649899 0.065399 2.335000 67 34 25
-0.645725 0.069040 2.320000 66 35 20
-0.645725 0.073101 2.320000 65 34 18
-0.645725 0.077162 2.320000 65 36 15
-0.649899 0.081748 2.335000 66 35 15
-0.649899 0.085836 2.335000 67 34 16
-0.649899 0.089923 2.335000 69 34 11
-0.649899 0.094011 2.335000 70 39 7
-0.645725 0.097468 2.320000 72 37 12
-0.645725 0.101529 2.320000 71 39 18
-0.645725 0.105590 2.320000 71 35 25
-0.645725 0.109651 2.320000 71 32 32
-0.645725 0.113713 2.320000 71 32 25
-0.645725 0.117774 2.320000 71 33 18
-0.645725 0.121835 2.320000 71 32 25
-0.645725 0.125896 2.320000 69 30 32
-0.649899 0.130797 2.335000 68 34 19
-0.645725 0.134018 2.320000 69 35 6
-0.645725 0.138080 2.320000 70 33 10
-0.645725 0.142141 2.320000 75 32 14
-0.649899 0.147147 2.335000 80 29 12
-0.649899 0.151234 2.335000 76 27 11
-0.649899 0.155322 2.335000 72 28 9
-0.649899 0.159409 2.335000 70 30 8
-0.649899 0.163497 2.335000 69 32 18
-0.649899 0.167584 2.335000 69 33 28
-0.649899 0.171672 2.335000 69 32 18
-0.649899 0.175759 2.335000 69 33 7
-0.649899 0.179846 2.335000 70 34 13
-0.649899 0.183934 2.335000 67 35 19
-0.645725 0.186813 2.320000 65 32 20
-0.649899 0.192109 2.335000 66 30 22
-0.649899 0.196196 2.335000 68 31 20
-0.649899 0.200284 2.335000 70 31 18
-0.649899 0.204371 2.335000 73 32 19
-0.649899 0.208458 2.335000 70 34 20
-0.649899 0.212546 2.335000 67 34 22
-0.649899 0.216633 2.335000 68 33 25
-0.649899 0.220721 2.335000 69 31 25
-0.649899 0.224808 2.335000 71 32 26
-0.649899 0.228895 2.335000 73 29 25
-0.649899 0.232983 2.335000 71 30 24
-0.649899 0.237070 2.335000 69 31 21
-0.649899 0.241158 2.335000 67 30 17
-0.645725 0.243670 2.320000 66 33 18
-0.645725 0.247731 2.320000 65 34 18
-0.645725 0.251792 2.320000 64 34 15
-0.645725 0.255853 2.320000 65 37 13
-0.645725 0.259914 2.320000 66 36 15
-0.645725 0.263975 2.320000 65 37 17
-0.645725 0.268037 2.320000 65 35 14
-0.649899 0.273857 2.335000 68 35 11
-0.649899 0.277945 2.335000 71 33 10
-0.649899 0.282032 2.335000 66 33 10
-0.645725 0.284281 2.320000 61 32 10
-0.645725 0.288342 2.320000 63 35 10
-0.645725 0.292404 2.320000 65 32 18
-0.645725 0.296465 2.320000 67 30 27
-0.649899 0.302469 2.335000 70 27 19
-0.649899 0.306556 2.335000 68 26 11
-0.649899 0.310644 2.335000 67 28 11
-0.649899 0.314731 2.335000 67 28 12
-0.649899 0.318819 2.335000 68 27 9
-0.649899 0.322906 2.335000 67 30 7
-0.649899 0.326993 2.335000 67 30 12
-0.649899 0.331081 2.335000 67 29 18
-0.649899 0.335168 2.335000 67 29 13
-0.649899 0.339256 2.335000 65 29 8
-0.649899 0.343343 2.335000 63 28 13
-0.645725 0.345199 2.320000 62 30 18
-0.645725 0.349260 2.320000 62 30 16
-0.645725 0.353321 2.320000 58 33 15
-0.645725 0.357382 2.320000 55 35 14
-0.645725 0.361443 2.320000 59 34 13
-0.645725 0.365505 2.320000 63 31 13
-0.645725 0.369566 2.320000 64 33 13
-0.645725 0.373627 2.320000 66 31 11
-0.645725 0.377688 2.320000 64 30 10
-0.645725 0.381749 2.320000 63 29 15
-0.645725 0.385810 2.320000 59 30 21
-0.645725 0.389872 2.320000 55 27 14
-0.645725 0.393933 2.320000 58 25 7
-0.645725 0.397994 2.320000 61 29 8
-0.645725 0.402055 2.320000 61 31 10
-0.645725 0.406116 2.320000 62 30 8
-0.645725 0.410177 2.320000 63 28 6
-0.645725 0.414238 2.320000 64 29 9
-0.649899 0.421004 2.335000 63 27 13
-0.645725 0.422361 2.320000 62 28 19
-0.649899 0.429179 2.335000 58 32 26
-0.645725 0.430483 2.320000 54 30 20
-0.645725 0.434544 2.320000 58 31 14
-0.645725 0.438605 2.320000 63 30 8
-0.645725 0.442667 2.320000 62 31 2
-0.649899 0.449616 2.335000 62 31 5
-0.649899 0.453703 2.335000 62 36 9
-0.649899 0.457791 2.335000 63 31 9
-0.649899 0.461878 2.335000 62 28 9
-0.649899 0.465966 2.335000 62 28 10
-0.649899 0.470053 2.335000 63 28 10
-0.649899 0.474141 2.335000 65 27 12
-0.649899 0.478228 2.335000 64 26 14
-0.645725 0.479217 2.320000 64 25 9
-0.645725 0.483278 2.320000 67 23 4
-0.645725 0.487339 2.320000 71 25 9
-0.645725 0.491400 2.320000 67 25 15
-0.645725 0.495462 2.320000 64 26 10
-0.645725 0.499523 2.320000 61 31 6
-0.645725 0.503584 2.320000 58 31 13
-0.645725 0.507645 2.320000 56 33 21
-0.645725 0.511706 2.320000 55 32 17
-0.645725 0.515767 2.320000 56 31 14
-0.645725 0.519829 2.320000 57 25 14
-0.645725 0.523890 2.320000 64 21 13
-0.645725 0.527951 2.320000 72 21 18
-0.645725 0.532012 2.320000 61 25 24
-0.645725 0.536073 2.320000 51 27 14
-0.645725 0.540134 2.320000 56 30 4
-0.645725 0.544196 2.320000 61 28 7
-0.645725 0.548257 2.320000 58 30 11
-0.645725 0.552318 2.320000 56 26 20
-0.645725 0.556379 2.320000 52 20 29
-0.645725 0.560440 2.320000 49 16 24
-0.645725 0.564501 2.320000 31 7 20
-0.645725 0.568563 2.320000 14 4 16
-0.645725 0.572624 2.320000 11 2 13
-0.649899 0.580413 2.335000 9 4 8
-0.649899 0.584501 2.335000 10 7 4
-0.654353 0.592622 2.351000 11 6 7
-0.654353 0.596737 2.351000 7 5 9
-0.658806 0.604941 2.367000 3 4 7
-0.658806 0.609085 2.367000 4 4 4
-0.658806 0.613228 2.367000 5 4 3
-0.654353 0.613199 2.351000 6 4 2
-0.654353 0.617314 2.351000 8 3 2
-0.649899 0.617200 2.335000 7 3 3
-0.645725 0.617297 2.320000 6 3 2
-0.641271 0.617072 2.304000 4 5 2
-0.641271 0.621106 2.304000 2 4 2
-0.641271 0.625139 2.304000 3 4 1
-0.645725 0.633541 2.320000 4 4 2
-0.645725 0.637602 2.320000 5 5 2
-0.649899 0.645812 2.335000 7 4 2
-0.649899 0.649900 2.335000 8 4 1
-0.654353 0.658468 2.351000 9 4 1
-0.649899 0.658074 2.335000 6 3 1
-0.649899 0.662162 2.335000 3 3 1
-0.649899 0.666249 2.335000 3 5 2
-0.645725 0.666030 2.320000 4 4 2
-0.645725 0.670092 2.320000 5 4 2
-0.641271 0.669503 2.304000 7 3 3
-0.641271 0.673537 2.304000 7 3 4
-0.616500 0.651396 2.215000 8 3 3
-0.616500 0.655274 2.215000 8 4 2
-0.612603 0.654985 2.201000 8 4 1
-0.612603 0.658838 2.201000 9 4 1
-0.608707 0.658475 2.187000 10 4 2
-0.608707 0.662304 2.187000 12 4 3
-0.549701 0.649961 1.975000 132 108 97
-0.549701 0.653418 1.975000 132 110 96
-0.549701 0.656875 1.975000 133 109 106
-0.546639 0.656655 1.964000 132 111 116
-0.543299 0.656060 1.952000 132 112 109
-0.540238 0.655760 1.941000 134 112 103
-0.534393 0.652026 1.920000 136 112 109
-0.531331 0.651632 1.909000 137 114 116
-0.528548 0.651543 1.899000 138 116 114
-0.525486 0.651074 1.888000 141 117 112
-0.522703 0.650913 1.878000 145 117 116
-0.519920 0.650717 1.868000 143 118 121
-0.519920 0.653987 1.868000 142 118 120
-0.517136 0.653738 1.858000 143 118 120
-0.514353 0.653455 1.848000 145 120 119
-0.511570 0.653136 1.838000 146 122 117
-0.508786 0.652783 1.828000 147 123 119
-0.506281 0.652753 1.819000 149 124 121
-0.500993 0.649086 1.800000 151 123 125
-0.498210 0.648613 1.790000 154 124 130
-0.495705 0.648469 1.781000 158 123 123
-0.495705 0.651587 1.781000 154 123 117
-0.490695 0.648088 1.763000 151 125 110
-0.488190 0.647850 1.754000 150 124 103
-0.485685 0.647580 1.745000 149 122 110
-0.483180 0.647279 1.736000 148 123 118
-0.483180 0.650318 1.736000 148 123 118
-0.480953 0.650346 1.728000 147 125 118
-0.473717 0.643540 1.702000 147 129 117
-0.471490 0.643480 1.694000 151 135 116
-0.469264 0.643393 1.686000 155 128 120
-0.466759 0.642894 1.677000 154 124 124
-0.464532 0.642749 1.669000 154 123 125
-0.462305 0.642576 1.661000 160 124 126
-0.460079 0.642374 1.653000 167 123 123
-0.650237 -0.913625 2.351000 77 30 17
-0.654662 -0.915699 2.367000 74 34 25
-0.650237 -0.905394 2.351000 70 36 38
-0.654662 -0.907412 2.367000 71 37 51
-0.654662 -0.903269 2.367000 73 34 35
-0.654662 -0.899125 2.367000 71 34 20
-0.654662 -0.894982 2.367000 70 35 27
-0.654662 -0.890838 2.367000 72 36 35
-0.654662 -0.886695 2.367000 74 38 27
-0.654662 -0.882551 2.367000 74 38 20
-0.654662 -0.878408 2.367000 75 36 21
-0.654662 -0.874265 2.367000 74 33 22
-0.654662 -0.870121 2.367000 73 34 22
-0.650237 -0.860124 2.351000 72 34 22
-0.650237 -0.856009 2.351000 72 34 21
-0.650237 -0.851893 2.351000 72 33 21
-0.650237 -0.847778 2.351000 73 30 21
-0.654662 -0.849404 2.367000 74 33 21
-0.654662 -0.845261 2.367000 76 33 20
-0.654662 -0.841117 2.367000 76 34 19
-0.654662 -0.836974 2.367000 76 35 18
-0.654662 -0.832830 2.367000 73 35 17
-0.654662 -0.828687 2.367000 70 34 21
-0.654662 -0.824543 2.367000 72 37 26
-0.654662 -0.820400 2.367000 73 38 23
-0.654662 -0.816256 2.367000 71 35 21
-0.654662 -0.812113 2.367000 69 32 23
-0.650237 -0.802508 2.351000 70 38 25
-0.650237 -0.798393 2.351000 72 39 23
-0.650237 -0.794277 2.351000 71 41 21
-0.650237 -0.790162 2.351000 70 41 22
-0.650237 -0.786046 2.351000 74 39 24
-0.650237 -0.781931 2.351000 78 38 22
-0.650237 -0.777816 2.351000 76 39 20
-0.654662 -0.778966 2.367000 75 41 18
-0.654662 -0.774822 2.367000 72 37 17
-0.654662 -0.770679 2.367000 69 35 21
