ply
format ascii 1.0
element vertex 1274
property float x
property float y
property float z
property uchar red
property uchar green
property uchar blue
end_header
0.130997 0.705072 2.201000 113 97 85
0.130164 0.704415 2.187000 113 101 91
0.130164 0.708244 2.187000 114 98 98
0.129390 0.707839 2.174000 115 97 97
0.128557 0.707062 2.160000 117 96 96
0.128557 0.710843 2.160000 118 96 96
0.125402 0.697090 2.107000 116 95 96
0.124688 0.696787 2.095000 113 96 96
0.123914 0.696108 2.082000 113 95 97
0.123141 0.695383 2.069000 113 93 99
0.123141 0.699005 2.069000 111 97 102
0.122426 0.698551 2.057000 110 102 98
0.122426 0.702152 2.057000 112 99 94
0.120998 0.697518 2.033000 114 98 97
0.120284 0.696939 2.021000 115 99 100
0.118915 0.692505 1.998000 117 99 101
0.118201 0.691822 1.986000 114 97 103
0.118201 0.695299 1.986000 112 97 101
0.117546 0.694905 1.975000 114 95 99
0.116891 0.694473 1.964000 116 97 98
0.115523 0.689737 1.941000 115 97 98
0.114927 0.689564 1.931000 114 98 106
0.114273 0.688997 1.920000 116 99 114
0.113618 0.688391 1.909000 118 102 109
0.113023 0.688109 1.899000 116 99 105
0.112368 0.687429 1.888000 115 96 105
0.111773 0.687075 1.878000 116 96 105
0.111178 0.686686 1.868000 118 99 108
0.110583 0.686263 1.858000 119 100 111
0.110583 0.689515 1.858000 120 101 113
0.109987 0.689039 1.848000 118 99 115
0.109987 0.692274 1.848000 117 99 120
0.109392 0.691745 1.838000 117 100 126
0.108261 0.687779 1.819000 116 101 119
0.107666 0.687164 1.809000 115 101 112
0.106535 0.683080 1.790000 115 102 109
0.106000 0.682763 1.781000 111 102 106
0.105464 0.682415 1.772000 108 102 106
0.104928 0.682035 1.763000 110 96 107
0.214007 -1.351304 3.493000 58 29 9
0.214007 -1.345189 3.493000 56 27 15
0.214007 -1.339075 3.493000 53 28 20
0.214007 -1.332960 3.493000 50 25 17
0.214007 -1.326846 3.493000 59 22 15
0.211863 -1.307498 3.458000 68 24 14
0.211863 -1.301444 3.458000 61 31 13
0.209719 -1.282280 3.423000 54 30 10
0.209719 -1.276288 3.423000 56 28 8
0.209719 -1.270296 3.423000 59 25 12
0.211863 -1.277231 3.458000 58 26 16
0.214007 -1.284044 3.493000 58 26 12
0.214007 -1.277930 3.493000 59 26 9
0.214007 -1.271815 3.493000 60 25 7
0.214007 -1.265701 3.493000 59 28 6
0.214007 -1.259586 3.493000 58 25 6
0.214007 -1.253472 3.493000 63 25 7
0.214007 -1.247357 3.493000 69 25 7
0.214007 -1.241243 3.493000 65 22 7
0.214007 -1.235128 3.493000 62 21 7
0.214007 -1.229014 3.493000 60 21 7
0.214007 -1.222899 3.493000 59 24 11
0.211863 -1.204593 3.458000 59 23 15
0.214007 -1.210670 3.493000 59 24 9
0.214007 -1.204556 3.493000 57 26 4
0.214007 -1.198442 3.493000 56 27 5
0.214007 -1.192327 3.493000 57 27 7
0.214007 -1.186213 3.493000 58 24 12
0.214007 -1.180098 3.493000 64 20 17
0.214007 -1.173983 3.493000 71 21 12
0.214007 -1.167869 3.493000 64 23 7
0.214007 -1.161754 3.493000 58 25 7
0.214007 -1.155640 3.493000 55 33 8
0.214007 -1.149526 3.493000 53 33 6
0.214007 -1.143411 3.493000 54 31 5
0.214007 -1.137297 3.493000 56 30 5
0.214007 -1.131182 3.493000 55 34 6
0.214007 -1.125067 3.493000 55 34 11
0.214007 -1.118953 3.493000 53 33 17
0.214007 -1.112839 3.493000 51 30 21
0.214007 -1.106724 3.493000 53 29 25
0.214007 -1.100610 3.493000 56 28 20
0.214007 -1.094495 3.493000 58 31 14
0.216152 -1.099286 3.528000 60 27 17
0.214007 -1.082266 3.493000 60 28 21
0.216152 -1.086935 3.528000 60 27 18
0.216152 -1.080759 3.528000 59 27 16
0.216152 -1.074583 3.528000 58 30 12
0.214007 -1.057808 3.493000 57 33 8
0.214007 -1.051693 3.493000 57 31 8
0.214007 -1.045579 3.493000 57 27 8
0.214007 -1.039464 3.493000 58 26 19
0.214007 -1.033350 3.493000 59 27 31
0.214007 -1.027236 3.493000 60 26 22
0.211863 -1.010889 3.458000 58 28 14
0.211863 -1.004836 3.458000 56 28 10
0.209719 -0.988674 3.423000 64 31 5
0.211863 -0.992729 3.458000 72 29 9
0.211863 -0.986676 3.458000 65 33 12
0.211863 -0.980623 3.458000 59 33 9
0.211863 -0.974570 3.458000 60 34 6
0.211863 -0.968517 3.458000 62 34 8
0.211863 -0.962464 3.458000 67 35 9
0.214007 -0.966091 3.493000 73 32 6
0.214007 -0.959976 3.493000 68 31 3
0.214007 -0.953862 3.493000 63 30 9
0.214007 -0.947747 3.493000 63 30 15
0.214007 -0.941633 3.493000 63 31 13
0.214007 -0.935518 3.493000 62 36 11
0.214007 -0.929404 3.493000 61 34 8
0.214007 -0.923289 3.493000 63 31 6
0.214007 -0.917175 3.493000 65 29 8
0.214007 -0.911060 3.493000 65 29 10
0.214007 -0.904946 3.493000 65 31 11
0.214007 -0.898831 3.493000 64 32 12
0.214007 -0.892717 3.493000 64 30 12
0.214007 -0.886602 3.493000 64 28 13
0.214007 -0.880488 3.493000 65 27 13
0.214007 -0.874373 3.493000 70 26 14
0.214007 -0.868259 3.493000 76 28 14
0.214007 -0.862144 3.493000 70 30 14
0.214007 -0.856030 3.493000 64 31 17
0.214007 -0.849915 3.493000 63 30 20
0.214007 -0.843801 3.493000 63 32 24
0.214007 -0.837686 3.493000 68 35 27
0.214007 -0.831572 3.493000 73 36 20
0.214007 -0.825457 3.493000 69 38 14
0.214007 -0.819343 3.493000 66 37 11
0.214007 -0.813228 3.493000 65 36 8
0.214007 -0.807114 3.493000 64 34 12
0.214007 -0.800999 3.493000 64 33 16
0.214007 -0.794885 3.493000 65 33 17
0.214007 -0.788770 3.493000 64 34 18
0.214007 -0.782656 3.493000 63 34 14
0.214007 -0.776541 3.493000 67 35 11
0.214007 -0.770427 3.493000 71 31 8
0.214007 -0.764312 3.493000 66 30 5
0.214007 -0.758198 3.493000 62 30 7
0.214007 -0.752083 3.493000 62 30 9
0.214007 -0.745969 3.493000 63 32 7
0.214007 -0.739854 3.493000 63 34 5
0.214007 -0.733740 3.493000 64 33 9
0.214007 -0.727625 3.493000 62 36 13
0.214007 -0.721511 3.493000 60 34 15
0.214007 -0.715396 3.493000 63 34 17
0.214007 -0.709282 3.493000 67 31 21
0.214007 -0.703167 3.493000 65 32 25
0.214007 -0.697053 3.493000 64 32 19
0.214007 -0.690938 3.493000 65 30 13
0.214007 -0.684824 3.493000 67 31 10
0.214007 -0.678709 3.493000 71 36 8
0.214007 -0.672595 3.493000 76 33 11
0.214007 -0.666480 3.493000 67 32 14
0.214007 -0.660366 3.493000 58 33 11
0.214007 -0.654251 3.493000 62 37 8
0.214007 -0.648137 3.493000 66 35 14
0.214007 -0.642022 3.493000 66 35 20
0.214007 -0.635908 3.493000 66 36 14
0.214007 -0.629793 3.493000 62 39 9
0.214007 -0.623679 3.493000 59 34 12
0.214007 -0.617564 3.493000 62 30 15
0.214007 -0.611450 3.493000 65 30 15
0.214007 -0.605335 3.493000 63 30 15
0.214007 -0.599221 3.493000 62 31 18
0.214007 -0.593106 3.493000 63 33 22
0.214007 -0.586992 3.493000 64 33 12
0.214007 -0.580877 3.493000 65 32 3
0.214007 -0.574763 3.493000 67 31 5
0.214007 -0.568648 3.493000 65 33 8
0.211863 -0.556897 3.458000 64 33 7
0.211863 -0.550844 3.458000 60 34 5
0.211863 -0.544791 3.458000 56 36 9
0.211863 -0.538737 3.458000 62 39 13
0.211863 -0.532684 3.458000 69 35 12
0.214007 -0.531961 3.493000 71 34 11
0.214007 -0.525847 3.493000 74 33 11
0.214007 -0.519732 3.493000 69 33 11
0.214007 -0.513618 3.493000 65 33 10
0.214007 -0.507503 3.493000 64 33 9
0.214007 -0.501389 3.493000 63 30 18
0.214007 -0.495274 3.493000 66 33 27
0.214007 -0.489160 3.493000 69 32 23
0.214007 -0.483045 3.493000 67 33 18
0.214007 -0.476931 3.493000 65 35 17
0.214007 -0.470816 3.493000 70 36 15
0.214007 -0.464702 3.493000 76 36 11
0.214007 -0.458587 3.493000 71 37 7
0.214007 -0.452473 3.493000 67 36 8
0.214007 -0.446358 3.493000 68 34 10
0.214007 -0.440244 3.493000 69 33 12
0.214007 -0.434129 3.493000 66 35 15
0.214007 -0.428015 3.493000 64 32 18
0.214007 -0.421900 3.493000 64 31 21
0.214007 -0.415786 3.493000 64 32 16
0.214007 -0.409671 3.493000 63 30 11
0.214007 -0.403557 3.493000 62 31 9
0.214007 -0.397442 3.493000 64 31 7
0.214007 -0.391328 3.493000 67 32 8
0.214007 -0.385213 3.493000 66 35 9
0.214007 -0.379099 3.493000 65 35 10
0.214007 -0.372984 3.493000 67 34 10
0.214007 -0.366870 3.493000 69 33 16
0.214007 -0.360755 3.493000 69 31 22
0.214007 -0.354641 3.493000 69 33 14
0.214007 -0.348526 3.493000 67 38 6
0.214007 -0.342412 3.493000 66 35 10
0.214007 -0.336297 3.493000 60 34 15
0.214007 -0.330183 3.493000 55 35 14
0.211863 -0.320821 3.458000 60 40 14
0.211863 -0.314768 3.458000 65 35 15
0.211863 -0.308715 3.458000 66 35 16
0.211863 -0.302661 3.458000 68 36 15
0.211863 -0.296608 3.458000 66 36 14
0.211863 -0.290555 3.458000 65 35 15
0.211863 -0.284502 3.458000 68 36 17
0.211863 -0.278448 3.458000 71 35 15
0.211863 -0.272395 3.458000 68 34 13
0.211863 -0.266342 3.458000 66 35 18
0.211863 -0.260289 3.458000 64 37 24
0.211863 -0.254236 3.458000 63 36 19
0.211863 -0.248182 3.458000 65 38 14
0.211863 -0.242129 3.458000 67 33 17
0.211863 -0.236076 3.458000 67 31 20
0.211863 -0.230023 3.458000 67 31 16
0.211863 -0.223969 3.458000 68 28 12
0.211863 -0.217916 3.458000 70 28 9
0.211863 -0.211863 3.458000 74 30 6
0.211863 -0.205810 3.458000 78 31 10
0.211863 -0.199756 3.458000 70 33 14
0.211863 -0.193703 3.458000 63 29 16
0.211863 -0.187650 3.458000 64 30 18
0.211863 -0.181597 3.458000 65 32 15
0.211863 -0.175544 3.458000 68 35 13
0.211863 -0.169490 3.458000 71 34 18
0.211863 -0.163437 3.458000 66 33 24
0.211863 -0.157384 3.458000 62 30 18
0.211863 -0.151331 3.458000 64 29 12
0.211863 -0.145277 3.458000 67 29 17
0.211863 -0.139224 3.458000 65 30 22
0.211863 -0.133171 3.458000 63 29 18
0.211863 -0.127118 3.458000 66 31 14
0.209719 -0.119839 3.423000 69 29 11
0.209719 -0.113847 3.423000 66 30 8
0.209719 -0.107855 3.423000 64 32 8
0.209719 -0.101863 3.423000 68 32 7
0.211863 -0.096852 3.458000 72 30 11
0.209719 -0.089879 3.423000 67 28 16
0.211863 -0.084745 3.458000 62 30 12
0.211863 -0.078692 3.458000 63 31 9
0.211863 -0.072639 3.458000 64 32 8
0.211863 -0.066585 3.458000 63 32 6
0.211863 -0.060532 3.458000 62 30 15
0.209719 -0.053928 3.423000 62 29 23
0.209719 -0.047936 3.423000 62 28 18
0.209719 -0.041944 3.423000 64 30 14
0.207697 -0.035605 3.390000 67 28 16
0.209719 -0.029960 3.423000 64 26 19
0.209719 -0.023968 3.423000 62 27 16
0.209719 -0.017976 3.423000 59 33 14
0.209719 -0.011984 3.423000 57 31 14
0.209719 -0.005992 3.423000 57 31 14
0.209719 -0.000000 3.423000 58 32 17
0.207697 0.005934 3.390000 60 34 21
0.207697 0.011869 3.390000 63 32 16
0.209719 0.017976 3.423000 64 28 12
0.211863 0.024213 3.458000 65 30 17
0.209719 0.029960 3.423000 64 33 23
0.209719 0.035952 3.423000 63 32 15
0.211863 0.042373 3.458000 68 32 8
0.211863 0.048426 3.458000 73 31 12
0.209719 0.053928 3.423000 67 31 17
0.209719 0.059920 3.423000 61 30 9
0.209719 0.065912 3.423000 61 33 2
0.207697 0.071210 3.390000 62 32 10
0.207697 0.077145 3.390000 64 31 18
0.207697 0.083079 3.390000 66 30 12
0.207697 0.089013 3.390000 64 30 7
0.207697 0.094947 3.390000 62 30 10
0.207697 0.100881 3.390000 62 30 13
0.207697 0.106816 3.390000 63 30 9
0.207697 0.112750 3.390000 62 30 5
0.207697 0.118684 3.390000 62 29 9
0.207697 0.124618 3.390000 60 30 13
0.207697 0.130552 3.390000 58 30 10
0.207697 0.136487 3.390000 56 31 6
0.209719 0.143807 3.423000 54 28 6
0.209719 0.149799 3.423000 58 25 6
0.209719 0.155791 3.423000 62 25 5
0.207697 0.160223 3.390000 61 26 4
0.207697 0.166157 3.390000 60 29 7
0.207697 0.172092 3.390000 57 34 11
0.207697 0.178026 3.390000 55 32 11
0.207697 0.183960 3.390000 56 32 10
0.207697 0.189894 3.390000 58 32 8
0.207697 0.195829 3.390000 59 32 6
0.209719 0.203727 3.423000 60 29 5
0.209719 0.209719 3.423000 60 28 4
0.209719 0.215711 3.423000 60 29 6
0.209719 0.221703 3.423000 58 30 9
0.209719 0.227695 3.423000 56 30 10
0.209719 0.233687 3.423000 57 32 10
0.209719 0.239679 3.423000 58 28 14
0.209719 0.245670 3.423000 59 26 18
0.209719 0.251662 3.423000 60 26 11
0.209719 0.257654 3.423000 60 27 4
0.209719 0.263646 3.423000 60 26 4
0.209719 0.269638 3.423000 62 22 4
0.209719 0.275630 3.423000 65 25 5
0.209719 0.281622 3.423000 68 28 7
0.209719 0.287614 3.423000 71 27 6
0.209719 0.293606 3.423000 66 26 6
0.209719 0.299598 3.423000 61 27 5
0.209719 0.305590 3.423000 60 28 5
0.209719 0.311582 3.423000 59 27 9
0.209719 0.317574 3.423000 58 26 13
0.209719 0.323566 3.423000 58 26 10
0.209719 0.329558 3.423000 58 28 8
0.209719 0.335550 3.423000 59 28 10
0.209719 0.341542 3.423000 61 23 12
0.209719 0.347534 3.423000 64 26 9
0.209719 0.353526 3.423000 61 28 6
0.209719 0.359518 3.423000 58 27 4
0.209719 0.365510 3.423000 58 26 3
0.209719 0.371502 3.423000 58 25 4
0.209719 0.377494 3.423000 59 25 5
0.209719 0.383486 3.423000 61 26 9
0.209719 0.389478 3.423000 57 26 13
0.209719 0.395470 3.423000 54 25 8
0.209719 0.401461 3.423000 59 25 3
0.209719 0.407454 3.423000 64 25 3
0.209719 0.413445 3.423000 60 25 4
0.209719 0.419437 3.423000 57 26 7
0.209719 0.425429 3.423000 55 30 11
0.209719 0.431421 3.423000 54 23 7
0.209719 0.437413 3.423000 55 19 4
0.209719 0.443405 3.423000 56 21 4
0.209719 0.449397 3.423000 55 24 4
0.209719 0.455389 3.423000 54 25 11
0.209719 0.461381 3.423000 52 28 18
0.207697 0.462867 3.390000 50 27 12
0.207697 0.468802 3.390000 52 26 7
0.207697 0.474736 3.390000 54 26 6
0.207697 0.480670 3.390000 56 27 5
0.207697 0.486604 3.390000 58 25 5
0.207697 0.492538 3.390000 63 21 5
0.209719 0.503325 3.423000 68 21 9
0.207697 0.504407 3.390000 62 17 13
0.209719 0.515309 3.423000 56 20 11
0.209719 0.521301 3.423000 55 25 8
0.207697 0.522209 3.390000 54 21 10
0.207697 0.528144 3.390000 58 17 12
0.207697 0.534078 3.390000 63 18 9
0.207697 0.540012 3.390000 57 20 7
0.207697 0.545946 3.390000 51 20 7
0.207697 0.551880 3.390000 51 19 7
0.209719 0.563245 3.423000 51 21 8
0.209719 0.569236 3.423000 46 21 10
0.209719 0.575228 3.423000 42 23 8
0.209719 0.581220 3.423000 45 26 7
0.207697 0.581551 3.390000 49 21 10
0.209719 0.593204 3.423000 50 20 13
0.207697 0.593420 3.390000 51 20 8
0.207697 0.599354 3.390000 51 21 4
0.207697 0.605288 3.390000 51 21 4
0.207697 0.611222 3.390000 52 20 4
0.207697 0.617156 3.390000 53 19 4
0.207697 0.623091 3.390000 54 19 4
0.207697 0.629025 3.390000 56 19 4
0.209719 0.641140 3.423000 52 17 5
0.209719 0.647132 3.423000 48 15 7
0.211863 0.659802 3.458000 44 13 10
0.209719 0.659116 3.423000 40 14 7
0.209719 0.665108 3.423000 25 11 4
0.209719 0.671100 3.423000 10 7 3
0.211863 0.684015 3.458000 7 5 2
0.211863 0.690068 3.458000 4 4 2
0.211863 0.696121 3.458000 3 4 2
0.211863 0.702175 3.458000 3 3 2
0.211863 0.708228 3.458000 3 3 3
0.211863 0.714281 3.458000 3 3 2
0.214007 0.727625 3.493000 3 4 1
0.211863 0.726388 3.458000 3 3 1
0.175041 0.735173 2.857000 129 109 97
0.175041 0.740175 2.857000 133 111 100
0.173632 0.739177 2.834000 132 115 104
0.173632 0.744138 2.834000 131 116 107
0.172162 0.742755 2.810000 134 116 110
0.170814 0.741820 2.788000 138 118 112
0.169405 0.740540 2.765000 139 124 113
0.166770 0.733789 2.722000 140 123 113
0.165484 0.732856 2.701000 140 123 114
0.164197 0.731849 2.680000 140 123 115
0.162910 0.730769 2.659000 142 122 117
0.161685 0.729892 2.639000 144 123 120
0.161685 0.734512 2.639000 144 124 122
0.160460 0.733530 2.619000 145 124 125
0.160460 0.738114 2.619000 148 125 128
0.159234 0.737027 2.599000 152 126 130
0.155742 0.725313 2.542000 149 130 132
0.154578 0.724308 2.523000 146 129 130
0.153475 0.723526 2.505000 146 127 128
0.152372 0.722680 2.487000 146 128 128
0.151269 0.721772 2.469000 146 129 127
0.151269 0.726094 2.469000 147 131 129
0.149125 0.720061 2.434000 149 133 131
0.148084 0.719263 2.417000 152 129 128
0.147042 0.718405 2.400000 149 127 125
0.146062 0.717789 2.384000 146 131 122
0.146062 0.721962 2.384000 141 134 118
0.144040 0.716084 2.351000 137 130 113
0.143060 0.715298 2.335000 131 129 109
0.142141 0.714764 2.320000 125 111 109
0.141160 0.713868 2.304000 122 105 109
0.139322 0.708554 2.274000 119 103 108
0.138403 0.707834 2.259000 117 99 106
0.137484 0.707062 2.244000 115 99 103
0.136627 0.706554 2.230000 114 98 101
0.135708 0.705679 2.215000 114 95 96
0.135708 0.709557 2.215000 113 98 91
0.134850 0.708925 2.201000 112 99 96
0.133992 0.708244 2.187000 114 99 102
0.133196 0.707839 2.174000 116 96 97
0.133196 0.711645 2.174000 118 95 91
0.132338 0.710843 2.160000 121 95 93
0.129091 0.697090 2.107000 117 95 95
0.128355 0.696787 2.095000 114 95 96
0.127559 0.696108 2.082000 113 97 97
0.127559 0.699752 2.082000 113 95 98
0.126762 0.699005 2.069000 113 95 100
0.126762 0.702626 2.069000 113 97 98
0.126027 0.702152 2.057000 113 96 96
0.124557 0.697518 2.033000 113 98 98
0.123822 0.696939 2.021000 113 101 101
0.122412 0.692505 1.998000 114 99 104
0.122412 0.696002 1.998000 112 99 107
0.121677 0.695299 1.986000 111 97 101
0.121003 0.694905 1.975000 110 95 96
0.120329 0.694473 1.964000 109 97 97
0.118920 0.689737 1.941000 111 100 99
0.118308 0.689564 1.931000 113 98 103
0.117634 0.688997 1.920000 116 99 108
0.116960 0.688391 1.909000 119 100 105
0.116347 0.688109 1.899000 116 99 102
0.115673 0.687429 1.888000 114 96 99
0.115060 0.687075 1.878000 116 96 96
0.114448 0.686686 1.868000 118 98 102
0.113835 0.686263 1.858000 119 101 108
0.113835 0.689515 1.858000 120 99 110
0.113222 0.689039 1.848000 118 98 112
0.112610 0.688528 1.838000 117 99 115
0.111997 0.687982 1.828000 117 101 119
0.111446 0.687779 1.819000 118 101 115
0.110833 0.687164 1.809000 116 101 111
0.109669 0.683080 1.790000 114 100 108
0.109117 0.682763 1.781000 109 101 105
0.108566 0.682415 1.772000 105 99 107
0.108015 0.682035 1.763000 109 96 109
0.220122 -1.351304 3.493000 56 28 7
0.220122 -1.345189 3.493000 55 27 11
0.220122 -1.339075 3.493000 54 27 16
0.220122 -1.332960 3.493000 54 26 18
0.220122 -1.326846 3.493000 59 22 21
0.220122 -1.320731 3.493000 64 21 22
0.217916 -1.301444 3.458000 59 27 23
0.217916 -1.295391 3.458000 55 30 15
0.217916 -1.289338 3.458000 58 27 7
0.217916 -1.283285 3.458000 62 27 10
0.217916 -1.277231 3.458000 59 26 14
0.220122 -1.284044 3.493000 57 29 11
0.217916 -1.265125 3.458000 59 26 9
0.220122 -1.271815 3.493000 61 27 8
0.220122 -1.265701 3.493000 59 26 7
0.220122 -1.259586 3.493000 57 26 7
0.220122 -1.253472 3.493000 60 26 7
0.222328 -1.259856 3.528000 64 26 7
0.222328 -1.253680 3.528000 61 22 7
0.220122 -1.235128 3.493000 59 21 8
0.220122 -1.229014 3.493000 57 23 10
0.220122 -1.222899 3.493000 54 26 18
0.220122 -1.216785 3.493000 56 25 26
0.220122 -1.210670 3.493000 57 27 16
0.220122 -1.204556 3.493000 57 26 7
0.220122 -1.198442 3.493000 57 29 7
0.220122 -1.192327 3.493000 57 26 7
0.220122 -1.186213 3.493000 58 23 15
0.220122 -1.180098 3.493000 61 21 24
0.220122 -1.173983 3.493000 64 22 16
0.220122 -1.167869 3.493000 60 21 9
0.220122 -1.161754 3.493000 57 21 9
0.220122 -1.155640 3.493000 56 28 9
0.220122 -1.149526 3.493000 55 34 8
0.220122 -1.143411 3.493000 56 29 7
0.220122 -1.137297 3.493000 58 28 8
0.220122 -1.131182 3.493000 56 31 9
0.220122 -1.125067 3.493000 55 34 11
0.220122 -1.118953 3.493000 54 32 14
0.220122 -1.112839 3.493000 54 31 15
0.220122 -1.106724 3.493000 56 28 17
0.220122 -1.100610 3.493000 58 26 13
0.222328 -1.105462 3.528000 62 26 9
0.222328 -1.099286 3.528000 66 24 6
0.222328 -1.093110 3.528000 63 27 3
0.222328 -1.086935 3.528000 61 30 8
0.222328 -1.080759 3.528000 59 28 13
0.222328 -1.074583 3.528000 57 29 10
0.222328 -1.068407 3.528000 57 30 8
0.220122 -1.051693 3.493000 57 34 5
0.220122 -1.045579 3.493000 57 28 3
0.220122 -1.039464 3.493000 58 22 9
0.220122 -1.033350 3.493000 62 24 15
0.220122 -1.027236 3.493000 66 25 12
0.217916 -1.010889 3.458000 62 27 9
0.220122 -1.015007 3.493000 58 28 9
0.217916 -0.998783 3.458000 62 29 9
0.217916 -0.992729 3.458000 66 30 12
0.220122 -0.996663 3.493000 62 32 16
0.220122 -0.990548 3.493000 59 34 13
0.220122 -0.984434 3.493000 59 35 10
0.220122 -0.978320 3.493000 59 38 11
0.217916 -0.962464 3.458000 63 35 12
0.220122 -0.966091 3.493000 68 31 8
0.220122 -0.959976 3.493000 65 29 5
0.220122 -0.953862 3.493000 63 30 10
0.220122 -0.947747 3.493000 62 29 16
0.220122 -0.941633 3.493000 62 30 16
0.220122 -0.935518 3.493000 61 33 16
0.220122 -0.929404 3.493000 60 33 8
0.220122 -0.923289 3.493000 61 31 1
0.220122 -0.917175 3.493000 61 30 5
0.220122 -0.911060 3.493000 64 30 10
0.220122 -0.904946 3.493000 66 32 11
0.220122 -0.898831 3.493000 67 31 12
0.220122 -0.892717 3.493000 69 30 10
0.220122 -0.886602 3.493000 67 27 9
0.220122 -0.880488 3.493000 65 26 10
0.220122 -0.874373 3.493000 65 26 12
0.220122 -0.868259 3.493000 65 25 6
0.220122 -0.862144 3.493000 63 29 1
0.220122 -0.856030 3.493000 61 32 8
0.220122 -0.849915 3.493000 61 31 16
0.220122 -0.843801 3.493000 60 30 18
0.220122 -0.837686 3.493000 64 35 20
0.220122 -0.831572 3.493000 69 38 17
0.220122 -0.825457 3.493000 66 35 14
0.220122 -0.819343 3.493000 63 33 9
0.220122 -0.813228 3.493000 61 36 4
0.220122 -0.807114 3.493000 59 38 8
0.220122 -0.800999 3.493000 61 34 13
0.220122 -0.794885 3.493000 63 34 15
0.220122 -0.788770 3.493000 63 32 17
0.220122 -0.782656 3.493000 63 32 14
0.220122 -0.776541 3.493000 66 32 12
0.220122 -0.770427 3.493000 69 30 11
0.220122 -0.764312 3.493000 66 29 10
0.220122 -0.758198 3.493000 63 31 10
0.220122 -0.752083 3.493000 64 31 10
0.220122 -0.745969 3.493000 65 33 7
0.220122 -0.739854 3.493000 66 31 4
0.220122 -0.733740 3.493000 67 31 9
0.220122 -0.727625 3.493000 65 33 14
0.220122 -0.721511 3.493000 63 34 17
0.220122 -0.715396 3.493000 64 33 20
0.220122 -0.709282 3.493000 65 30 18
0.220122 -0.703167 3.493000 64 31 16
0.220122 -0.697053 3.493000 64 33 16
0.220122 -0.690938 3.493000 64 30 16
0.220122 -0.684824 3.493000 65 28 12
0.220122 -0.678709 3.493000 68 31 9
0.220122 -0.672595 3.493000 71 32 11
0.220122 -0.666480 3.493000 66 31 14
0.220122 -0.660366 3.493000 62 35 14
0.220122 -0.654251 3.493000 66 35 14
0.220122 -0.648137 3.493000 71 35 14
0.220122 -0.642022 3.493000 69 33 14
0.220122 -0.635908 3.493000 67 35 14
0.220122 -0.629793 3.493000 67 36 14
0.220122 -0.623679 3.493000 67 36 14
0.220122 -0.617564 3.493000 67 32 14
0.220122 -0.611450 3.493000 66 31 14
0.220122 -0.605335 3.493000 66 29 15
0.220122 -0.599221 3.493000 66 29 12
0.220122 -0.593106 3.493000 65 31 10
0.220122 -0.586992 3.493000 63 34 5
0.220122 -0.580877 3.493000 65 32 1
0.220122 -0.574763 3.493000 67 30 3
0.220122 -0.568648 3.493000 65 32 5
0.220122 -0.562534 3.493000 64 33 3
0.220122 -0.556419 3.493000 62 34 2
0.220122 -0.550305 3.493000 60 35 8
0.217916 -0.538737 3.458000 63 36 14
0.220122 -0.538076 3.493000 67 35 11
0.220122 -0.531961 3.493000 68 34 9
0.220122 -0.525847 3.493000 69 34 11
0.220122 -0.519732 3.493000 65 33 14
0.220122 -0.513618 3.493000 62 33 14
0.220122 -0.507503 3.493000 63 29 15
0.220122 -0.501389 3.493000 64 26 17
0.220122 -0.495274 3.493000 65 32 20
0.220122 -0.489160 3.493000 67 35 15
0.220122 -0.483045 3.493000 66 33 11
0.220122 -0.476931 3.493000 65 30 7
0.220122 -0.470816 3.493000 68 33 3
0.220122 -0.464702 3.493000 71 35 3
0.220122 -0.458587 3.493000 69 36 4
0.220122 -0.452473 3.493000 67 36 3
0.220122 -0.446358 3.493000 68 34 2
0.220122 -0.440244 3.493000 69 34 11
0.220122 -0.434129 3.493000 66 33 21
0.220122 -0.428015 3.493000 64 32 29
0.220122 -0.421900 3.493000 64 32 38
0.220122 -0.415786 3.493000 64 34 28
0.220122 -0.409671 3.493000 64 32 18
0.220122 -0.403557 3.493000 63 34 15
0.220122 -0.397442 3.493000 66 33 13
0.220122 -0.391328 3.493000 70 34 14
0.220122 -0.385213 3.493000 68 35 15
0.220122 -0.379099 3.493000 67 34 14
0.220122 -0.372984 3.493000 69 34 14
0.220122 -0.366870 3.493000 72 34 21
0.220122 -0.360755 3.493000 71 31 29
0.220122 -0.354641 3.493000 71 30 19
0.220122 -0.348526 3.493000 71 34 9
0.220122 -0.342412 3.493000 72 36 10
0.220122 -0.336297 3.493000 67 34 12
0.220122 -0.330183 3.493000 62 37 14
0.217916 -0.320821 3.458000 66 36 16
0.217916 -0.314768 3.458000 70 34 15
0.217916 -0.308715 3.458000 69 35 14
0.217916 -0.302661 3.458000 68 39 14
0.217916 -0.296608 3.458000 66 36 14
0.217916 -0.290555 3.458000 65 33 14
0.217916 -0.284502 3.458000 67 33 14
0.220122 -0.281267 3.493000 70 34 13
0.220122 -0.275152 3.493000 68 33 12
0.220122 -0.269038 3.493000 66 35 15
0.220122 -0.262923 3.493000 65 35 19
0.220122 -0.256809 3.493000 63 33 16
0.220122 -0.250694 3.493000 65 33 14
0.217916 -0.242129 3.458000 67 31 20
0.217916 -0.236076 3.458000 67 32 27
0.217916 -0.230023 3.458000 67 33 21
0.217916 -0.223969 3.458000 68 28 15
0.217916 -0.217916 3.458000 70 26 12
0.217916 -0.211863 3.458000 70 29 10
0.217916 -0.205810 3.458000 70 30 14
0.217916 -0.199756 3.458000 65 30 18
0.217916 -0.193703 3.458000 59 27 16
0.217916 -0.187650 3.458000 61 31 15
0.217916 -0.181597 3.458000 63 36 14
0.217916 -0.175544 3.458000 62 34 14
0.217916 -0.169490 3.458000 62 34 23
0.217916 -0.163437 3.458000 61 32 32
0.217916 -0.157384 3.458000 60 29 23
0.217916 -0.151331 3.458000 62 30 15
0.217916 -0.145277 3.458000 64 31 22
0.217916 -0.139224 3.458000 63 29 30
0.217916 -0.133171 3.458000 62 28 22
0.217916 -0.127118 3.458000 64 29 14
0.217916 -0.121065 3.458000 65 28 10
0.217916 -0.115011 3.458000 64 31 7
0.217916 -0.108958 3.458000 63 34 6
0.217916 -0.102905 3.458000 64 33 5
0.217916 -0.096852 3.458000 65 32 7
0.215711 -0.089879 3.423000 63 30 10
0.217916 -0.084745 3.458000 62 31 10
0.217916 -0.078692 3.458000 61 30 10
0.217916 -0.072639 3.458000 61 31 9
0.220122 -0.067259 3.493000 61 29 9
0.217916 -0.060532 3.458000 61 29 23
0.217916 -0.054479 3.458000 61 28 38
0.215711 -0.047936 3.423000 61 28 26
0.215711 -0.041944 3.423000 62 28 14
0.215711 -0.035952 3.423000 64 27 10
0.215711 -0.029960 3.423000 62 26 7
0.215711 -0.023968 3.423000 60 27 10
0.217916 -0.018160 3.458000 59 29 14
0.217916 -0.012106 3.458000 57 31 14
0.217916 -0.006053 3.458000 55 32 15
0.217916 -0.000000 3.458000 54 33 23
0.215711 0.005992 3.423000 58 33 32
0.215711 0.011984 3.423000 63 34 23
0.215711 0.017976 3.423000 64 31 14
0.217916 0.024213 3.458000 66 30 23
0.215711 0.029960 3.423000 64 30 33
0.215711 0.035952 3.423000 63 30 23
0.217916 0.042373 3.458000 65 29 14
0.217916 0.048426 3.458000 67 26 21
0.217916 0.054479 3.458000 64 29 29
0.215711 0.059920 3.423000 61 29 15
0.215711 0.065912 3.423000 62 31 1
0.213631 0.071210 3.390000 62 31 13
0.215711 0.077896 3.423000 63 30 26
0.215711 0.083888 3.423000 64 30 18
0.215711 0.089879 3.423000 63 30 10
0.213631 0.094947 3.390000 62 31 13
0.213631 0.100881 3.390000 64 29 17
0.213631 0.106816 3.390000 66 29 9
0.215711 0.113847 3.423000 63 29 1
0.215711 0.119839 3.423000 61 28 7
0.215711 0.125831 3.423000 59 27 13
0.215711 0.131823 3.423000 58 27 12
0.215711 0.137815 3.423000 57 27 12
0.217916 0.145278 3.458000 57 26 9
0.217916 0.151331 3.458000 59 27 7
0.215711 0.155791 3.423000 61 27 7
0.215711 0.161783 3.423000 60 27 7
0.213631 0.166157 3.390000 60 26 11
0.213631 0.172092 3.390000 58 29 16
0.213631 0.178026 3.390000 56 32 12
0.213631 0.183960 3.390000 57 31 8
0.213631 0.189894 3.390000 59 31 5
0.213631 0.195829 3.390000 59 29 3
0.215711 0.203727 3.423000 60 29 2
0.215711 0.209719 3.423000 61 28 1
0.215711 0.215711 3.423000 62 29 4
0.215711 0.221703 3.423000 62 29 7
0.215711 0.227695 3.423000 62 28 5
0.215711 0.233687 3.423000 61 30 4
0.215711 0.239679 3.423000 60 30 5
0.215711 0.245670 3.423000 60 28 7
0.215711 0.251662 3.423000 60 27 4
0.215711 0.257654 3.423000 59 28 1
0.215711 0.263646 3.423000 58 29 2
0.215711 0.269638 3.423000 60 27 3
0.215711 0.275630 3.423000 63 26 5
0.215711 0.281622 3.423000 64 27 8
0.215711 0.287614 3.423000 66 27 7
0.215711 0.293606 3.423000 63 27 7
0.215711 0.299598 3.423000 60 30 5
0.215711 0.305590 3.423000 60 29 3
0.217916 0.314768 3.458000 59 30 5
0.217916 0.320821 3.458000 58 29 8
0.217916 0.326874 3.458000 57 26 7
0.217916 0.332928 3.458000 57 28 7
0.217916 0.338981 3.458000 58 32 12
0.217916 0.345034 3.458000 56 27 18
0.215711 0.347534 3.423000 55 25 11
0.217916 0.357141 3.458000 55 26 5
0.217916 0.363194 3.458000 56 30 5
0.217916 0.369247 3.458000 57 26 5
0.217916 0.375300 3.458000 58 26 5
0.215711 0.377494 3.423000 57 26 5
0.215711 0.383486 3.423000 57 26 5
0.215711 0.389478 3.423000 54 27 5
0.215711 0.395470 3.423000 51 26 3
0.217916 0.405566 3.458000 55 25 2
0.217916 0.411620 3.458000 59 27 3
0.217916 0.417673 3.458000 58 23 4
0.217916 0.423726 3.458000 56 19 4
0.217916 0.429779 3.458000 58 24 5
0.217916 0.435833 3.458000 59 25 3
0.220122 0.446359 3.493000 57 20 2
0.217916 0.447939 3.458000 55 23 2
0.217916 0.453992 3.458000 54 23 3
0.217916 0.460046 3.458000 53 27 4
0.215711 0.461381 3.423000 52 28 5
0.215711 0.467373 3.423000 52 29 4
0.215711 0.473365 3.423000 54 27 4
0.215711 0.479357 3.423000 56 26 4
0.215711 0.485349 3.423000 57 26 5
0.215711 0.491341 3.423000 58 26 3
0.215711 0.497333 3.423000 60 25 2
0.215711 0.503325 3.423000 63 27 4
0.215711 0.509317 3.423000 59 21 7
0.215711 0.515309 3.423000 55 21 7
0.215711 0.521301 3.423000 52 22 8
0.217916 0.532684 3.458000 50 21 9
0.215711 0.533285 3.423000 53 20 11
0.215711 0.539277 3.423000 57 20 9
0.215711 0.545269 3.423000 55 20 7
0.215711 0.551261 3.423000 52 21 6
0.215711 0.557253 3.423000 51 21 5
0.217916 0.569004 3.458000 51 22 3
0.217916 0.575057 3.458000 48 21 1
0.217916 0.581110 3.458000 45 21 3
0.217916 0.587163 3.458000 47 21 5
0.215711 0.587212 3.423000 49 20 7
0.217916 0.599270 3.458000 49 19 10
0.215711 0.599196 3.423000 49 21 6
0.215711 0.605188 3.423000 47 20 3
0.213631 0.605288 3.390000 46 21 3
0.213631 0.611222 3.390000 48 18 4
0.213631 0.617156 3.390000 51 20 4
0.215711 0.629156 3.423000 50 20 5
0.215711 0.635148 3.423000 49 21 4
0.215711 0.641140 3.423000 47 19 4
0.217916 0.653749 3.458000 46 19 6
0.217916 0.659802 3.458000 42 15 9
0.217916 0.665855 3.458000 38 16 6
0.217916 0.671909 3.458000 23 10 4
0.217916 0.677962 3.458000 8 7 3
0.217916 0.684015 3.458000 6 5 2
0.217916 0.690068 3.458000 4 5 2
0.217916 0.696121 3.458000 3 4 2
0.217916 0.702175 3.458000 3 5 2
0.220122 0.715396 3.493000 3 3 3
0.220122 0.721511 3.493000 3 2 2
0.220122 0.727625 3.493000 3 2 1
0.220122 0.733740 3.493000 4 2 1
0.220122 0.739854 3.493000 4 2 1
0.220122 0.745969 3.493000 4 3 1
0.220122 0.782656 3.493000 6 4 2
0.217916 0.780867 3.458000 5 3 1
0.217916 0.786920 3.458000 4 3 1
0.180042 0.735173 2.857000 128 108 89
0.180042 0.740175 2.857000 131 110 96
0.180042 0.745176 2.857000 131 114 103
0.178593 0.744138 2.834000 132 118 104
0.177081 0.742755 2.810000 134 118 106
0.174245 0.735700 2.765000 136 121 103
0.174245 0.740540 2.765000 137 121 100
0.172858 0.739450 2.743000 139 121 105
0.170212 0.732856 2.701000 139 123 110
0.168888 0.731849 2.680000 140 123 115
0.167565 0.730769 2.659000 141 123 120
0.166305 0.729892 2.639000 143 125 122
0.166305 0.734512 2.639000 143 124 124
0.165044 0.733530 2.619000 144 123 126
0.163784 0.732478 2.599000 146 124 128
0.162586 0.731639 2.580000 149 125 128
0.160192 0.725313 2.542000 147 127 128
0.158994 0.724308 2.523000 145 128 128
0.157860 0.723526 2.505000 146 127 128
0.156726 0.722680 2.487000 148 127 127
0.155591 0.721772 2.469000 147 128 127
0.154457 0.720800 2.451000 146 130 126
0.153386 0.720061 2.434000 147 129 125
0.152315 0.719263 2.417000 149 128 124
0.151243 0.718405 2.400000 147 129 123
0.150235 0.717789 2.384000 146 131 119
0.149164 0.716814 2.367000 141 129 115
0.148155 0.716084 2.351000 136 122 112
0.147147 0.715298 2.335000 130 120 109
0.146202 0.714764 2.320000 125 106 108
0.145194 0.713868 2.304000 121 105 108
0.143303 0.708554 2.274000 118 106 105
0.143303 0.712534 2.274000 114 102 103
0.142358 0.711788 2.259000 111 101 103
0.141412 0.710990 2.244000 111 98 104
0.139585 0.705679 2.215000 111 97 100
0.139585 0.709557 2.215000 112 97 97
0.138703 0.708925 2.201000 112 98 102
0.137820 0.708244 2.187000 113 97 107
0.137001 0.707839 2.174000 114 96 97
0.137001 0.711645 2.174000 115 94 87
0.136119 0.710843 2.160000 116 94 91
0.132779 0.697090 2.107000 115 94 95
0.132023 0.696787 2.095000 113 95 96
0.131204 0.696108 2.082000 113 96 97
0.131204 0.699752 2.082000 113 97 98
0.130384 0.699005 2.069000 113 96 99
0.129628 0.698551 2.057000 113 98 98
0.128872 0.698056 2.045000 112 97 98
0.128116 0.697518 2.033000 112 98 100
0.127359 0.696939 2.021000 113 99 102
0.125910 0.692505 1.998000 113 100 106
0.125154 0.691822 1.986000 113 99 111
0.125154 0.695299 1.986000 112 100 102
0.124461 0.694905 1.975000 112 97 93
0.123767 0.694473 1.964000 111 98 96
0.122318 0.689737 1.941000 112 98 100
0.121688 0.689564 1.931000 112 97 101
0.120995 0.688997 1.920000 114 99 102
0.120301 0.688391 1.909000 115 103 100
0.119671 0.688109 1.899000 114 99 99
0.118978 0.687429 1.888000 113 95 93
0.118978 0.690733 1.888000 114 95 87
0.117718 0.686686 1.868000 116 99 96
0.117087 0.686263 1.858000 117 100 105
0.116457 0.685804 1.848000 118 99 107
0.116457 0.689039 1.848000 118 98 110
0.115827 0.688528 1.838000 117 98 111
0.115197 0.687982 1.828000 119 100 112
0.114630 0.687779 1.819000 121 101 111
0.114000 0.687164 1.809000 118 100 110
0.112802 0.683080 1.790000 115 98 107
0.112235 0.682763 1.781000 112 98 104
0.111668 0.682415 1.772000 110 98 107
0.111101 0.682035 1.763000 112 96 111
0.226236 -1.351304 3.493000 55 26 7
0.226236 -1.345189 3.493000 55 26 11
0.226236 -1.339075 3.493000 56 28 15
0.226236 -1.332960 3.493000 58 24 17
0.226236 -1.326846 3.493000 59 20 20
0.226236 -1.320731 3.493000 61 22 19
0.226236 -1.314617 3.493000 58 26 18
0.226236 -1.308502 3.493000 56 26 13
0.226236 -1.302388 3.493000 60 26 8
0.226236 -1.296273 3.493000 65 25 10
0.226236 -1.290159 3.493000 60 24 12
0.226236 -1.284044 3.493000 56 24 12
0.226236 -1.277930 3.493000 59 23 12
0.226236 -1.271815 3.493000 62 24 13
0.226236 -1.265701 3.493000 59 23 14
0.226236 -1.259586 3.493000 56 25 13
0.226236 -1.253472 3.493000 57 28 11
0.228503 -1.259856 3.528000 59 24 16
0.228503 -1.253680 3.528000 58 22 20
0.228503 -1.247504 3.528000 57 22 16
0.228503 -1.241329 3.528000 53 24 13
0.228503 -1.235153 3.528000 50 24 15
0.228503 -1.228977 3.528000 53 24 18
0.228503 -1.222801 3.528000 56 24 11
0.226236 -1.204556 3.493000 57 23 5
0.226236 -1.198442 3.493000 58 25 5
0.226236 -1.192327 3.493000 58 26 4
0.226236 -1.186213 3.493000 58 23 10
0.226236 -1.180098 3.493000 58 21 16
0.226236 -1.173983 3.493000 58 22 12
0.226236 -1.167869 3.493000 57 21 8
0.226236 -1.161754 3.493000 56 22 10
0.226236 -1.155640 3.493000 57 26 11
0.226236 -1.149526 3.493000 58 28 12
0.226236 -1.143411 3.493000 59 26 13
0.226236 -1.137297 3.493000 60 28 10
0.226236 -1.131182 3.493000 57 30 7
0.226236 -1.125067 3.493000 55 30 10
0.226236 -1.118953 3.493000 56 31 13
0.226236 -1.112839 3.493000 57 28 15
0.226236 -1.106724 3.493000 58 26 18
0.226236 -1.100610 3.493000 60 26 13
0.228503 -1.105462 3.528000 66 26 8
0.228503 -1.099286 3.528000 73 25 6
0.228503 -1.093110 3.528000 67 26 5
0.228503 -1.086935 3.528000 62 28 9
0.228503 -1.080759 3.528000 59 28 13
0.228503 -1.074583 3.528000 56 27 11
0.228503 -1.068407 3.528000 56 27 10
0.226236 -1.051693 3.493000 57 29 10
0.226236 -1.045579 3.493000 58 30 10
0.226236 -1.039464 3.493000 59 26 17
0.226236 -1.033350 3.493000 65 24 25
0.226236 -1.027236 3.493000 72 27 18
0.226236 -1.021121 3.493000 66 30 11
0.226236 -1.015007 3.493000 60 28 11
0.226236 -1.008892 3.493000 60 28 11
0.226236 -1.002777 3.493000 60 29 19
0.226236 -0.996663 3.493000 59 31 27
0.226236 -0.990548 3.493000 59 33 19
0.226236 -0.984434 3.493000 57 34 12
0.226236 -0.978320 3.493000 56 35 14
0.226236 -0.972205 3.493000 60 37 17
0.226236 -0.966091 3.493000 64 31 10
0.226236 -0.959976 3.493000 63 27 4
0.226236 -0.953862 3.493000 63 28 9
0.226236 -0.947747 3.493000 62 29 15
0.226236 -0.941633 3.493000 62 31 20
0.228503 -0.944892 3.528000 61 36 25
0.228503 -0.938716 3.528000 60 34 15
0.228503 -0.932540 3.528000 59 30 6
0.228503 -0.926365 3.528000 58 31 6
0.228503 -0.920189 3.528000 63 32 7
0.226236 -0.904946 3.493000 68 32 9
0.228503 -0.907837 3.528000 71 32 11
0.226236 -0.892717 3.493000 74 28 10
0.226236 -0.886602 3.493000 70 26 9
0.226236 -0.880488 3.493000 66 27 12
0.226236 -0.874373 3.493000 60 28 16
0.226236 -0.868259 3.493000 54 28 12
0.226236 -0.862144 3.493000 56 30 8
0.226236 -0.856030 3.493000 59 32 11
0.226236 -0.849915 3.493000 58 35 13
0.226236 -0.843801 3.493000 58 33 16
0.226236 -0.837686 3.493000 61 38 19
0.226236 -0.831572 3.493000 65 36 18
0.226236 -0.825457 3.493000 63 34 17
0.226236 -0.819343 3.493000 61 35 13
0.226236 -0.813228 3.493000 57 39 8
0.226236 -0.807114 3.493000 54 36 14
0.226236 -0.800999 3.493000 57 33 19
0.226236 -0.794885 3.493000 61 32 19
0.226236 -0.788770 3.493000 62 31 20
0.226236 -0.782656 3.493000 63 32 17
0.226236 -0.776541 3.493000 65 34 15
0.226236 -0.770427 3.493000 67 29 18
0.226236 -0.764312 3.493000 65 26 22
0.226236 -0.758198 3.493000 64 30 16
0.226236 -0.752083 3.493000 65 30 11
0.226236 -0.745969 3.493000 67 30 8
0.226236 -0.739854 3.493000 69 27 6
0.226236 -0.733740 3.493000 71 29 11
0.226236 -0.727625 3.493000 68 31 16
0.226236 -0.721511 3.493000 66 33 21
0.226236 -0.715396 3.493000 64 34 27
0.226236 -0.709282 3.493000 63 31 23
0.226236 -0.703167 3.493000 63 30 20
0.226236 -0.697053 3.493000 64 30 26
0.226236 -0.690938 3.493000 64 31 31
0.226236 -0.684824 3.493000 64 30 23
0.226236 -0.678709 3.493000 65 29 16
0.226236 -0.672595 3.493000 66 29 17
0.226236 -0.666480 3.493000 66 28 18
0.226236 -0.660366 3.493000 67 31 16
0.228503 -0.660807 3.528000 71 34 14
0.228503 -0.654631 3.528000 76 32 14
0.228503 -0.648455 3.528000 72 29 15
0.228503 -0.642279 3.528000 69 31 16
0.228503 -0.636104 3.528000 72 34 18
0.228503 -0.629928 3.528000 76 32 21
0.228503 -0.623752 3.528000 72 34 24
0.228503 -0.617576 3.528000 68 31 20
0.228503 -0.611401 3.528000 69 29 17
0.228503 -0.605225 3.528000 71 30 14
0.228503 -0.599049 3.528000 67 30 11
0.228503 -0.592873 3.528000 63 33 14
0.226236 -0.580877 3.493000 65 32 17
0.226236 -0.574763 3.493000 67 32 15
0.226236 -0.568648 3.493000 66 33 12
0.226236 -0.562534 3.493000 65 33 13
0.226236 -0.556419 3.493000 65 36 15
0.226236 -0.550305 3.493000 65 35 16
0.226236 -0.544190 3.493000 65 36 17
0.226236 -0.538076 3.493000 65 33 14
0.226236 -0.531961 3.493000 64 33 12
0.226236 -0.525847 3.493000 64 34 11
0.226236 -0.519732 3.493000 61 35 10
0.226236 -0.513618 3.493000 59 32 12
0.228503 -0.512588 3.528000 62 27 13
0.228503 -0.506413 3.528000 66 30 18
0.228503 -0.500237 3.528000 65 34 23
0.228503 -0.494061 3.528000 65 35 19
0.228503 -0.487885 3.528000 65 34 16
0.228503 -0.481710 3.528000 66 33 16
0.228503 -0.475534 3.528000 66 31 17
0.228503 -0.469358 3.528000 67 35 14
0.226236 -0.458587 3.493000 67 38 11
0.226236 -0.452473 3.493000 67 35 14
0.226236 -0.446358 3.493000 68 34 18
0.226236 -0.440244 3.493000 69 32 20
0.226236 -0.434129 3.493000 66 31 23
0.226236 -0.428015 3.493000 64 30 26
0.226236 -0.421900 3.493000 64 34 30
0.226236 -0.415786 3.493000 65 33 24
0.226236 -0.409671 3.493000 65 31 19
0.228503 -0.407600 3.528000 65 32 17
0.228503 -0.401425 3.528000 69 33 15
0.228503 -0.395249 3.528000 73 34 20
0.226236 -0.385213 3.493000 71 37 26
0.226236 -0.379099 3.493000 69 34 20
0.226236 -0.372984 3.493000 72 34 13
0.226236 -0.366870 3.493000 76 33 17
0.226236 -0.360755 3.493000 74 32 21
0.226236 -0.354641 3.493000 73 32 13
0.226236 -0.348526 3.493000 75 33 6
0.226236 -0.342412 3.493000 78 33 8
0.226236 -0.336297 3.493000 73 32 9
0.226236 -0.330183 3.493000 69 34 12
0.226236 -0.324068 3.493000 72 36 15
0.223969 -0.314768 3.458000 76 34 16
0.223969 -0.308715 3.458000 72 35 17
0.223969 -0.302661 3.458000 69 37 20
0.223969 -0.296608 3.458000 67 38 23
0.223969 -0.290555 3.458000 65 33 19
0.226236 -0.287381 3.493000 67 30 16
0.226236 -0.281267 3.493000 69 31 13
0.226236 -0.275152 3.493000 68 30 11
0.226236 -0.269038 3.493000 67 33 13
0.226236 -0.262923 3.493000 65 35 16
0.226236 -0.256809 3.493000 64 33 14
0.226236 -0.250694 3.493000 66 32 13
0.223969 -0.242129 3.458000 68 32 17
0.223969 -0.236076 3.458000 68 34 22
0.223969 -0.230023 3.458000 68 29 18
0.223969 -0.223969 3.458000 69 27 14
0.223969 -0.217916 3.458000 70 28 13
0.226236 -0.214007 3.493000 66 30 12
0.226236 -0.207893 3.493000 63 29 22
0.226236 -0.201778 3.493000 59 30 32
0.226236 -0.195664 3.493000 56 30 20
0.223969 -0.187650 3.458000 58 31 8
0.226236 -0.183435 3.493000 61 31 9
0.226236 -0.177320 3.493000 57 32 11
0.226236 -0.171206 3.493000 54 32 18
0.226236 -0.165091 3.493000 56 33 26
0.226236 -0.158977 3.493000 58 31 17
0.226236 -0.152862 3.493000 60 34 8
0.226236 -0.146748 3.493000 62 31 16
0.226236 -0.140633 3.493000 62 29 25
0.226236 -0.134519 3.493000 62 29 19
0.223969 -0.127118 3.458000 62 29 14
0.223969 -0.121065 3.458000 62 30 11
0.223969 -0.115011 3.458000 62 34 8
0.223969 -0.108958 3.458000 62 34 7
0.223969 -0.102905 3.458000 60 36 7
0.223969 -0.096852 3.458000 59 33 8
0.223969 -0.090798 3.458000 60 32 10
0.223969 -0.084745 3.458000 62 31 9
0.223969 -0.078692 3.458000 60 30 8
0.223969 -0.072639 3.458000 58 28 7
0.223969 -0.066585 3.458000 59 24 5
0.223969 -0.060532 3.458000 60 26 16
0.223969 -0.054479 3.458000 60 26 27
0.223969 -0.048426 3.458000 60 27 20
0.223969 -0.042373 3.458000 61 28 14
0.221703 -0.035952 3.423000 62 27 12
0.223969 -0.030266 3.458000 60 24 11
0.223969 -0.024213 3.458000 59 25 17
0.223969 -0.018160 3.458000 58 28 24
0.223969 -0.012106 3.458000 58 31 18
0.223969 -0.006053 3.458000 54 35 13
0.223969 -0.000000 3.458000 50 32 15
0.223969 0.006053 3.458000 56 31 17
0.226236 0.012229 3.493000 63 31 13
0.223969 0.018160 3.458000 65 33 10
0.226236 0.024458 3.493000 68 28 18
0.221703 0.029960 3.423000 65 27 26
0.226236 0.036687 3.493000 63 28 19
0.226236 0.042802 3.493000 62 29 12
0.226236 0.048916 3.493000 62 29 17
0.223969 0.054479 3.458000 62 30 22
0.223969 0.060532 3.458000 62 30 13
0.223969 0.066586 3.458000 62 33 5
0.221703 0.071904 3.423000 63 30 12
0.223969 0.078692 3.458000 62 30 20
0.223969 0.084745 3.458000 62 30 14
0.221703 0.089879 3.423000 62 31 9
0.221703 0.095871 3.423000 62 31 11
0.221703 0.101864 3.423000 65 28 13
0.221703 0.107855 3.423000 69 29 8
0.221703 0.113847 3.423000 64 30 2
0.221703 0.119839 3.423000 60 28 6
0.221703 0.125831 3.423000 59 26 10
0.221703 0.131823 3.423000 58 25 11
0.223969 0.139224 3.458000 59 26 12
0.223969 0.145278 3.458000 60 27 10
0.223969 0.151331 3.458000 60 30 9
0.223969 0.157384 3.458000 60 27 8
0.221703 0.161783 3.423000 60 29 7
0.221703 0.167775 3.423000 60 26 9
0.221703 0.173767 3.423000 59 26 11
0.221703 0.179759 3.423000 58 28 10
0.221703 0.185751 3.423000 59 29 8
0.221703 0.191743 3.423000 60 30 7
0.221703 0.197735 3.423000 60 26 6
0.223969 0.205810 3.458000 60 27 4
0.223969 0.211863 3.458000 62 26 3
0.223969 0.217916 3.458000 64 27 4
0.223969 0.223970 3.458000 66 29 6
0.223969 0.230023 3.458000 69 28 6
0.221703 0.233687 3.423000 65 30 6
0.221703 0.239679 3.423000 62 30 7
0.223969 0.248182 3.458000 61 31 7
0.223969 0.254236 3.458000 61 29 7
0.221703 0.257654 3.423000 58 30 7
0.221703 0.263646 3.423000 56 29 6
0.221703 0.269638 3.423000 59 31 6
0.221703 0.275630 3.423000 62 28 15
0.221703 0.281622 3.423000 61 28 24
0.223969 0.290555 3.458000 61 27 17
0.223969 0.296608 3.458000 60 26 11
0.223969 0.302662 3.458000 60 28 7
0.223969 0.308715 3.458000 60 29 4
0.223969 0.314768 3.458000 60 29 5
0.223969 0.320821 3.458000 58 34 6
0.223969 0.326874 3.458000 57 29 6
0.223969 0.332928 3.458000 57 29 5
0.223969 0.338981 3.458000 57 28 10
0.223969 0.345034 3.458000 52 29 15
0.223969 0.351087 3.458000 47 24 11
0.223969 0.357141 3.458000 50 21 7
0.223969 0.363194 3.458000 54 24 8
0.223969 0.369247 3.458000 56 24 10
0.223969 0.375300 3.458000 58 24 7
0.223969 0.381354 3.458000 56 27 5
0.223969 0.387407 3.458000 54 27 6
0.223969 0.393460 3.458000 51 30 8
0.221703 0.395470 3.423000 49 26 5
0.223969 0.405566 3.458000 52 23 3
0.223969 0.411620 3.458000 55 23 7
0.223969 0.417673 3.458000 55 22 11
0.223969 0.423726 3.458000 56 21 8
0.223969 0.429779 3.458000 60 25 5
0.223969 0.435833 3.458000 65 20 3
0.226236 0.446359 3.493000 59 15 2
0.223969 0.447939 3.458000 54 18 2
0.223969 0.453992 3.458000 53 19 2
0.223969 0.460046 3.458000 53 24 2
0.223969 0.466099 3.458000 53 30 3
0.223969 0.472152 3.458000 54 28 5
0.221703 0.473365 3.423000 56 28 6
0.221703 0.479357 3.423000 59 25 10
0.221703 0.485349 3.423000 58 26 14
0.221703 0.491341 3.423000 58 26 8
0.221703 0.497333 3.423000 58 26 1
0.223969 0.508471 3.458000 58 25 2
0.223969 0.514525 3.458000 56 20 4
0.223969 0.520578 3.458000 55 21 4
0.223969 0.526631 3.458000 50 21 5
0.223969 0.532684 3.458000 46 21 7
0.221703 0.533285 3.423000 49 23 9
0.221703 0.539277 3.423000 52 20 8
0.221703 0.545269 3.423000 53 22 8
0.221703 0.551261 3.423000 54 21 6
0.223969 0.562950 3.458000 52 23 4
0.223969 0.569004 3.458000 51 20 3
0.223969 0.575057 3.458000 50 21 1
0.226236 0.586992 3.493000 49 19 3
0.226236 0.593106 3.493000 49 19 4
0.226236 0.599221 3.493000 49 18 5
0.226236 0.605335 3.493000 48 17 7
0.223969 0.605323 3.458000 47 18 6
0.223969 0.611376 3.458000 44 17 5
0.221703 0.611180 3.423000 42 17 5
0.221703 0.617172 3.423000 45 12 5
0.221703 0.623164 3.423000 49 17 7
0.221703 0.629156 3.423000 45 21 9
0.223969 0.641642 3.458000 42 20 7
0.223969 0.647696 3.458000 43 21 6
0.223969 0.653749 3.458000 44 17 6
0.226236 0.666480 3.493000 40 13 6
0.226236 0.672595 3.493000 36 12 5
0.223969 0.671909 3.458000 21 9 4
0.223969 0.677962 3.458000 7 5 2
0.223969 0.684015 3.458000 5 3 1
0.223969 0.690068 3.458000 4 4 1
0.223969 0.696121 3.458000 4 5 2
0.223969 0.702175 3.458000 4 4 2
0.223969 0.708228 3.458000 4 3 2
0.226236 0.721511 3.493000 4 2 2
0.226236 0.727625 3.493000 4 3 2
0.226236 0.733740 3.493000 5 2 1
0.226236 0.739854 3.493000 5 3 1
0.228503 0.753443 3.528000 5 2 1
0.226236 0.752083 3.493000 6 2 1
0.228503 0.765795 3.528000 7 3 1
0.228503 0.771971 3.528000 8 4 1
0.228503 0.778146 3.528000 9 4 5
0.228503 0.784322 3.528000 7 5 8
0.226236 0.782656 3.493000 5 4 4
0.185044 0.735173 2.857000 127 110 92
0.185044 0.740175 2.857000 129 112 98
0.183554 0.739177 2.834000 131 114 103
0.183554 0.744138 2.834000 134 116 104
0.180575 0.736940 2.788000 134 117 105
0.179085 0.735700 2.765000 134 119 103
0.177660 0.734648 2.743000 136 121 102
0.176300 0.733789 2.722000 138 123 105
0.176300 0.738554 2.722000 139 126 109
0.173580 0.731849 2.680000 140 123 113
0.173580 0.736540 2.680000 141 122 117
0.172219 0.735424 2.659000 143 124 120
0.170924 0.734512 2.639000 143 126 123
0.169629 0.733530 2.619000 143 124 126
0.169629 0.738114 2.619000 144 124 128
0.168333 0.737027 2.599000 146 125 127
0.164641 0.725313 2.542000 145 128 126
0.163411 0.724308 2.523000 144 127 126
0.162245 0.723526 2.505000 147 127 126
0.161079 0.722680 2.487000 150 127 125
0.159913 0.721772 2.469000 147 129 124
0.158748 0.720800 2.451000 145 129 124
0.157646 0.720061 2.434000 145 128 123
0.156545 0.719263 2.417000 146 128 122
0.155444 0.718405 2.400000 146 130 121
0.154408 0.717789 2.384000 147 130 117
0.153307 0.716814 2.367000 141 129 114
0.152271 0.716084 2.351000 135 119 113
0.152271 0.720200 2.351000 130 124 112
0.150263 0.714764 2.320000 126 110 108
0.149227 0.713868 2.304000 121 105 104
0.147284 0.708554 2.274000 117 100 103
0.147284 0.712534 2.274000 112 102 102
0.146312 0.711788 2.259000 107 98 101
0.145340 0.710990 2.244000 108 96 100
0.143462 0.705679 2.215000 109 96 99
0.142555 0.705072 2.201000 111 96 98
0.141649 0.704415 2.187000 113 96 100
0.141649 0.708244 2.187000 112 97 102
0.140807 0.707839 2.174000 112 95 97
0.140807 0.711645 2.174000 112 93 92
0.139900 0.710843 2.160000 112 94 94
0.137309 0.701391 2.120000 112 93 97
0.136467 0.700778 2.107000 113 94 99
0.135690 0.700454 2.095000 113 95 100
0.134848 0.699752 2.082000 113 95 99
