ply
format ascii 1.0
element vertex 1217
property float x
property float y
property float z
property uchar red
property uchar green
property uchar blue
end_header
1.132591 0.750221 2.765000 123 100 117
1.123580 0.749053 2.743000 121 101 118
1.123580 0.753855 2.743000 121 101 119
1.114977 0.752848 2.722000 122 103 119
1.114977 0.757613 2.722000 123 104 119
1.106376 0.756496 2.701000 125 104 118
1.097774 0.755306 2.680000 124 103 118
1.080979 0.748370 2.639000 124 102 117
1.072787 0.747283 2.619000 124 101 116
1.072787 0.751868 2.619000 125 103 118
1.064595 0.750676 2.599000 122 102 121
1.056812 0.749704 2.580000 119 103 119
1.048620 0.748374 2.560000 117 100 118
1.033464 0.741974 2.523000 116 100 114
1.026091 0.741066 2.505000 116 100 111
1.018718 0.740094 2.487000 116 99 112
1.003971 0.733671 2.451000 117 98 114
0.997008 0.732843 2.434000 119 98 111
0.990044 0.731956 2.417000 116 98 108
0.990044 0.736187 2.417000 113 98 109
0.976527 0.730309 2.384000 111 96 111
0.963010 0.724315 2.351000 109 96 109
0.956456 0.723473 2.335000 111 93 107
0.956456 0.727560 2.335000 113 93 104
0.950312 0.726948 2.320000 112 93 102
0.937613 0.721241 2.289000 111 93 105
0.937613 0.725248 2.289000 111 93 109
0.931469 0.724476 2.274000 112 93 113
0.925325 0.723652 2.259000 109 90 118
0.925325 0.727606 2.259000 107 90 119
0.919181 0.726703 2.244000 107 91 120
0.907302 0.721189 2.215000 107 93 114
0.907302 0.725066 2.215000 109 91 108
0.890507 0.715450 2.174000 110 89 109
0.884773 0.714624 2.160000 110 90 111
0.873713 0.709425 2.133000 111 93 109
0.873713 0.713159 2.133000 111 91 107
0.868388 0.712524 2.120000 111 89 106
0.863063 0.711843 2.107000 110 92 105
0.858148 0.711456 2.095000 110 94 106
0.852823 0.710686 2.082000 110 92 108
0.847498 0.709870 2.069000 110 93 113
0.847498 0.713492 2.069000 109 92 118
0.842582 0.712954 2.057000 109 93 101
0.842582 0.716555 2.057000 111 94 84
0.832751 0.711753 2.033000 114 97 92
0.822921 0.706868 2.009000 115 93 100
0.818415 0.706495 1.998000 117 91 103
0.813499 0.705728 1.986000 113 89 107
0.808994 0.705277 1.975000 110 87 106
0.804488 0.704786 1.964000 111 90 106
0.799572 0.703897 1.952000 113 93 107
0.795067 0.703328 1.941000 109 90 108
0.790970 0.703085 1.931000 106 91 105
0.790970 0.706465 1.931000 108 92 103
0.781959 0.701758 1.909000 110 94 106
0.773357 0.697343 1.888000 108 92 110
0.765165 0.693226 1.868000 107 91 103
0.761068 0.692768 1.858000 106 90 96
0.756972 0.692274 1.848000 105 93 96
0.756972 0.695509 1.848000 108 90 97
0.756972 0.698744 1.848000 111 88 87
0.752876 0.698180 1.838000 109 88 78
0.748780 0.697581 1.828000 108 90 90
0.740997 0.693498 1.809000 103 88 102
0.740997 0.696664 1.809000 99 88 99
0.737311 0.696349 1.800000 102 87 97
0.733214 0.695614 1.790000 104 85 94
0.729528 0.695234 1.781000 104 86 92
1.367386 0.785520 3.324000 130 108 129
1.341881 0.776578 3.262000 127 106 127
1.341881 0.782288 3.262000 125 105 125
1.329129 0.780510 3.231000 124 105 119
1.316787 0.778866 3.201000 124 106 114
1.304858 0.777362 3.172000 125 106 118
1.292928 0.775757 3.143000 125 106 122
1.281410 0.774299 3.115000 125 106 123
1.269892 0.772743 3.087000 126 109 124
1.258373 0.771089 3.059000 128 109 124
1.247678 0.769844 3.033000 128 108 123
1.236571 0.768253 3.006000 128 105 125
1.225875 0.766824 2.980000 127 103 126
1.215591 0.765564 2.955000 126 103 128
1.195023 0.757695 2.905000 125 103 129
1.175277 0.750177 2.857000 124 102 127
1.175277 0.755178 2.857000 123 103 126
1.165816 0.754060 2.834000 123 103 126
1.165816 0.759020 2.834000 123 102 127
1.146893 0.751581 2.788000 123 101 123
1.137431 0.750221 2.765000 122 100 119
1.128381 0.749053 2.743000 121 101 120
1.119743 0.748083 2.722000 121 102 122
1.119743 0.752848 2.722000 122 103 121
1.119743 0.757613 2.722000 125 104 120
1.111104 0.756496 2.701000 129 104 120
1.111104 0.761224 2.701000 127 105 120
1.085599 0.748370 2.639000 125 103 119
1.085599 0.752990 2.639000 126 103 118
1.077372 0.751868 2.619000 127 102 122
1.069144 0.750676 2.599000 124 101 126
1.061328 0.749704 2.580000 121 101 122
1.053101 0.748374 2.560000 119 100 119
1.045696 0.747562 2.542000 117 100 117
1.015666 0.730416 2.469000 117 102 115
1.023071 0.740094 2.487000 117 100 115
1.008262 0.733671 2.451000 117 98 115
0.994275 0.727725 2.417000 118 97 113
0.994275 0.731956 2.417000 116 99 111
0.987282 0.731009 2.400000 115 97 111
0.980700 0.730309 2.384000 110 96 111
0.967125 0.724315 2.351000 106 95 110
0.967125 0.728430 2.351000 110 94 109
0.960543 0.727560 2.335000 114 94 107
0.947791 0.721934 2.304000 112 97 105
0.941620 0.721241 2.289000 110 96 108
0.935450 0.720495 2.274000 110 96 111
0.935450 0.724476 2.274000 111 93 113
0.929279 0.723652 2.259000 109 92 115
0.929279 0.727606 2.259000 108 91 115
0.923109 0.726703 2.244000 107 91 115
0.911179 0.721189 2.215000 106 93 108
0.905420 0.720483 2.201000 108 94 101
0.894313 0.715450 2.174000 110 91 108
0.888554 0.714624 2.160000 110 91 114
0.883206 0.714082 2.147000 111 91 109
0.877447 0.713159 2.133000 111 91 105
0.866751 0.708154 2.107000 112 91 105
0.861815 0.707789 2.095000 111 94 106
0.861815 0.711456 2.095000 111 93 106
0.856467 0.710686 2.082000 111 93 107
0.851119 0.709870 2.069000 112 92 110
0.851119 0.713492 2.069000 112 91 112
0.846183 0.712954 2.057000 112 92 102
0.846183 0.716555 2.057000 113 92 92
0.836310 0.711753 2.033000 114 94 99
0.826437 0.706868 2.009000 113 93 106
0.823969 0.708263 2.003000 113 91 106
0.821912 0.709992 1.998000 111 90 107
0.812451 0.705277 1.975000 110 89 106
0.807926 0.704786 1.964000 110 89 106
0.802989 0.703897 1.952000 110 91 109
0.798464 0.703328 1.941000 106 91 112
0.794351 0.703085 1.931000 103 91 106
0.794351 0.706465 1.931000 106 91 101
0.789826 0.705802 1.920000 109 93 103
0.781187 0.701406 1.899000 108 96 105
0.772548 0.696937 1.878000 107 92 103
0.764321 0.692768 1.858000 104 91 101
0.764321 0.696020 1.858000 102 91 100
0.760207 0.695509 1.848000 107 91 100
0.760207 0.698744 1.848000 113 89 93
0.756094 0.698180 1.838000 111 87 87
0.751980 0.697581 1.828000 109 88 94
0.748278 0.697331 1.819000 107 88 102
0.744164 0.696664 1.809000 105 88 100
0.740461 0.696349 1.800000 107 88 99
0.736348 0.695614 1.790000 109 85 99
0.732646 0.695234 1.781000 106 85 100
1.360398 0.778194 3.293000 133 112 131
1.347591 0.776578 3.262000 129 107 128
1.334784 0.774854 3.231000 127 106 126
1.322391 0.773263 3.201000 126 107 124
1.322391 0.778866 3.201000 127 106 123
1.310410 0.777362 3.172000 129 106 126
1.298430 0.775757 3.143000 127 106 129
1.298430 0.781259 3.143000 126 107 127
1.286863 0.779752 3.115000 127 110 126
1.275295 0.778147 3.087000 128 113 126
1.252987 0.769844 3.033000 129 109 126
1.241833 0.768253 3.006000 130 105 127
1.231092 0.766824 2.980000 128 104 128
1.220764 0.765564 2.955000 126 104 128
1.200108 0.757695 2.905000 126 104 129
1.190193 0.756479 2.881000 127 104 128
1.180278 0.755178 2.857000 126 104 127
1.170776 0.754060 2.834000 124 105 130
1.160862 0.752593 2.810000 125 102 133
1.142271 0.745381 2.765000 127 101 127
1.133183 0.744251 2.743000 124 102 121
1.124507 0.743318 2.722000 122 103 123
1.124507 0.748083 2.722000 122 103 126
1.124507 0.752848 2.722000 122 104 123
1.115832 0.751768 2.701000 123 104 121
1.115832 0.756496 2.701000 123 105 121
1.115832 0.761224 2.701000 123 105 122
1.098481 0.754042 2.659000 124 105 121
1.090218 0.752990 2.639000 124 105 120
1.081956 0.751868 2.619000 124 104 125
1.073694 0.750676 2.599000 122 103 131
1.065845 0.749704 2.580000 120 103 126
1.050146 0.743112 2.542000 117 101 121
1.027424 0.731387 2.487000 115 101 120
1.019988 0.730416 2.469000 118 100 119
1.027424 0.740094 2.487000 121 102 118
1.012552 0.733671 2.451000 120 98 117
1.005529 0.732843 2.434000 119 96 116
0.998506 0.731956 2.417000 117 96 115
0.991483 0.731009 2.400000 116 98 113
0.984873 0.730309 2.384000 113 96 111
0.977850 0.729244 2.367000 111 94 111
0.964631 0.723473 2.335000 112 93 111
0.958434 0.722887 2.320000 114 94 109
0.951824 0.721934 2.304000 111 96 108
0.939430 0.716515 2.274000 109 98 110
0.939430 0.720495 2.274000 112 95 113
0.933234 0.719697 2.259000 114 91 112
0.927037 0.718846 2.244000 112 91 112
0.927037 0.722775 2.244000 109 93 111
0.921253 0.722169 2.230000 108 93 110
0.915056 0.721189 2.215000 107 95 102
0.909273 0.720483 2.201000 108 94 95
0.898118 0.715450 2.174000 109 90 106
0.892335 0.714624 2.160000 109 91 118
0.886964 0.714082 2.147000 110 91 110
0.881181 0.713159 2.133000 113 91 103
0.875810 0.712524 2.120000 115 91 105
0.870440 0.711843 2.107000 114 92 107
0.870440 0.715531 2.107000 112 93 107
0.865482 0.715123 2.095000 112 93 107
0.854741 0.709870 2.069000 111 92 107
0.854741 0.713492 2.069000 111 92 107
0.849784 0.712954 2.057000 110 94 103
0.844826 0.712375 2.045000 112 94 100
0.839869 0.711753 2.033000 113 95 106
0.834911 0.711090 2.021000 113 94 112
0.829954 0.710385 2.009000 114 92 109
0.820452 0.705728 1.986000 113 92 107
0.815908 0.705277 1.975000 112 92 106
0.811364 0.704786 1.964000 111 92 106
0.801862 0.699931 1.941000 110 94 111
0.801862 0.703328 1.941000 108 92 116
0.797731 0.703085 1.931000 106 92 108
0.797731 0.706465 1.931000 109 91 100
0.793187 0.705802 1.920000 113 91 100
0.788642 0.705100 1.909000 110 92 101
0.779967 0.700648 1.888000 108 92 104
0.771704 0.696496 1.868000 106 91 107
0.767573 0.696020 1.858000 105 91 105
0.763442 0.695509 1.848000 107 91 103
0.763442 0.698744 1.848000 110 90 100
0.763442 0.701979 1.848000 109 87 97
0.759311 0.701397 1.838000 109 88 99
0.751462 0.697331 1.819000 107 88 102
0.747330 0.696664 1.809000 105 88 102
0.743612 0.696349 1.800000 106 87 102
0.739481 0.695614 1.790000 106 85 105
0.735763 0.695234 1.781000 105 85 108
1.366162 0.778194 3.293000 136 121 132
1.340440 0.769198 3.231000 132 111 125
1.327994 0.767659 3.201000 130 108 119
1.327994 0.773263 3.201000 128 107 120
1.315963 0.771810 3.172000 130 108 122
1.315963 0.777362 3.172000 133 107 121
1.303932 0.775757 3.143000 130 107 121
1.292316 0.774299 3.115000 127 109 122
1.292316 0.779752 3.115000 128 111 124
1.292316 0.785205 3.115000 129 112 125
1.258296 0.769844 3.033000 130 110 126
1.247095 0.768253 3.006000 132 106 127
1.236308 0.766824 2.980000 129 104 129
1.225937 0.765564 2.955000 126 106 131
1.205193 0.757695 2.905000 128 105 133
1.185279 0.750177 2.857000 131 104 129
1.175738 0.749099 2.834000 128 104 126
1.165781 0.747674 2.810000 126 104 127
1.165781 0.752593 2.810000 128 102 129
1.156653 0.751581 2.788000 131 102 123
1.137984 0.744251 2.743000 127 104 117
1.129272 0.743318 2.722000 124 104 122
1.129272 0.748083 2.722000 123 104 127
1.129272 0.752848 2.722000 123 104 125
1.120560 0.751768 2.701000 120 105 123
1.120560 0.756496 2.701000 118 106 125
1.111848 0.755306 2.680000 120 105 127
1.094838 0.748370 2.639000 123 106 123
1.086541 0.747283 2.619000 122 108 120
1.078243 0.746126 2.599000 122 105 123
1.070361 0.745188 2.580000 121 104 126
1.062064 0.743893 2.560000 120 102 122
1.054596 0.743112 2.542000 116 101 118
1.046713 0.741974 2.523000 113 99 120
1.031778 0.735741 2.487000 119 98 123
1.031778 0.740094 2.487000 125 98 120
1.024310 0.739060 2.469000 122 97 118
1.009790 0.732843 2.434000 120 95 117
1.002737 0.731956 2.417000 118 93 115
0.995685 0.731009 2.400000 117 95 113
0.989047 0.730309 2.384000 116 97 112
0.975356 0.724315 2.351000 116 95 111
0.968718 0.723473 2.335000 115 92 110
0.962495 0.722887 2.320000 114 94 109
0.955857 0.721934 2.304000 111 97 109
0.943411 0.716515 2.274000 109 97 112
0.943411 0.720495 2.274000 113 96 116
0.943411 0.724476 2.274000 118 92 113
0.937188 0.723652 2.259000 114 90 111
0.930965 0.722775 2.244000 111 93 112
0.930965 0.726703 2.244000 110 94 113
0.918934 0.721189 2.215000 109 96 106
0.913126 0.720483 2.201000 108 97 99
0.907317 0.719729 2.187000 108 93 106
0.896116 0.714624 2.160000 109 93 113
0.890723 0.714082 2.147000 110 93 108
0.884915 0.713159 2.133000 114 93 103
0.879521 0.712524 2.120000 119 92 104
0.874128 0.711843 2.107000 116 93 106
0.874128 0.715531 2.107000 114 93 108
0.874128 0.719219 2.107000 112 94 111
0.869150 0.718790 2.095000 111 93 108
0.863756 0.717975 2.082000 110 93 106
0.853385 0.712954 2.057000 109 94 100
0.848406 0.712375 2.045000 111 97 95
0.843428 0.711753 2.033000 113 96 101
0.838449 0.711090 2.021000 114 96 107
0.833471 0.710385 2.009000 115 95 106
0.823929 0.705728 1.986000 114 95 105
0.819365 0.705277 1.975000 114 92 103
0.814802 0.704786 1.964000 112 93 100
0.809823 0.703897 1.952000 110 91 105
0.801111 0.699705 1.931000 110 91 110
0.801111 0.703085 1.931000 110 90 100
0.801111 0.706465 1.931000 113 91 90
0.796548 0.705802 1.920000 117 91 95
0.791984 0.705100 1.909000 113 92 100
0.787835 0.704730 1.899000 109 91 104
0.779123 0.700225 1.878000 108 90 109
0.770826 0.696020 1.858000 108 91 104
0.766677 0.695509 1.848000 108 93 100
0.766677 0.698744 1.848000 108 90 96
0.762528 0.698180 1.838000 108 86 93
0.762528 0.701397 1.838000 109 88 98
0.754646 0.697331 1.819000 107 88 103
0.750497 0.696664 1.809000 106 88 101
0.746763 0.696349 1.800000 105 88 99
0.742615 0.695614 1.790000 104 85 101
0.738881 0.695234 1.781000 103 82 104
1.371926 0.778194 3.293000 135 113 133
1.346096 0.769198 3.231000 132 108 122
1.346096 0.774854 3.231000 130 106 112
1.333598 0.773263 3.201000 128 105 116
1.321516 0.771810 3.172000 129 107 121
1.321516 0.777362 3.172000 130 109 117
1.309434 0.775757 3.143000 129 109 114
1.309434 0.781259 3.143000 127 111 118
1.309434 0.786761 3.143000 128 112 122
1.309434 0.792263 3.143000 128 114 124
1.241525 0.761608 2.980000 130 107 128
1.241525 0.766824 2.980000 128 107 131
1.241525 0.772041 2.980000 126 111 134
1.200279 0.751436 2.881000 127 107 137
1.200279 0.756479 2.881000 128 104 131
1.200279 0.761522 2.881000 125 105 126
1.180698 0.754060 2.834000 123 108 125
1.180698 0.759020 2.834000 125 105 125
1.161534 0.751581 2.788000 128 103 119
1.142786 0.744251 2.743000 124 104 113
1.134037 0.743318 2.722000 120 105 120
1.134037 0.748083 2.722000 121 104 128
1.125288 0.747040 2.701000 123 104 127
1.125288 0.751768 2.701000 122 106 126
1.116539 0.750615 2.680000 120 109 129
1.107790 0.749388 2.659000 121 107 132
1.099458 0.748370 2.639000 122 107 126
1.091125 0.747283 2.619000 122 106 121
1.082793 0.746126 2.599000 122 105 121
1.074877 0.745188 2.580000 123 103 121
1.066545 0.743893 2.560000 125 103 118
1.059046 0.743112 2.542000 121 101 116
1.051130 0.741974 2.523000 117 99 121
1.043631 0.741066 2.505000 120 98 127
1.036132 0.740094 2.487000 122 98 123
1.028632 0.739060 2.469000 121 97 120
1.021133 0.737962 2.451000 120 95 118
1.006968 0.731956 2.417000 119 94 116
0.999886 0.731009 2.400000 118 94 114
0.986137 0.725101 2.367000 117 97 113
0.979471 0.724315 2.351000 116 98 111
0.972805 0.723473 2.335000 115 94 109
0.966556 0.722887 2.320000 115 93 109
0.959890 0.721934 2.304000 114 96 110
0.953641 0.721241 2.289000 112 99 115
0.947392 0.720495 2.274000 114 96 120
0.947392 0.724476 2.274000 116 94 115
0.941142 0.723652 2.259000 113 94 110
0.941142 0.727606 2.259000 110 96 113
0.941142 0.731560 2.259000 110 96 117
0.922811 0.721189 2.215000 110 98 110
0.911146 0.715900 2.187000 108 96 104
0.905730 0.715450 2.174000 106 95 106
0.899897 0.714624 2.160000 107 94 108
0.894481 0.714082 2.147000 109 97 106
0.894481 0.717840 2.147000 110 94 104
0.888648 0.716893 2.133000 112 93 104
0.883232 0.716235 2.120000 112 95 105
0.877816 0.715531 2.107000 113 95 110
0.872817 0.715123 2.095000 112 95 116
0.867401 0.714330 2.082000 112 96 110
0.861985 0.713492 2.069000 113 94 105
0.856985 0.712954 2.057000 115 94 97
0.851986 0.712375 2.045000 114 95 90
0.846986 0.711753 2.033000 114 96 96
0.841987 0.711090 2.021000 113 96 103
0.832405 0.706495 1.998000 113 97 103
0.827405 0.705728 1.986000 113 94 104
0.822823 0.705277 1.975000 114 91 99
0.818240 0.704786 1.964000 113 91 95
0.813240 0.703897 1.952000 111 88 99
0.808658 0.703328 1.941000 111 89 104
0.804491 0.703085 1.931000 110 89 92
0.804491 0.706465 1.931000 111 91 81
0.799909 0.705802 1.920000 112 91 90
0.795326 0.705100 1.909000 111 92 99
0.791160 0.704730 1.899000 109 93 105
0.782411 0.700225 1.878000 108 90 111
0.774078 0.696020 1.858000 107 90 104
0.769912 0.695509 1.848000 106 91 98
0.769912 0.698744 1.848000 104 92 93
0.765746 0.698180 1.838000 106 89 89
0.765746 0.701397 1.838000 107 90 96
0.757830 0.697331 1.819000 106 89 104
0.753664 0.696664 1.809000 105 88 100
0.749914 0.696349 1.800000 106 87 96
0.745748 0.695614 1.790000 107 87 98
0.741998 0.695234 1.781000 103 86 100
1.370997 0.774413 3.277000 133 111 135
1.351752 0.769198 3.231000 133 107 126
1.351752 0.774854 3.231000 131 106 118
1.339201 0.773263 3.201000 129 107 119
1.339201 0.778866 3.201000 128 108 121
1.327068 0.777362 3.172000 128 109 120
1.327068 0.782915 3.172000 128 109 119
1.314936 0.781259 3.143000 128 110 121
1.314936 0.786761 3.143000 128 113 124
1.327068 0.799573 3.172000 128 112 125
1.246741 0.772041 2.980000 126 109 129
1.208670 0.753522 2.889000 125 108 130
1.205323 0.756479 2.881000 125 105 125
1.205323 0.761522 2.881000 122 105 120
1.195282 0.760179 2.857000 120 107 124
1.185659 0.759020 2.834000 122 107 127
1.175618 0.757512 2.810000 125 104 122
1.156792 0.750221 2.765000 120 104 118
1.147588 0.749053 2.743000 116 105 125
1.138802 0.748083 2.722000 120 104 133
1.130016 0.747040 2.701000 124 105 129
1.130016 0.751768 2.701000 123 109 125
1.121230 0.750615 2.680000 123 109 126
1.112445 0.749388 2.659000 122 107 127
1.095710 0.742699 2.619000 121 106 120
1.095710 0.747283 2.619000 121 105 114
1.079393 0.740672 2.580000 122 104 116
1.071026 0.739411 2.560000 126 103 119
1.071026 0.743893 2.560000 130 103 115
1.063495 0.743112 2.542000 126 101 111
1.055546 0.741974 2.523000 122 100 118
1.048016 0.741066 2.505000 121 100 124
1.040485 0.740094 2.487000 120 99 121
1.032954 0.739060 2.469000 120 98 119
1.025424 0.737962 2.451000 120 97 117
1.011199 0.731956 2.417000 119 96 116
1.004087 0.731009 2.400000 119 97 118
0.990281 0.725101 2.367000 117 101 119
0.983587 0.724315 2.351000 116 98 113
0.976893 0.723473 2.335000 116 93 107
0.976893 0.727560 2.335000 117 94 109
0.963923 0.721934 2.304000 116 98 111
0.957648 0.721241 2.289000 116 98 113
0.951372 0.720495 2.274000 115 97 115
0.951372 0.724476 2.274000 115 96 111
0.945097 0.723652 2.259000 112 97 108
0.945097 0.727606 2.259000 110 97 110
0.938821 0.726703 2.244000 110 98 112
0.932964 0.726072 2.230000 111 96 107
0.920831 0.720483 2.201000 107 94 101
0.914974 0.719729 2.187000 104 93 100
0.909535 0.719256 2.174000 106 91 99
0.903678 0.718405 2.160000 108 94 100
0.903678 0.722186 2.160000 107 96 102
0.898239 0.721598 2.147000 106 95 100
0.886943 0.716235 2.120000 109 99 98
0.881505 0.715531 2.107000 112 96 105
0.876484 0.715123 2.095000 112 97 113
0.871045 0.714330 2.082000 113 96 109
0.865607 0.713492 2.069000 117 95 106
0.860586 0.712954 2.057000 121 95 101
0.855566 0.712375 2.045000 118 95 97
0.850545 0.711753 2.033000 115 95 100
0.840504 0.706868 2.009000 113 97 104
0.840504 0.710385 2.009000 111 96 105
0.835902 0.709992 1.998000 113 93 106
0.830882 0.709205 1.986000 115 92 103
0.821678 0.704786 1.964000 114 93 100
0.821678 0.708224 1.964000 113 90 102
0.812055 0.703328 1.941000 112 88 104
0.812055 0.706726 1.941000 111 90 96
0.807872 0.706465 1.931000 109 93 89
0.803269 0.705802 1.920000 108 92 95
0.798667 0.705100 1.909000 109 92 101
0.789882 0.700648 1.888000 110 91 104
0.785698 0.700225 1.878000 108 90 108
0.777331 0.696020 1.858000 107 89 104
0.773147 0.695509 1.848000 104 89 101
0.768963 0.694963 1.838000 101 91 98
0.768963 0.698180 1.838000 103 91 95
0.768963 0.701397 1.838000 106 90 98
0.764780 0.700781 1.828000 105 91 102
0.761014 0.700515 1.819000 105 88 98
0.753065 0.696349 1.800000 108 87 95
0.748881 0.695614 1.790000 111 88 96
0.745116 0.695234 1.781000 103 89 97
1.370431 0.770868 3.262000 135 111 137
1.357408 0.769198 3.231000 132 105 130
1.344804 0.767659 3.201000 130 107 124
1.344804 0.773263 3.201000 129 109 123
1.344804 0.778866 3.201000 127 109 122
1.332621 0.777362 3.172000 126 111 123
1.332621 0.782915 3.172000 127 109 124
1.320437 0.781259 3.143000 128 110 125
1.320437 0.786761 3.143000 128 111 126
1.332621 0.799573 3.172000 128 111 126
1.217088 0.755609 2.897000 126 109 124
1.210366 0.756479 2.881000 126 105 119
1.210366 0.761522 2.881000 125 106 115
1.210366 0.766565 2.881000 123 110 122
1.200283 0.765180 2.857000 125 107 130
1.190620 0.763981 2.834000 127 105 126
1.161632 0.750221 2.765000 124 104 123
1.143567 0.743318 2.722000 120 107 131
1.143567 0.748083 2.722000 122 105 139
1.134744 0.747040 2.701000 125 104 131
1.134744 0.751768 2.701000 126 108 124
1.125922 0.750615 2.680000 127 112 123
1.117099 0.749388 2.659000 125 111 123
1.108697 0.748370 2.639000 122 107 115
1.100294 0.747283 2.619000 122 105 107
1.083910 0.740672 2.580000 121 104 112
1.075507 0.739411 2.560000 120 104 117
1.075507 0.743893 2.560000 120 105 112
1.067945 0.743112 2.542000 120 102 107
1.067945 0.747562 2.542000 120 103 114
1.059963 0.746391 2.523000 118 101 122
1.052401 0.745451 2.505000 115 100 120
1.037276 0.739060 2.469000 117 99 118
1.029714 0.737962 2.451000 119 99 117
1.015430 0.731956 2.417000 119 98 117
1.008288 0.731009 2.400000 120 100 121
0.994424 0.725101 2.367000 118 100 126
0.987702 0.724315 2.351000 116 101 115
0.980980 0.723473 2.335000 115 95 105
0.980980 0.727560 2.335000 114 94 109
0.967957 0.721934 2.304000 115 96 113
0.961655 0.721241 2.289000 116 98 111
0.955353 0.720495 2.274000 116 97 110
0.955353 0.724476 2.274000 116 99 108
0.949051 0.723652 2.259000 114 98 106
0.942749 0.722775 2.244000 113 98 107
0.942749 0.726703 2.244000 112 97 108
0.936868 0.726072 2.230000 112 97 103
0.930566 0.725066 2.215000 110 95 99
0.918802 0.719729 2.187000 109 95 94
0.918802 0.723557 2.187000 109 93 90
0.913341 0.723062 2.174000 109 93 95
0.913341 0.726867 2.174000 109 94 101
0.901998 0.721598 2.147000 109 94 96
0.890654 0.716235 2.120000 110 95 92
0.885193 0.715531 2.107000 111 96 101
0.880151 0.715123 2.095000 110 96 110
0.874690 0.714330 2.082000 109 98 108
0.869228 0.713492 2.069000 112 96 107
0.864187 0.712954 2.057000 116 96 105
0.859145 0.712375 2.045000 115 93 104
0.854104 0.711753 2.033000 115 94 104
0.849063 0.711090 2.021000 114 97 105
0.844021 0.710385 2.009000 113 100 106
0.841500 0.711769 2.003000 115 96 108
0.834358 0.709205 1.986000 118 94 106
0.825116 0.704786 1.964000 115 93 105
0.820074 0.703897 1.952000 113 94 104
0.815453 0.703328 1.941000 112 91 104
0.811252 0.703085 1.931000 112 92 100
0.811252 0.706465 1.931000 108 92 97
0.806630 0.705802 1.920000 105 94 100
0.806630 0.709163 1.920000 108 93 104
0.797808 0.704730 1.899000 111 91 104
0.793187 0.703953 1.888000 109 90 105
0.784784 0.699766 1.868000 108 90 104
0.776382 0.695509 1.848000 105 90 104
0.776382 0.698744 1.848000 102 94 102
0.772181 0.698180 1.838000 103 92 101
0.772181 0.701397 1.838000 105 91 100
0.767979 0.700781 1.828000 105 90 100
0.764198 0.700515 1.819000 106 89 97
0.759997 0.699831 1.809000 108 89 94
0.756216 0.699500 1.800000 110 91 94
0.748234 0.695234 1.781000 105 90 94
1.363064 0.763542 3.231000 137 110 144
1.363064 0.769198 3.231000 132 108 136
1.350408 0.767659 3.201000 130 108 128
1.350408 0.773263 3.201000 129 110 126
1.350408 0.778866 3.201000 126 111 123
1.350408 0.784469 3.201000 124 109 124
1.338173 0.782915 3.172000 126 109 125
1.338173 0.788467 3.172000 128 109 126
1.338173 0.794020 3.172000 128 110 128
1.338173 0.799573 3.172000 129 110 126
1.225534 0.757695 2.905000 128 116 125
1.225534 0.762781 2.905000 128 109 121
1.215409 0.761522 2.881000 127 105 118
1.215409 0.766565 2.881000 127 106 122
1.205284 0.765180 2.857000 128 106 126
1.185456 0.757512 2.810000 130 103 121
1.157191 0.744251 2.743000 127 102 115
1.157191 0.749053 2.743000 125 104 123
1.148332 0.748083 2.722000 125 106 131
1.148332 0.752848 2.722000 126 106 122
1.139472 0.751768 2.701000 129 110 114
1.130613 0.750615 2.680000 132 113 118
1.121754 0.749388 2.659000 128 120 122
1.113316 0.748370 2.639000 124 109 118
1.096442 0.741577 2.599000 122 105 113
1.088426 0.740672 2.580000 121 104 116
1.088426 0.745188 2.580000 115 106 120
1.079989 0.743893 2.560000 110 104 118
1.072395 0.743112 2.542000 114 99 116
1.072395 0.747562 2.542000 119 101 122
1.064379 0.746391 2.523000 115 101 129
1.049192 0.740094 2.487000 111 100 121
1.041598 0.739060 2.469000 114 99 114
1.026833 0.732843 2.434000 118 100 115
1.019661 0.731956 2.417000 119 100 116
1.012489 0.731009 2.400000 121 100 118
0.998567 0.725101 2.367000 119 100 121
0.998567 0.729244 2.367000 117 99 115
0.985068 0.723473 2.335000 114 95 109
0.978740 0.722887 2.320000 111 94 112
0.971990 0.721934 2.304000 114 97 116
0.965662 0.721241 2.289000 117 97 113
0.959334 0.720495 2.274000 117 97 110
0.953006 0.719697 2.259000 118 98 107
0.953006 0.723652 2.259000 117 99 105
0.946678 0.722775 2.244000 116 97 105
0.946678 0.726703 2.244000 114 95 105
0.940771 0.726072 2.230000 113 96 103
0.928537 0.720483 2.201000 114 97 102
0.922631 0.719729 2.187000 115 95 99
0.922631 0.723557 2.187000 113 93 97
0.917147 0.723062 2.174000 111 93 100
0.917147 0.726867 2.174000 112 94 104
0.911240 0.725967 2.160000 113 94 104
0.894366 0.716235 2.120000 112 93 105
0.883819 0.711456 2.095000 111 94 108
0.878334 0.710686 2.082000 108 94 110
0.872850 0.709870 2.069000 105 96 109
0.867788 0.709354 2.057000 108 96 108
0.862725 0.708795 2.045000 112 94 110
0.857663 0.708195 2.033000 113 90 112
0.852600 0.707552 2.021000 115 93 111
0.852600 0.711090 2.021000 115 98 110
0.847538 0.710385 2.009000 115 98 112
0.847538 0.713901 2.009000 118 98 114
0.837835 0.709205 1.986000 121 95 111
0.828554 0.704786 1.964000 117 93 107
0.818851 0.699931 1.941000 114 92 106
0.814632 0.699705 1.931000 113 92 104
0.814632 0.703085 1.931000 113 92 102
0.814632 0.706465 1.931000 107 91 100
0.809991 0.705802 1.920000 102 92 102
0.809991 0.709163 1.920000 107 95 103
0.805351 0.708441 1.909000 112 92 101
0.801132 0.708055 1.899000 111 91 98
0.788054 0.699766 1.868000 110 90 106
0.779617 0.695509 1.848000 106 90 113
0.775398 0.694963 1.838000 103 92 109
0.775398 0.698180 1.838000 104 95 104
0.775398 0.701397 1.838000 105 91 101
0.771179 0.700781 1.828000 106 90 99
0.767383 0.700515 1.819000 107 90 94
0.763164 0.699831 1.809000 108 92 89
0.759367 0.699500 1.800000 110 91 93
0.755148 0.698747 1.790000 107 91 98
1.356011 0.767659 3.201000 131 110 133
1.356011 0.773263 3.201000 130 113 129
1.356011 0.778866 3.201000 131 110 125
1.356011 0.784469 3.201000 132 108 125
1.343726 0.782915 3.172000 131 108 126
1.343726 0.788467 3.172000 130 108 128
1.331441 0.786761 3.143000 130 108 131
1.331441 0.792263 3.143000 129 108 126
1.241210 0.764216 2.930000 129 112 126
1.230619 0.762781 2.905000 129 113 123
1.220452 0.761522 2.881000 128 108 121
1.220452 0.766565 2.881000 127 104 122
1.210285 0.765180 2.857000 126 103 123
1.200542 0.763981 2.834000 126 101 115
1.161992 0.744251 2.743000 125 102 108
1.153096 0.743318 2.722000 125 101 115
1.153096 0.748083 2.722000 125 104 123
1.144200 0.747040 2.701000 126 107 114
1.135304 0.745923 2.680000 125 109 105
1.126408 0.744733 2.659000 125 112 113
1.117936 0.743751 2.639000 124 111 122
1.109464 0.742699 2.619000 124 106 121
1.092942 0.736156 2.580000 124 104 120
1.092942 0.740672 2.580000 125 103 121
1.084470 0.739411 2.560000 120 105 123
1.084470 0.743893 2.560000 116 108 124
1.076845 0.743112 2.542000 118 103 126
1.076845 0.747562 2.542000 120 104 131
1.068796 0.746391 2.523000 118 103 136
1.053546 0.740094 2.487000 115 102 123
1.045920 0.739060 2.469000 117 101 110
1.038295 0.737962 2.451000 119 103 112
1.023892 0.731956 2.417000 120 101 115
1.016690 0.731009 2.400000 122 101 115
1.009913 0.730309 2.384000 120 101 116
1.002711 0.729244 2.367000 119 102 114
0.995933 0.728430 2.351000 117 96 113
0.989155 0.727560 2.335000 115 93 116
0.976023 0.721934 2.304000 116 95 119
0.969669 0.721241 2.289000 117 98 114
0.963314 0.720495 2.274000 118 98 110
0.956960 0.719697 2.259000 119 99 107
0.956960 0.723652 2.259000 120 98 105
0.950606 0.722775 2.244000 120 99 103
0.950606 0.726703 2.244000 115 96 102
0.944675 0.726072 2.230000 111 97 103
0.932390 0.720483 2.201000 114 96 105
0.926459 0.719729 2.187000 118 96 104
0.920952 0.719256 2.174000 114 95 104
0.920952 0.723062 2.174000 109 95 105
0.915021 0.722186 2.160000 111 95 107
0.915021 0.725967 2.160000 114 96 113
0.898077 0.716235 2.120000 113 94 119
0.887486 0.711456 2.095000 113 93 115
0.881979 0.710686 2.082000 113 94 111
0.876472 0.709870 2.069000 113 96 110
0.871389 0.709354 2.057000 112 95 110
0.866305 0.708795 2.045000 112 94 115
0.866305 0.712375 2.045000 113 93 120
0.861222 0.711753 2.033000 115 93 118
0.856138 0.711090 2.021000 114 95 116
0.856138 0.714628 2.021000 113 97 118
0.851055 0.713901 2.009000 113 96 121
0.846395 0.713490 1.998000 114 96 115
0.831992 0.704786 1.964000 113 94 110
0.822248 0.699931 1.941000 113 92 107
0.818012 0.699705 1.931000 114 92 105
0.818012 0.703085 1.931000 115 94 104
0.813352 0.702441 1.920000 113 92 104
0.813352 0.705802 1.920000 111 91 103
0.813352 0.709163 1.920000 112 93 103
0.808693 0.708441 1.909000 114 94 97
0.799797 0.703953 1.888000 114 92 92
0.795560 0.703512 1.878000 114 92 107
0.787088 0.699272 1.858000 107 90 123
0.782852 0.698744 1.848000 101 91 115
0.778615 0.698180 1.838000 103 92 108
0.778615 0.701397 1.838000 105 90 103
0.774379 0.700781 1.828000 108 89 98
0.770567 0.700515 1.819000 111 92 91
0.766330 0.699831 1.809000 109 91 85
0.762518 0.699500 1.800000 108 93 93
0.758282 0.698747 1.790000 106 90 102
1.361614 0.773263 3.201000 132 110 130
1.361614 0.778866 3.201000 136 108 126
1.361614 0.784469 3.201000 140 107 127
1.349279 0.782915 3.172000 136 107 128
1.349279 0.788467 3.172000 133 108 132
1.336943 0.786761 3.143000 131 108 136
1.336943 0.792263 3.143000 130 108 130
1.235704 0.762781 2.905000 130 112 126
1.225495 0.761522 2.881000 128 111 120
1.215286 0.760179 2.857000 127 106 121
1.215286 0.765180 2.857000 124 103 123
1.195294 0.757512 2.810000 122 102 119
1.176152 0.750221 2.765000 123 104 115
1.166794 0.749053 2.743000 125 103 120
1.157861 0.748083 2.722000 125 103 126
1.148929 0.747040 2.701000 126 106 126
1.139996 0.745923 2.680000 122 110 126
1.122555 0.739131 2.639000 118 110 125
1.122555 0.743751 2.639000 121 107 125
1.114048 0.742699 2.619000 124 106 125
1.097458 0.736156 2.580000 127 104 124
1.088951 0.734930 2.560000 130 103 124
1.088951 0.739411 2.560000 126 105 124
1.081294 0.738662 2.542000 122 105 124
1.081294 0.743112 2.542000 122 103 124
1.073212 0.741974 2.523000 122 104 127
1.065556 0.741066 2.505000 121 108 131
1.057899 0.740094 2.487000 120 102 122
1.050242 0.739060 2.469000 120 102 114
1.042586 0.737962 2.451000 120 102 114
1.035354 0.737104 2.434000 121 103 114
1.020892 0.731009 2.400000 123 102 115
1.014086 0.730309 2.384000 122 103 117
1.006854 0.729244 2.367000 121 100 116
1.000049 0.728430 2.351000 120 97 115
0.993243 0.727560 2.335000 120 94 116
0.980056 0.721934 2.304000 118 95 117
0.973675 0.721241 2.289000 117 97 114
0.967295 0.720495 2.274000 119 98 110
0.967295 0.724476 2.274000 121 97 109
0.960914 0.723652 2.259000 123 97 108
0.954534 0.722775 2.244000 125 96 105
0.954534 0.726703 2.244000 117 95 102
0.948578 0.726072 2.230000 109 96 104
0.942198 0.725066 2.215000 115 97 106
0.936243 0.724336 2.201000 122 96 105
0.930287 0.723557 2.187000 115 96 104
0.924758 0.723062 2.174000 108 95 106
0.918802 0.722186 2.160000 111 96 108
0.913273 0.721598 2.147000 115 96 110
0.896258 0.711843 2.107000 115 95 111
0.885623 0.707041 2.082000 115 94 110
0.880094 0.706248 2.069000 118 94 109
0.874989 0.705753 2.057000 122 94 108
0.874989 0.709354 2.057000 117 95 108
0.869885 0.708795 2.045000 112 94 110
0.864780 0.708195 2.033000 113 95 112
0.859676 0.707552 2.021000 115 94 111
0.859676 0.711090 2.021000 113 94 110
0.854571 0.710385 2.009000 111 95 110
0.854571 0.713901 2.009000 109 95 111
0.849892 0.713490 1.998000 107 95 109
0.835430 0.704786 1.964000 109 97 108
0.830325 0.703897 1.952000 112 93 107
0.821392 0.699705 1.931000 114 91 106
0.821392 0.703085 1.931000 117 92 106
0.816713 0.702441 1.920000 118 92 106
0.816713 0.705802 1.920000 120 91 109
0.812034 0.705100 1.909000 118 92 113
0.807781 0.704730 1.899000 116 93 106
0.803101 0.703953 1.888000 117 93 99
0.798848 0.703512 1.878000 118 92 109
0.794594 0.703036 1.868000 109 89 120
0.790340 0.702525 1.858000 100 90 114
0.781833 0.698180 1.838000 103 92 108
0.781833 0.701397 1.838000 106 89 103
0.777579 0.700781 1.828000 110 86 98
0.769497 0.696664 1.809000 115 88 99
0.765669 0.696349 1.800000 111 89 100
0.765669 0.699500 1.800000 107 90 102
0.761415 0.698747 1.790000 105 91 104
1.373625 0.776886 3.216000 132 109 132
1.380031 0.786166 3.231000 135 107 128
1.367218 0.784469 3.201000 138 106 129
1.354831 0.782915 3.172000 135 107 130
1.354831 0.788467 3.172000 133 111 135
1.230539 0.761522 2.881000 130 112 120
1.220288 0.760179 2.857000 130 109 121
1.210464 0.759020 2.834000 127 104 123
1.190816 0.751581 2.788000 124 103 123
1.180992 0.750221 2.765000 125 104 123
1.171596 0.749053 2.743000 126 105 126
1.162626 0.748083 2.722000 126 105 129
1.153657 0.747040 2.701000 127 107 138
1.144687 0.745923 2.680000 124 109 147
1.135718 0.744733 2.659000 122 112 138
1.127175 0.743751 2.639000 123 108 129
1.110090 0.737027 2.599000 125 108 129
1.101975 0.736156 2.580000 126 104 129
1.093432 0.734930 2.560000 127 103 127
1.093432 0.739411 2.560000 124 104 125
1.085744 0.738662 2.542000 122 107 124
1.085744 0.743112 2.542000 122 105 123
1.077629 0.741974 2.523000 122 104 124
1.069941 0.741066 2.505000 121 103 126
1.062253 0.740094 2.487000 121 99 122
1.054564 0.739060 2.469000 121 100 118
1.046876 0.737962 2.451000 121 102 115
1.032354 0.731956 2.417000 121 103 113
1.025093 0.731009 2.400000 122 103 116
1.018259 0.730309 2.384000 122 101 119
1.010998 0.729244 2.367000 123 100 118
1.004164 0.728430 2.351000 123 97 118
0.997330 0.727560 2.335000 124 94 117
0.984089 0.721934 2.304000 121 96 116
0.984089 0.725968 2.304000 118 98 113
0.977682 0.725248 2.289000 118 98 111
0.971276 0.724476 2.274000 119 97 111
0.964869 0.723652 2.259000 121 96 112
0.964869 0.727606 2.259000 122 96 107
0.964869 0.731560 2.259000 117 95 103
0.952482 0.726072 2.230000 112 95 105
0.940096 0.720483 2.201000 115 95 107
0.934116 0.719729 2.187000 118 96 106
0.928563 0.719256 2.174000 114 94 105
0.928563 0.723062 2.174000 111 94 107
0.922584 0.722186 2.160000 114 95 110
0.917031 0.721598 2.147000 117 98 107
0.899946 0.711843 2.107000 116 96 104
0.889268 0.707041 2.082000 115 95 105
0.883715 0.706248 2.069000 117 94 107
0.878590 0.705753 2.057000 119 94 107
0.878590 0.709354 2.057000 113 94 107
0.873465 0.708795 2.045000 108 93 106
0.868339 0.708195 2.033000 113 93 105
0.868339 0.711753 2.033000 119 94 105
0.863214 0.711090 2.021000 116 95 105
0.858088 0.710385 2.009000 114 96 103
0.853390 0.709992 1.998000 113 94 101
0.848264 0.709205 1.986000 113 95 104
0.838868 0.704786 1.964000 112 95 107
0.833742 0.703897 1.952000 111 95 107
0.829044 0.703328 1.941000 113 92 108
0.824773 0.703085 1.931000 115 91 108
0.824773 0.706465 1.931000 116 90 108
0.820074 0.705802 1.920000 117 89 116
0.815376 0.705100 1.909000 115 92 124
0.811105 0.704730 1.899000 114 96 115
0.806406 0.703953 1.888000 114 94 107
0.802135 0.703512 1.878000 114 96 112
0.797864 0.703036 1.868000 109 92 117
0.793593 0.702525 1.858000 104 91 112
0.789322 0.701979 1.848000 105 90 108
0.785050 0.701397 1.838000 106 88 103
0.780779 0.700781 1.828000 108 87 99
0.772664 0.696664 1.809000 111 85 107
0.772664 0.699831 1.809000 109 88 116
0.768820 0.699500 1.800000 107 90 111
0.760704 0.695234 1.781000 106 89 106
1.385687 0.780510 3.231000 132 108 132
1.372821 0.778866 3.201000 134 107 130
1.372821 0.784469 3.201000 136 106 130
1.360384 0.782915 3.172000 135 107 130
1.347946 0.781259 3.143000 134 107 133
1.215425 0.754060 2.834000 134 106 119
1.205132 0.752593 2.810000 130 103 124
1.195697 0.751581 2.788000 127 103 124
1.185833 0.750221 2.765000 127 105 124
1.185833 0.755061 2.765000 128 105 126
1.176397 0.753855 2.743000 128 105 128
1.167391 0.752848 2.722000 128 106 133
1.158385 0.751768 2.701000 127 109 139
1.149378 0.750615 2.680000 127 108 134
1.123217 0.738114 2.619000 126 108 129
1.114640 0.737027 2.599000 126 107 131
1.106491 0.736156 2.580000 125 104 134
1.097914 0.734930 2.560000 124 102 130
1.097914 0.739411 2.560000 123 103 126
1.090194 0.738662 2.542000 123 105 122
1.090194 0.743112 2.542000 122 107 117
1.082045 0.741974 2.523000 122 104 121
1.074326 0.741066 2.505000 122 101 125
1.066606 0.740094 2.487000 123 99 123
1.058886 0.739060 2.469000 122 97 121
1.043876 0.732843 2.434000 122 100 118
1.036585 0.731956 2.417000 121 104 116
1.029294 0.731009 2.400000 121 102 118
1.022432 0.730309 2.384000 123 98 121
1.015141 0.729244 2.367000 125 98 119
1.008279 0.728430 2.351000 127 98 118
1.001417 0.727560 2.335000 129 97 113
0.994984 0.726948 2.320000 124 97 108
0.988122 0.725968 2.304000 119 98 111
0.981689 0.725248 2.289000 118 99 113
0.975256 0.724476 2.274000 118 97 112
0.968823 0.723652 2.259000 119 95 112
0.968823 0.727606 2.259000 120 95 106
0.968823 0.731560 2.259000 118 96 100
0.956386 0.726072 2.230000 116 95 103
0.949953 0.725066 2.215000 115 94 107
0.937944 0.719729 2.187000 115 94 101
0.932369 0.719256 2.174000 114 93 95
0.926365 0.718405 2.160000 114 92 101
0.926365 0.722186 2.160000 116 93 106
0.920789 0.721598 2.147000 119 95 104
0.909210 0.716235 2.120000 117 98 102
0.892913 0.707041 2.082000 115 95 104
0.887337 0.706248 2.069000 115 94 106
0.882191 0.705753 2.057000 116 94 109
0.877044 0.705215 2.045000 110 95 112
0.877044 0.708795 2.045000 105 93 108
0.871898 0.708195 2.033000 114 93 103
0.866751 0.707552 2.021000 123 94 104
0.866751 0.711090 2.021000 120 97 105
0.861605 0.710385 2.009000 117 94 107
0.856887 0.709992 1.998000 118 92 109
0.851741 0.709205 1.986000 119 94 109
0.847023 0.708734 1.975000 115 96 108
0.837159 0.703897 1.952000 111 93 107
0.832442 0.703328 1.941000 112 91 106
0.832442 0.706726 1.941000 114 91 105
0.828153 0.706465 1.931000 114 90 105
0.828153 0.709845 1.931000 115 91 107
0.818718 0.705100 1.909000 113 94 110
0.814429 0.704730 1.899000 112 93 108
0.809711 0.703953 1.888000 111 91 106
0.805423 0.703512 1.878000 111 92 110
0.801134 0.703036 1.868000 110 92 115
0.796845 0.702525 1.858000 109 91 110
0.792556 0.701979 1.848000 108 90 105
0.788268 0.701397 1.838000 107 89 98
0.783979 0.700781 1.828000 107 90 92
0.775830 0.696664 1.809000 107 88 101
0.771971 0.696349 1.800000 107 88 110
0.767682 0.695614 1.790000 107 88 107
0.763822 0.695234 1.781000 107 87 104
1.391343 0.786166 3.231000 131 107 132
1.378424 0.784469 3.201000 134 107 131
1.365936 0.782915 3.172000 134 104 131
1.341391 0.774299 3.115000 134 103 130
1.220386 0.754060 2.834000 130 100 118
1.210051 0.752593 2.810000 128 102 126
1.200577 0.751581 2.788000 126 103 125
1.200577 0.756461 2.788000 126 103 125
1.190673 0.755061 2.765000 126 105 126
1.181199 0.753855 2.743000 127 104 127
1.172156 0.752848 2.722000 128 104 129
1.163113 0.751768 2.701000 130 106 132
1.154070 0.750615 2.680000 132 106 130
1.136414 0.743751 2.639000 129 106 129
1.119189 0.737027 2.599000 127 108 134
1.111007 0.736156 2.580000 126 103 139
1.102395 0.734930 2.560000 125 100 133
1.102395 0.739411 2.560000 124 101 128
1.094644 0.738662 2.542000 123 104 120
1.094644 0.743112 2.542000 124 105 112
1.086462 0.741974 2.523000 125 105 118
1.078711 0.741066 2.505000 124 102 124
1.070959 0.740094 2.487000 123 100 124
1.063208 0.739060 2.469000 122 99 125
1.055457 0.737962 2.451000 121 99 122
1.040816 0.731956 2.417000 121 102 119
1.033495 0.731009 2.400000 121 103 121
1.026605 0.730309 2.384000 122 99 123
1.019285 0.729244 2.367000 123 96 120
1.012395 0.728430 2.351000 123 98 118
1.005505 0.727560 2.335000 124 102 109
0.999045 0.726948 2.320000 120 99 101
0.992156 0.725968 2.304000 117 101 108
0.985696 0.725248 2.289000 115 98 116
0.979237 0.724476 2.274000 113 99 114
0.972777 0.723652 2.259000 115 96 112
0.972777 0.727606 2.259000 118 94 104
0.966318 0.726703 2.244000 117 94 97
0.960289 0.726072 2.230000 115 95 102
0.953830 0.725066 2.215000 114 94 107
0.947801 0.724336 2.201000 114 93 96
0.941773 0.723557 2.187000 113 92 86
0.936174 0.723062 2.174000 113 91 94
0.924548 0.717840 2.147000 113 92 103
0.918519 0.716893 2.133000 113 91 101
0.912921 0.716235 2.120000 113 94 100
0.896557 0.707041 2.082000 114 96 103
0.890959 0.706248 2.069000 114 95 106
0.885792 0.705753 2.057000 115 96 112
0.880624 0.705215 2.045000 112 95 118
0.875457 0.704636 2.033000 109 94 110
0.875457 0.708195 2.033000 113 93 102
0.870289 0.707552 2.021000 118 93 104
0.870289 0.711090 2.021000 116 94 106
0.865122 0.710385 2.009000 115 94 112
0.860385 0.709992 1.998000 115 93 118
0.855217 0.709205 1.986000 115 95 114
0.850481 0.708734 1.975000 112 94 110
0.840576 0.703897 1.952000 110 93 107
0.835839 0.703328 1.941000 111 92 105
0.835839 0.706726 1.941000 113 94 103
0.831533 0.706465 1.931000 113 93 102
0.826796 0.705802 1.920000 114 91 99
0.822059 0.705100 1.909000 112 93 97
0.817753 0.704730 1.899000 111 94 101
0.813016 0.703953 1.888000 111 93 106
0.808710 0.703512 1.878000 110 92 109
0.804404 0.703036 1.868000 107 91 113
0.800098 0.702525 1.858000 105 91 108
0.795791 0.701979 1.848000 105 90 103
0.787179 0.697581 1.828000 106 88 94
0.783303 0.697331 1.819000 106 89 85
0.778997 0.696664 1.809000 107 89 94
0.775121 0.696349 1.800000 108 88 104
0.770815 0.695614 1.790000 110 89 103
0.770815 0.698747 1.790000 108 87 103
1.396999 0.786166 3.231000 129 108 132
1.384028 0.784469 3.201000 132 105 134
1.371489 0.782915 3.172000 133 101 136
1.346844 0.774299 3.115000 134 103 133
1.334737 0.772743 3.087000 134 107 131
1.334737 0.778147 3.087000 134 106 129
1.225347 0.754060 2.834000 127 101 123
1.214970 0.752593 2.810000 126 102 129
1.205457 0.751581 2.788000 126 103 124
1.205457 0.756461 2.788000 125 102 119
1.195513 0.755061 2.765000 125 104 123
1.186001 0.753855 2.743000 126 105 127
1.176921 0.752848 2.722000 128 106 128
1.167841 0.751768 2.701000 132 106 129
1.158761 0.750615 2.680000 137 105 128
1.141034 0.743751 2.639000 132 104 126
1.123739 0.737027 2.599000 128 104 130
1.123739 0.741577 2.599000 127 102 135
1.106876 0.734930 2.560000 126 100 131
1.106876 0.739411 2.560000 125 97 128
1.099094 0.738662 2.542000 124 102 125
1.099094 0.743112 2.542000 126 107 122
1.090878 0.741974 2.523000 128 104 123
1.075313 0.735741 2.487000 126 103 124
1.067530 0.734737 2.469000 124 101 125
1.067530 0.739060 2.469000 122 100 126
1.059748 0.737962 2.451000 121 101 123
1.045047 0.731956 2.417000 121 103 120
1.037696 0.731009 2.400000 122 101 120
1.030779 0.730309 2.384000 122 100 121
1.023428 0.729244 2.367000 122 98 120
1.016510 0.728430 2.351000 120 97 119
1.009592 0.727560 2.335000 119 98 114
1.003107 0.726948 2.320000 117 98 110
0.996189 0.725968 2.304000 115 98 115
0.989703 0.725248 2.289000 111 96 120
0.983217 0.724476 2.274000 108 97 116
0.976732 0.723652 2.259000 112 99 112
0.976732 0.727606 2.259000 117 96 107
0.970246 0.726703 2.244000 116 94 103
0.964193 0.726072 2.230000 115 95 106
0.957707 0.725066 2.215000 114 95 110
0.951654 0.724336 2.201000 113 95 102
0.939980 0.719256 2.174000 113 94 94
0.928306 0.714082 2.147000 113 94 98
0.928306 0.717840 2.147000 110 96 102
0.916632 0.712524 2.120000 108 94 98
0.911011 0.711843 2.107000 110 94 93
0.900202 0.707041 2.082000 113 95 99
0.894581 0.706248 2.069000 114 96 104
0.889392 0.705753 2.057000 115 95 107
0.884204 0.705215 2.045000 114 95 110
0.879015 0.704636 2.033000 114 94 101
0.879015 0.708195 2.033000 113 93 92
0.873827 0.707552 2.021000 113 94 99
0.873827 0.711090 2.021000 113 94 107
0.868638 0.710385 2.009000 113 93 111
0.863882 0.709992 1.998000 112 92 116
0.858694 0.709205 1.986000 112 93 113
0.853938 0.708734 1.975000 110 93 111
0.849182 0.708224 1.964000 109 92 108
0.839237 0.703328 1.941000 110 93 105
0.839237 0.706726 1.941000 112 94 104
0.834913 0.706465 1.931000 112 97 102
0.834913 0.709845 1.931000 113 95 100
0.825401 0.705100 1.909000 112 94 99
0.821077 0.704730 1.899000 111 94 102
0.816321 0.703953 1.888000 110 95 106
0.811998 0.703512 1.878000 110 92 108
0.807674 0.703036 1.868000 105 89 110
0.803350 0.702525 1.858000 101 89 106
0.794703 0.698180 1.838000 103 91 102
0.790379 0.697581 1.828000 106 90 97
0.786487 0.697331 1.819000 106 90 92
0.782164 0.696664 1.809000 107 88 98
0.778272 0.696349 1.800000 110 86 104
0.773949 0.695614 1.790000 113 86 105
0.773949 0.698747 1.790000 110 88 105
1.389631 0.784469 3.201000 132 104 136
1.377041 0.782915 3.172000 134 103 141
1.352296 0.774299 3.115000 136 103 137
1.340141 0.772743 3.087000 135 104 133
1.340141 0.778147 3.087000 134 105 130
1.230307 0.754060 2.834000 127 102 128
1.219888 0.752593 2.810000 126 103 133
1.210338 0.751581 2.788000 125 106 123
1.200353 0.750221 2.765000 122 104 114
1.200353 0.755061 2.765000 119 106 121
1.190802 0.753855 2.743000 123 106 128
1.181686 0.752848 2.722000 127 109 127
1.172569 0.751768 2.701000 130 106 127
1.163452 0.750615 2.680000 133 104 125
1.145653 0.743751 2.639000 130 105 124
1.136971 0.742699 2.619000 128 103 127
1.128288 0.741577 2.599000 127 102 131
1.111358 0.734930 2.560000 126 101 130
1.103543 0.734212 2.542000 124 100 129
1.103543 0.738662 2.542000 122 101 131
1.095295 0.737558 2.523000 124 103 133
1.087481 0.736681 2.505000 126 104 129
1.079666 0.735741 2.487000 125 103 125
1.071852 0.734737 2.469000 124 104 126
1.071852 0.739060 2.469000 122 103 127
1.056658 0.732843 2.434000 120 104 124
1.049278 0.731956 2.417000 119 101 121
1.041898 0.731009 2.400000 118 99 120
1.034952 0.730309 2.384000 119 100 120
1.027571 0.729244 2.367000 121 101 120
1.020626 0.728430 2.351000 120 98 120
1.013680 0.727560 2.335000 119 98 119
1.007168 0.726948 2.320000 117 98 119
1.000222 0.725968 2.304000 116 97 121
0.993710 0.725248 2.289000 114 96 124
0.987198 0.724476 2.274000 112 96 118
0.980686 0.723652 2.259000 114 97 113
0.980686 0.727606 2.259000 116 98 111
0.974174 0.726703 2.244000 113 96 109
0.968096 0.726072 2.230000 110 98 111
0.961585 0.725066 2.215000 111 97 114
0.955507 0.724336 2.201000 113 98 108
0.943786 0.719256 2.174000 113 96 102
0.932064 0.714082 2.147000 113 98 102
0.925987 0.713159 2.133000 112 96 102
0.920343 0.712524 2.120000 111 95 94
0.914699 0.711843 2.107000 112 94 87
0.909490 0.711456 2.095000 114 96 95
0.903846 0.710686 2.082000 113 96 103
0.898203 0.709870 2.069000 112 95 102
0.887784 0.705215 2.045000 115 95 102
0.882574 0.704636 2.033000 117 94 92
0.882574 0.708195 2.033000 114 94 83
0.877365 0.707552 2.021000 110 97 95
0.877365 0.711090 2.021000 112 96 108
0.872155 0.710385 2.009000 114 95 111
0.867380 0.709992 1.998000 112 93 115
0.862170 0.709205 1.986000 111 93 113
0.857395 0.708734 1.975000 108 92 112
0.847410 0.703897 1.952000 105 91 109
0.842635 0.703328 1.941000 108 92 106
0.842635 0.706726 1.941000 111 95 104
0.842635 0.710124 1.941000 112 97 103
0.838293 0.709845 1.931000 113 99 102
