ply
format ascii 1.0
element vertex 1297
property float x
property float y
property float z
property uchar red
property uchar green
property uchar blue
end_header
-0.321511 -0.780137 2.701000 13 7 1
-0.321511 -0.775409 2.701000 13 7 1
-0.321511 -0.770680 2.701000 13 8 2
-0.321511 -0.765952 2.701000 12 5 3
-0.321511 -0.761224 2.701000 13 8 4
-0.324011 -0.762378 2.722000 14 9 4
-0.324011 -0.757613 2.722000 14 8 5
-0.324011 -0.752848 2.722000 15 7 3
-0.324011 -0.748083 2.722000 13 8 1
-0.324011 -0.743318 2.722000 11 9 2
-0.324011 -0.738554 2.722000 14 8 4
-0.324011 -0.733789 2.722000 18 6 2
-0.324011 -0.729024 2.722000 15 7 1
-0.324011 -0.724259 2.722000 13 7 2
-0.324011 -0.719494 2.722000 15 7 4
-0.321511 -0.709215 2.701000 18 9 3
-0.321511 -0.704487 2.701000 14 7 2
-0.324011 -0.705200 2.722000 10 7 4
-0.324011 -0.700435 2.722000 11 7 6
-0.324011 -0.695670 2.722000 12 5 6
-0.324011 -0.690905 2.722000 12 8 7
-0.324011 -0.686140 2.722000 13 5 7
-0.326510 -0.686632 2.743000 14 8 8
-0.326510 -0.681830 2.743000 16 10 6
-0.326510 -0.677029 2.743000 13 9 5
-0.324011 -0.667081 2.722000 11 10 3
-0.324011 -0.662316 2.722000 16 7 1
-0.321511 -0.652478 2.701000 21 4 2
-0.321511 -0.647750 2.701000 16 6 3
-0.321511 -0.643022 2.701000 12 6 2
-0.321511 -0.638294 2.701000 13 8 1
-0.321511 -0.633565 2.701000 14 7 3
-0.321511 -0.628837 2.701000 13 6 6
-0.321511 -0.624109 2.701000 12 5 7
-0.321511 -0.619381 2.701000 13 7 9
-0.321511 -0.614653 2.701000 14 5 5
-0.321511 -0.609925 2.701000 16 6 1
-0.321511 -0.605197 2.701000 18 5 2
-0.321511 -0.600469 2.701000 13 6 3
-0.321511 -0.595741 2.701000 9 5 2
-0.321511 -0.591013 2.701000 11 7 1
-0.321511 -0.586285 2.701000 13 7 2
-0.321511 -0.581556 2.701000 12 9 4
-0.321511 -0.576828 2.701000 11 7 2
-0.321511 -0.572100 2.701000 19 8 1
-0.321511 -0.567372 2.701000 27 4 2
-0.321511 -0.562644 2.701000 24 6 3
-0.321511 -0.557916 2.701000 20 6 2
-0.321511 -0.553188 2.701000 21 7 2
-0.321511 -0.548460 2.701000 21 5 1
-0.321511 -0.543732 2.701000 18 6 1
-0.321511 -0.539003 2.701000 15 5 2
-0.319011 -0.530121 2.680000 15 8 4
-0.319011 -0.525430 2.680000 16 7 2
-0.319011 -0.520739 2.680000 13 8 1
-0.321511 -0.520091 2.701000 11 9 2
-0.319011 -0.511356 2.680000 13 8 4
-0.319011 -0.506665 2.680000 15 7 3
-0.319011 -0.501973 2.680000 14 6 3
-0.319011 -0.497282 2.680000 13 6 2
-0.319011 -0.492591 2.680000 12 7 1
-0.319011 -0.487899 2.680000 11 7 2
-0.319011 -0.483208 2.680000 12 9 3
-0.319011 -0.478517 2.680000 13 8 2
-0.319011 -0.473825 2.680000 12 9 1
-0.319011 -0.469134 2.680000 12 8 1
-0.319011 -0.464443 2.680000 14 7 2
-0.319011 -0.459751 2.680000 16 5 1
-0.319011 -0.455060 2.680000 15 7 1
-0.319011 -0.450369 2.680000 14 7 1
-0.319011 -0.445677 2.680000 14 8 1
-0.319011 -0.440986 2.680000 15 7 1
-0.319011 -0.436295 2.680000 17 9 2
-0.319011 -0.431603 2.680000 20 12 1
-0.319011 -0.426912 2.680000 17 10 1
-0.319011 -0.422221 2.680000 15 10 2
-0.319011 -0.417529 2.680000 16 11 3
-0.319011 -0.412838 2.680000 17 12 3
-0.319011 -0.408147 2.680000 18 9 4
-0.319011 -0.403455 2.680000 19 6 3
-0.319011 -0.398764 2.680000 17 8 2
-0.319011 -0.394073 2.680000 15 5 1
-0.319011 -0.389381 2.680000 16 6 1
-0.321511 -0.387704 2.701000 17 8 2
-0.319011 -0.379999 2.680000 17 6 4
-0.319011 -0.375307 2.680000 16 3 2
-0.319011 -0.370616 2.680000 15 3 1
-0.319011 -0.365925 2.680000 14 3 2
-0.319011 -0.361233 2.680000 15 4 3
-0.319011 -0.356542 2.680000 17 5 2
-0.319011 -0.351850 2.680000 15 6 1
-0.319011 -0.347159 2.680000 14 7 2
-0.319011 -0.342468 2.680000 11 7 3
-0.319011 -0.337776 2.680000 8 10 3
-0.319011 -0.333085 2.680000 11 9 3
-0.319011 -0.328394 2.680000 14 9 2
-0.319011 -0.323702 2.680000 13 8 1
-0.319011 -0.319011 2.680000 12 9 2
-0.319011 -0.314320 2.680000 14 7 3
-0.319011 -0.309628 2.680000 16 5 2
-0.319011 -0.304937 2.680000 17 6 2
-0.319011 -0.300246 2.680000 18 4 4
-0.319011 -0.295554 2.680000 15 4 6
-0.319011 -0.290863 2.680000 13 2 8
-0.319011 -0.286172 2.680000 15 3 11
-0.319011 -0.281480 2.680000 18 4 6
-0.319011 -0.276789 2.680000 16 5 1
-0.319011 -0.272098 2.680000 15 5 3
-0.319011 -0.267406 2.680000 17 5 5
-0.319011 -0.262715 2.680000 19 3 3
-0.319011 -0.258024 2.680000 18 6 1
-0.319011 -0.253332 2.680000 17 6 3
-0.319011 -0.248641 2.680000 18 7 5
-0.319011 -0.243950 2.680000 20 4 6
-0.319011 -0.239258 2.680000 19 4 8
-0.319011 -0.234567 2.680000 18 4 5
-0.319011 -0.229876 2.680000 16 4 2
-0.319011 -0.225184 2.680000 15 4 8
-0.319011 -0.220493 2.680000 15 6 14
-0.319011 -0.215802 2.680000 16 4 9
-0.319011 -0.211110 2.680000 18 4 4
-0.319011 -0.206419 2.680000 20 5 6
-0.319011 -0.201728 2.680000 19 6 9
-0.319011 -0.197036 2.680000 18 5 5
-0.319011 -0.192345 2.680000 17 6 1
-0.319011 -0.187654 2.680000 17 5 5
-0.319011 -0.182962 2.680000 19 6 10
-0.319011 -0.178271 2.680000 22 5 9
-0.319011 -0.173580 2.680000 17 5 9
-0.319011 -0.168888 2.680000 12 5 11
-0.319011 -0.164197 2.680000 12 7 14
-0.319011 -0.159506 2.680000 12 6 11
-0.319011 -0.154814 2.680000 15 5 9
-0.319011 -0.150123 2.680000 18 4 5
-0.319011 -0.145431 2.680000 15 5 1
-0.319011 -0.140740 2.680000 11 4 3
-0.319011 -0.136049 2.680000 12 3 5
-0.319011 -0.131357 2.680000 13 2 4
-0.319011 -0.126666 2.680000 13 5 4
-0.319011 -0.121975 2.680000 13 7 8
-0.319011 -0.117283 2.680000 10 6 13
-0.319011 -0.112592 2.680000 8 5 7
-0.319011 -0.107901 2.680000 9 7 1
-0.316511 -0.102401 2.659000 10 7 3
-0.316511 -0.097746 2.659000 11 5 6
-0.316511 -0.093092 2.659000 12 4 3
-0.316511 -0.088437 2.659000 17 5 1
-0.314131 -0.083152 2.639000 22 4 7
-0.314131 -0.078533 2.639000 15 4 13
-0.316511 -0.074473 2.659000 9 4 11
-0.314131 -0.069293 2.639000 10 6 9
-0.316511 -0.065164 2.659000 12 7 5
-0.316511 -0.060509 2.659000 14 5 1
-0.316511 -0.055855 2.659000 16 5 4
-0.316511 -0.051200 2.659000 14 5 8
-0.319011 -0.046913 2.680000 13 4 10
-0.319011 -0.042222 2.680000 11 4 12
-0.319011 -0.037531 2.680000 9 4 10
-0.319011 -0.032839 2.680000 12 6 9
-0.319011 -0.028148 2.680000 15 5 6
-0.319011 -0.023457 2.680000 14 5 3
-0.319011 -0.018765 2.680000 13 7 6
-0.319011 -0.014074 2.680000 15 6 9
-0.316511 -0.009309 2.659000 17 7 9
-0.319011 -0.004691 2.680000 19 9 10
-0.319011 -0.000000 2.680000 22 8 8
-0.319011 0.004691 2.680000 19 7 7
-0.319011 0.009383 2.680000 16 6 6
-0.319011 0.014074 2.680000 17 6 6
-0.319011 0.018765 2.680000 18 5 7
-0.319011 0.023457 2.680000 21 4 9
-0.319011 0.028148 2.680000 24 3 12
-0.316511 0.032582 2.659000 26 4 16
-0.319011 0.037531 2.680000 28 4 12
-0.319011 0.042222 2.680000 29 5 9
-0.316511 0.046546 2.659000 31 5 10
-0.316511 0.051200 2.659000 31 4 11
-0.316511 0.055855 2.659000 32 5 11
-0.316511 0.060510 2.659000 31 10 12
-0.316511 0.065164 2.659000 31 9 10
-0.319011 0.070370 2.680000 32 9 9
-0.319011 0.075062 2.680000 34 6 9
-0.319011 0.079753 2.680000 35 5 9
-0.319011 0.084444 2.680000 36 6 10
-0.319011 0.089136 2.680000 36 8 12
-0.319011 0.093827 2.680000 35 9 11
-0.319011 0.098518 2.680000 33 13 11
-0.319011 0.103210 2.680000 31 13 12
-0.319011 0.107901 2.680000 30 15 13
-0.319011 0.112592 2.680000 29 11 12
-0.319011 0.117284 2.680000 30 11 11
-0.319011 0.121975 2.680000 32 14 13
-0.319011 0.126666 2.680000 34 17 15
-0.319011 0.131358 2.680000 36 15 10
-0.319011 0.136049 2.680000 36 19 5
-0.319011 0.140740 2.680000 36 22 6
-0.319011 0.145432 2.680000 37 20 8
-0.319011 0.150123 2.680000 38 21 9
-0.316511 0.153601 2.659000 37 20 11
-0.316511 0.158256 2.659000 36 17 8
-0.316511 0.162910 2.659000 36 19 5
-0.316511 0.167565 2.659000 37 21 4
-0.314131 0.170924 2.639000 36 24 3
-0.314131 0.175544 2.639000 36 26 3
-0.314131 0.180163 2.639000 37 27 3
-0.314131 0.184783 2.639000 38 38 4
-0.314131 0.189402 2.639000 39 24 5
-0.314131 0.194022 2.639000 40 19 8
-0.314131 0.198642 2.639000 41 21 12
-0.316511 0.204802 2.659000 43 22 15
-0.316511 0.209456 2.659000 42 20 18
-0.316511 0.214111 2.659000 41 21 18
-0.319011 0.220493 2.680000 40 22 18
-0.319011 0.225184 2.680000 40 26 11
-0.319011 0.229876 2.680000 42 27 5
-0.319011 0.234567 2.680000 44 30 4
-0.319011 0.239258 2.680000 43 28 4
-0.319011 0.243950 2.680000 43 35 4
-0.319011 0.248641 2.680000 43 27 5
-0.316511 0.251347 2.659000 43 29 7
-0.316511 0.256002 2.659000 45 28 9
-0.314131 0.258696 2.639000 47 40 5
-0.314131 0.263316 2.639000 45 34 2
-0.314131 0.267935 2.639000 43 48 5
-0.314131 0.272555 2.639000 42 35 9
-0.314131 0.277174 2.639000 42 47 6
-0.314131 0.281794 2.639000 43 35 4
-0.314131 0.286413 2.639000 44 44 3
-0.314131 0.291033 2.639000 45 36 3
-0.314131 0.295653 2.639000 46 51 3
-0.316511 0.302548 2.659000 46 37 3
-0.316511 0.307202 2.659000 47 46 2
-0.316511 0.311857 2.659000 49 34 2
-0.314131 0.314131 2.639000 52 46 3
-0.314131 0.318750 2.639000 49 35 5
-0.314131 0.323370 2.639000 47 45 7
-0.314131 0.327989 2.639000 49 35 9
-0.314131 0.332609 2.639000 52 47 6
-0.311750 0.334673 2.619000 53 37 4
-0.311750 0.339258 2.619000 54 51 5
-0.314131 0.346468 2.639000 51 39 7
-0.314131 0.351087 2.639000 49 53 4
-0.314131 0.355707 2.639000 51 38 2
-0.316511 0.363057 2.659000 54 49 2
-0.316511 0.367712 2.659000 54 40 2
-0.316511 0.372366 2.659000 55 55 3
-0.316511 0.377021 2.659000 53 40 5
-0.316511 0.381676 2.659000 52 53 5
-0.314131 0.383424 2.639000 54 36 6
-0.316511 0.390985 2.659000 56 39 7
-0.314131 0.392664 2.639000 55 31 8
-0.314131 0.397283 2.639000 55 41 7
-0.314131 0.401903 2.639000 53 36 7
-0.314131 0.406522 2.639000 51 50 4
-0.314131 0.411142 2.639000 52 38 2
-0.314131 0.415761 2.639000 54 50 4
-0.314131 0.420381 2.639000 55 39 7
-0.314131 0.425001 2.639000 56 50 10
-0.316511 0.432876 2.659000 56 36 13
-0.316511 0.437531 2.659000 56 37 14
-0.316511 0.442185 2.659000 59 31 16
-0.314131 0.443479 2.639000 61 32 11
-0.314131 0.448098 2.639000 64 34 7
-0.311750 0.449287 2.619000 66 49 5
-0.311750 0.453871 2.619000 64 34 4
-0.314131 0.461957 2.639000 62 31 3
-0.314131 0.466577 2.639000 61 39 3
-0.314131 0.471196 2.639000 60 55 6
-0.314131 0.475816 2.639000 58 40 10
-0.314131 0.480435 2.639000 57 41 8
-0.316511 0.488731 2.659000 59 41 6
-0.316511 0.493386 2.659000 61 43 7
-0.314131 0.494294 2.639000 59 40 8
-0.314131 0.498914 2.639000 58 44 6
-0.314131 0.503533 2.639000 58 41 4
-0.314131 0.508153 2.639000 58 44 6
-0.314131 0.512772 2.639000 59 39 8
-0.311750 0.513471 2.619000 60 43 21
-0.311750 0.518055 2.619000 59 38 34
-0.314131 0.526631 2.639000 59 45 21
-0.314131 0.531251 2.639000 59 41 9
-0.314131 0.535870 2.639000 60 44 13
-0.314131 0.540490 2.639000 62 36 17
-0.314131 0.545109 2.639000 63 34 15
-0.314131 0.549729 2.639000 62 34 13
-0.314131 0.554349 2.639000 61 36 14
-0.314131 0.558968 2.639000 61 35 16
-0.314131 0.563588 2.639000 61 37 32
-0.311750 0.563901 2.619000 57 36 49
-0.314131 0.572827 2.639000 54 39 31
-0.311750 0.573070 2.619000 53 36 13
-0.314131 0.582066 2.639000 52 37 8
-0.311750 0.582239 2.619000 41 26 3
-0.314131 0.591305 2.639000 31 20 5
-0.314131 0.595925 2.639000 21 12 8
-0.314131 0.600544 2.639000 11 9 6
-0.316511 0.609750 2.659000 10 7 4
-0.316511 0.614405 2.659000 9 9 10
-0.316511 0.619059 2.659000 8 8 17
-0.316511 0.623714 2.659000 7 9 12
-0.319011 0.633331 2.680000 8 7 7
-0.319011 0.638022 2.680000 8 7 6
-0.319011 0.642714 2.680000 8 5 5
-0.319011 0.647405 2.680000 8 5 3
-0.316511 0.646987 2.659000 7 4 2
-0.316511 0.651641 2.659000 5 3 3
-0.314131 0.651359 2.639000 4 3 4
-0.316511 0.660950 2.659000 4 5 3
-0.267112 0.675637 2.244000 163 145 126
-0.265446 0.675325 2.230000 161 140 136
-0.265446 0.679229 2.230000 160 138 136
-0.263660 0.678538 2.215000 159 139 136
-0.263660 0.682415 2.215000 159 141 138
-0.261994 0.681955 2.201000 160 142 140
-0.260327 0.681445 2.187000 162 146 137
-0.257113 0.676813 2.160000 162 143 135
-0.255566 0.676498 2.147000 162 143 138
-0.252352 0.671702 2.120000 161 143 141
-0.252352 0.675413 2.120000 160 143 139
-0.250805 0.674960 2.107000 160 141 137
-0.249376 0.674783 2.095000 160 137 139
-0.247829 0.674240 2.082000 161 144 142
-0.246281 0.673652 2.069000 163 147 141
-0.244853 0.673346 2.057000 162 146 140
-0.244853 0.676947 2.057000 161 147 140
-0.243425 0.676577 2.045000 162 145 141
-0.241996 0.676166 2.033000 163 145 143
-0.240568 0.675712 2.021000 163 145 145
-0.235092 0.663790 1.975000 164 148 144
-0.233783 0.663531 1.964000 161 146 144
-0.233783 0.666969 1.964000 158 147 150
-0.232354 0.666310 1.952000 163 147 156
-0.232354 0.669727 1.952000 168 149 148
-0.231045 0.669351 1.941000 166 146 141
-0.229855 0.669283 1.931000 164 147 133
-0.227236 0.664999 1.909000 165 148 126
-0.226046 0.664840 1.899000 166 150 135
-0.223546 0.660775 1.878000 166 149 144
-0.223546 0.664063 1.878000 167 145 145
-0.222355 0.663797 1.868000 169 149 147
-0.221165 0.663496 1.858000 171 151 144
-0.219975 0.663160 1.848000 168 148 142
-0.218784 0.662788 1.838000 165 147 140
-0.217594 0.662382 1.828000 163 148 139
-0.216523 0.662305 1.819000 161 149 131
-0.216523 0.665489 1.819000 157 139 123
-0.215333 0.664998 1.809000 153 125 123
-0.213071 0.661146 1.790000 143 120 124
-0.210928 0.657600 1.772000 133 112 122
-0.209857 0.657346 1.763000 131 115 121
-0.208786 0.657061 1.754000 128 114 115
-0.207714 0.656744 1.745000 126 107 109
-0.206643 0.656396 1.736000 124 104 106
-0.205691 0.656396 1.728000 122 102 103
-0.205691 0.659420 1.728000 121 102 98
-0.204619 0.658995 1.719000 120 103 93
-0.203667 0.658923 1.711000 119 104 97
-0.202596 0.658437 1.702000 122 104 101
-0.319246 -1.053034 2.722000 5 9 14
-0.321709 -1.056357 2.743000 2 8 11
-0.321709 -1.051555 2.743000 7 7 9
-0.321709 -1.046754 2.743000 12 6 6
-0.321709 -1.041952 2.743000 12 8 2
-0.319246 -1.029210 2.722000 13 8 3
-0.316783 -1.016542 2.701000 10 9 4
-0.316783 -1.011814 2.701000 8 6 5
-0.319246 -1.014915 2.722000 9 8 6
-0.321709 -1.017944 2.743000 10 8 5
-0.321709 -1.013142 2.743000 11 10 3
-0.321709 -1.008340 2.743000 12 6 3
-0.321709 -1.003539 2.743000 9 4 2
-0.321709 -0.998737 2.743000 7 5 2
-0.324289 -1.001908 2.765000 10 7 2
-0.321709 -0.989134 2.743000 14 5 3
-0.321709 -0.984332 2.743000 11 5 3
-0.319246 -0.972032 2.722000 9 5 2
-0.319246 -0.967267 2.722000 9 6 1
-0.319246 -0.962502 2.722000 9 7 3
-0.321709 -0.965126 2.743000 5 9 4
-0.321709 -0.960324 2.743000 2 8 5
-0.319246 -0.948207 2.722000 5 10 6
-0.319246 -0.943443 2.722000 8 8 5
-0.319246 -0.938678 2.722000 6 9 4
-0.319246 -0.933913 2.722000 5 7 2
-0.321709 -0.936316 2.743000 6 7 1
-0.321709 -0.931515 2.743000 7 7 1
-0.321709 -0.926713 2.743000 4 7 2
-0.321709 -0.921911 2.743000 2 7 3
-0.324289 -0.924465 2.765000 6 7 5
-0.321709 -0.912308 2.743000 11 7 4
-0.321709 -0.907507 2.743000 7 6 3
-0.321709 -0.902705 2.743000 3 6 4
-0.321709 -0.897903 2.743000 6 5 6
-0.319246 -0.886264 2.722000 9 3 7
-0.319246 -0.881499 2.722000 6 4 7
-0.319246 -0.876734 2.722000 4 4 5
-0.319246 -0.871970 2.722000 7 7 4
-0.319246 -0.867205 2.722000 10 6 2
-0.319246 -0.862440 2.722000 5 4 1
-0.319246 -0.857675 2.722000 1 5 1
-0.316783 -0.846330 2.701000 5 6 1
-0.319246 -0.848145 2.722000 9 5 3
-0.321709 -0.849887 2.743000 8 5 5
-0.319246 -0.838616 2.722000 7 4 4
-0.319246 -0.833851 2.722000 4 3 4
-0.319246 -0.829086 2.722000 2 5 5
-0.319246 -0.824321 2.722000 7 8 5
-0.319246 -0.819556 2.722000 12 6 6
-0.316783 -0.808505 2.701000 11 5 7
-0.316783 -0.803777 2.701000 11 6 6
-0.316783 -0.799049 2.701000 7 8 4
-0.316783 -0.794321 2.701000 3 7 3
-0.316783 -0.789593 2.701000 6 6 2
-0.316783 -0.784865 2.701000 10 6 2
-0.316783 -0.780137 2.701000 11 5 2
-0.316783 -0.775409 2.701000 12 6 2
-0.316783 -0.770680 2.701000 11 8 2
-0.316783 -0.765952 2.701000 11 5 4
-0.316783 -0.761224 2.701000 10 6 5
-0.316783 -0.756496 2.701000 10 5 5
-0.319246 -0.757613 2.722000 11 4 5
-0.319246 -0.752848 2.722000 13 4 3
-0.319246 -0.748083 2.722000 8 5 2
-0.319246 -0.743318 2.722000 4 6 3
-0.319246 -0.738554 2.722000 7 7 4
-0.319246 -0.733789 2.722000 11 6 3
-0.319246 -0.729024 2.722000 11 7 2
-0.319246 -0.724259 2.722000 12 6 4
-0.319246 -0.719494 2.722000 12 8 6
-0.319246 -0.714729 2.722000 13 6 6
-0.319246 -0.709964 2.722000 8 3 6
-0.319246 -0.705200 2.722000 4 5 6
-0.319246 -0.700435 2.722000 8 6 6
-0.319246 -0.695670 2.722000 12 5 7
-0.319246 -0.690905 2.722000 12 8 7
-0.319246 -0.686140 2.722000 13 5 10
-0.319246 -0.681375 2.722000 12 7 13
-0.321709 -0.681830 2.743000 12 6 11
-0.319246 -0.671845 2.722000 10 5 9
-0.319246 -0.667081 2.722000 8 6 8
-0.319246 -0.662316 2.722000 9 5 7
-0.316783 -0.652478 2.701000 11 4 5
-0.319246 -0.652786 2.722000 9 6 4
-0.316783 -0.643022 2.701000 8 6 5
-0.316783 -0.638294 2.701000 11 10 7
-0.316783 -0.633565 2.701000 14 6 9
-0.316783 -0.628837 2.701000 12 5 11
-0.316783 -0.624109 2.701000 11 4 12
-0.316783 -0.619381 2.701000 10 7 13
-0.316783 -0.614653 2.701000 10 5 10
-0.316783 -0.609925 2.701000 14 7 6
-0.316783 -0.605197 2.701000 18 5 8
-0.316783 -0.600469 2.701000 11 5 10
-0.316783 -0.595741 2.701000 4 4 10
-0.316783 -0.591013 2.701000 8 7 11
-0.316783 -0.586285 2.701000 12 6 11
-0.316783 -0.581556 2.701000 8 9 12
-0.316783 -0.576828 2.701000 5 7 9
-0.316783 -0.572100 2.701000 12 10 6
-0.316783 -0.567372 2.701000 20 5 6
-0.316783 -0.562644 2.701000 20 4 6
-0.316783 -0.557916 2.701000 21 4 7
-0.316783 -0.553188 2.701000 19 5 9
-0.316783 -0.548460 2.701000 17 5 9
-0.316783 -0.543732 2.701000 13 6 10
-0.316783 -0.539003 2.701000 10 5 12
-0.314320 -0.530121 2.680000 12 6 15
-0.314320 -0.525430 2.680000 14 5 12
-0.314320 -0.520739 2.680000 10 5 9
-0.314320 -0.516047 2.680000 7 6 10
-0.314320 -0.511356 2.680000 10 7 11
-0.314320 -0.506665 2.680000 14 5 9
-0.314320 -0.501973 2.680000 13 4 7
-0.314320 -0.497282 2.680000 13 5 9
-0.316783 -0.496451 2.701000 11 9 10
-0.314320 -0.487899 2.680000 10 8 11
-0.314320 -0.483208 2.680000 11 12 12
-0.314320 -0.478517 2.680000 12 9 10
-0.314320 -0.473825 2.680000 12 12 8
-0.314320 -0.469134 2.680000 12 9 8
-0.314320 -0.464443 2.680000 15 10 8
-0.314320 -0.459751 2.680000 19 6 10
-0.314320 -0.455060 2.680000 21 8 11
-0.314320 -0.450369 2.680000 23 7 11
-0.314320 -0.445677 2.680000 20 9 10
-0.314320 -0.440986 2.680000 18 7 11
-0.314320 -0.436295 2.680000 20 10 12
-0.314320 -0.431603 2.680000 23 9 10
-0.314320 -0.426912 2.680000 15 13 8
-0.314320 -0.422221 2.680000 8 9 8
-0.314320 -0.417529 2.680000 12 9 8
-0.314320 -0.412838 2.680000 17 10 8
-0.314320 -0.408147 2.680000 19 12 9
-0.314320 -0.403455 2.680000 21 9 8
-0.314320 -0.398764 2.680000 20 12 8
-0.314320 -0.394073 2.680000 19 7 7
-0.316783 -0.392432 2.701000 21 6 7
-0.316783 -0.387704 2.701000 23 6 8
-0.316783 -0.382976 2.701000 23 6 10
-0.316783 -0.378248 2.701000 23 4 8
-0.314320 -0.370616 2.680000 21 5 7
-0.314320 -0.365925 2.680000 19 4 10
-0.314320 -0.361233 2.680000 20 4 14
-0.314320 -0.356542 2.680000 22 4 14
-0.314320 -0.351850 2.680000 19 4 14
-0.314320 -0.347159 2.680000 17 6 12
-0.314320 -0.342468 2.680000 15 7 10
-0.314320 -0.337776 2.680000 14 8 9
-0.314320 -0.333085 2.680000 16 12 8
-0.314320 -0.328394 2.680000 18 10 8
-0.314320 -0.323702 2.680000 18 10 7
-0.314320 -0.319011 2.680000 19 11 8
-0.314320 -0.314320 2.680000 20 12 9
-0.314320 -0.309628 2.680000 21 10 8
-0.314320 -0.304937 2.680000 22 9 8
-0.314320 -0.300246 2.680000 24 8 10
-0.314320 -0.295554 2.680000 21 7 12
-0.314320 -0.290863 2.680000 19 8 13
-0.314320 -0.286172 2.680000 21 4 15
-0.314320 -0.281480 2.680000 24 8 11
-0.314320 -0.276789 2.680000 24 9 8
-0.314320 -0.272098 2.680000 25 9 8
-0.314320 -0.267406 2.680000 24 10 9
-0.314320 -0.262715 2.680000 24 9 7
-0.314320 -0.258024 2.680000 23 9 6
-0.314320 -0.253332 2.680000 23 10 8
-0.314320 -0.248641 2.680000 23 11 10
-0.314320 -0.243950 2.680000 24 9 10
-0.314320 -0.239258 2.680000 25 3 10
-0.314320 -0.234567 2.680000 27 9 11
-0.314320 -0.229876 2.680000 24 5 12
-0.314320 -0.225184 2.680000 21 10 14
-0.314320 -0.220493 2.680000 22 13 16
-0.314320 -0.215802 2.680000 23 10 13
-0.314320 -0.211110 2.680000 25 5 10
-0.314320 -0.206419 2.680000 27 9 13
-0.314320 -0.201728 2.680000 26 12 16
-0.314320 -0.197036 2.680000 26 12 11
-0.314320 -0.192345 2.680000 26 10 7
-0.314320 -0.187654 2.680000 27 12 11
-0.314320 -0.182962 2.680000 28 10 15
-0.314320 -0.178271 2.680000 30 10 13
-0.314320 -0.173580 2.680000 20 9 11
-0.314320 -0.168888 2.680000 11 13 14
-0.314320 -0.164197 2.680000 10 12 18
-0.314320 -0.159506 2.680000 10 12 14
-0.314320 -0.154814 2.680000 18 5 11
-0.314320 -0.150123 2.680000 26 10 7
-0.314320 -0.145431 2.680000 17 3 4
-0.314320 -0.140740 2.680000 9 12 5
-0.314320 -0.136049 2.680000 9 1 7
-0.314320 -0.131357 2.680000 9 9 7
-0.314320 -0.126666 2.680000 9 5 8
-0.314320 -0.121975 2.680000 9 14 9
-0.314320 -0.117283 2.680000 7 7 11
-0.314320 -0.112592 2.680000 6 11 7
-0.314320 -0.107901 2.680000 7 7 2
-0.311857 -0.102401 2.659000 9 15 5
-0.311857 -0.097746 2.659000 8 3 8
-0.311857 -0.093092 2.659000 8 12 9
-0.311857 -0.088437 2.659000 19 10 11
-0.311857 -0.083782 2.659000 30 16 11
-0.309511 -0.078533 2.639000 19 1 11
-0.311857 -0.074473 2.659000 8 13 8
-0.309511 -0.069293 2.639000 10 4 6
-0.311857 -0.065164 2.659000 12 15 4
-0.311857 -0.060509 2.659000 15 3 2
-0.311857 -0.055855 2.659000 18 14 4
-0.311857 -0.051200 2.659000 16 2 6
-0.314320 -0.046913 2.680000 14 14 8
-0.314320 -0.042222 2.680000 10 2 11
-0.314320 -0.037531 2.680000 7 13 10
-0.314320 -0.032839 2.680000 10 6 10
-0.314320 -0.028148 2.680000 14 16 7
-0.314320 -0.023457 2.680000 13 2 5
-0.314320 -0.018765 2.680000 12 11 6
-0.314320 -0.014074 2.680000 15 3 7
-0.314320 -0.009383 2.680000 18 18 9
-0.314320 -0.004691 2.680000 23 14 11
-0.314320 -0.000000 2.680000 29 18 11
-0.314320 0.004691 2.680000 23 6 11
-0.314320 0.009383 2.680000 18 18 8
-0.314320 0.014074 2.680000 20 4 5
-0.314320 0.018765 2.680000 22 16 7
-0.314320 0.023457 2.680000 25 4 9
-0.311857 0.027928 2.659000 28 14 11
-0.311857 0.032582 2.659000 34 4 13
-0.311857 0.037237 2.659000 41 16 21
-0.311857 0.041891 2.659000 43 8 29
-0.309511 0.046196 2.639000 45 17 20
-0.311857 0.051200 2.659000 45 4 11
-0.311857 0.055855 2.659000 46 20 12
-0.314320 0.060987 2.680000 46 24 13
-0.311857 0.065164 2.659000 46 22 12
-0.314320 0.070370 2.680000 47 12 10
-0.311857 0.074473 2.659000 49 19 17
-0.314320 0.079753 2.680000 49 5 24
-0.314320 0.084444 2.680000 49 19 19
-0.314320 0.089136 2.680000 49 13 14
-0.314320 0.093827 2.680000 50 23 15
-0.314320 0.098518 2.680000 47 28 16
-0.314320 0.103210 2.680000 45 28 24
-0.316783 0.108746 2.701000 45 29 33
-0.314320 0.112592 2.680000 46 24 23
-0.314320 0.117284 2.680000 46 10 12
-0.314320 0.121975 2.680000 47 26 13
-0.314320 0.126666 2.680000 48 33 15
-0.314320 0.131358 2.680000 49 29 14
-0.314320 0.136049 2.680000 49 30 13
-0.314320 0.140740 2.680000 50 29 13
-0.314320 0.145432 2.680000 52 29 12
-0.314320 0.150123 2.680000 54 32 22
-0.314320 0.154814 2.680000 52 33 32
-0.314320 0.159506 2.680000 51 31 23
-0.311857 0.162910 2.659000 52 33 15
-0.314320 0.168888 2.680000 53 33 13
-0.311857 0.172219 2.659000 52 37 12
-0.311857 0.176874 2.659000 51 37 12
-0.311857 0.181529 2.659000 51 41 12
-0.311857 0.186183 2.659000 52 40 22
-0.311857 0.190838 2.659000 54 39 31
-0.309511 0.194022 2.639000 56 34 27
-0.309511 0.198642 2.639000 57 34 23
-0.311857 0.204802 2.659000 58 33 23
-0.311857 0.209456 2.659000 58 35 24
-0.311857 0.214111 2.659000 58 33 22
-0.314320 0.220493 2.680000 57 34 21
-0.314320 0.225184 2.680000 56 35 16
-0.314320 0.229876 2.680000 57 42 11
-0.314320 0.234567 2.680000 58 40 12
-0.311857 0.237384 2.659000 58 41 13
-0.311857 0.242038 2.659000 59 41 13
-0.311857 0.246693 2.659000 67 45 13
-0.311857 0.251347 2.659000 76 39 12
-0.311857 0.256002 2.659000 71 43 11
-0.309511 0.258696 2.639000 67 43 11
-0.309511 0.263316 2.639000 71 47 10
-0.309511 0.267935 2.639000 76 45 12
-0.309511 0.272555 2.639000 77 45 14
-0.309511 0.277174 2.639000 79 45 13
-0.309511 0.281794 2.639000 79 50 12
-0.311857 0.288584 2.659000 79 46 11
-0.311857 0.293239 2.659000 79 51 10
-0.311857 0.297893 2.659000 80 48 15
-0.314320 0.304937 2.680000 80 50 20
-0.314320 0.309629 2.680000 81 45 15
-0.311857 0.311857 2.659000 75 45 11
-0.311857 0.316512 2.659000 70 46 13
-0.309511 0.318750 2.639000 73 50 14
-0.309511 0.323370 2.639000 77 46 16
-0.309511 0.327989 2.639000 73 48 17
-0.309511 0.332609 2.639000 70 47 16
-0.307166 0.334673 2.619000 69 49 14
-0.309511 0.341848 2.639000 69 50 16
-0.309511 0.346468 2.639000 73 53 19
-0.309511 0.351087 2.639000 78 51 21
-0.311857 0.358403 2.659000 73 52 23
-0.311857 0.363057 2.659000 69 50 19
-0.311857 0.367712 2.659000 69 55 16
-0.311857 0.372366 2.659000 69 50 22
-0.311857 0.377021 2.659000 66 51 27
-0.311857 0.381676 2.659000 64 49 23
-0.311857 0.386330 2.659000 67 48 18
-0.311857 0.390985 2.659000 71 44 16
-0.309511 0.392664 2.639000 69 45 15
-0.309511 0.397283 2.639000 68 45 19
-0.309511 0.401903 2.639000 65 50 24
-0.309511 0.406522 2.639000 63 48 17
-0.311857 0.414258 2.659000 64 51 11
-0.311857 0.418912 2.659000 66 48 11
-0.311857 0.423567 2.659000 67 49 11
-0.311857 0.428221 2.659000 68 47 19
-0.314320 0.436295 2.680000 68 47 28
-0.311857 0.437531 2.659000 68 42 23
-0.311857 0.442185 2.659000 70 42 19
-0.309511 0.443479 2.639000 73 37 17
-0.309511 0.448098 2.639000 79 39 15
-0.309511 0.452718 2.639000 85 42 14
-0.309511 0.457337 2.639000 81 46 12
-0.309511 0.461957 2.639000 77 41 10
-0.309511 0.466577 2.639000 74 47 9
-0.309511 0.471196 2.639000 71 47 12
-0.309511 0.475816 2.639000 69 45 15
-0.311857 0.484076 2.659000 68 44 14
-0.311857 0.488731 2.659000 70 48 13
-0.311857 0.493386 2.659000 73 45 12
-0.311857 0.498040 2.659000 72 45 11
-0.311857 0.502695 2.659000 71 44 10
-0.309511 0.503533 2.639000 71 45 9
-0.309511 0.508153 2.639000 71 43 10
-0.309511 0.512772 2.639000 71 42 12
-0.309511 0.517392 2.639000 71 41 19
-0.309511 0.522012 2.639000 69 47 27
-0.309511 0.526631 2.639000 67 45 20
-0.309511 0.531251 2.639000 67 46 14
-0.309511 0.535870 2.639000 68 41 21
-0.309511 0.540490 2.639000 67 38 28
-0.311857 0.549241 2.659000 66 36 24
-0.309511 0.549729 2.639000 63 39 20
-0.309511 0.554349 2.639000 60 37 20
-0.309511 0.558968 2.639000 60 39 21
-0.309511 0.563588 2.639000 60 38 29
-0.307166 0.563901 2.619000 60 37 37
-0.307166 0.568486 2.619000 61 37 26
-0.307166 0.573070 2.619000 61 39 16
-0.307166 0.577655 2.619000 62 37 9
-0.307166 0.582239 2.619000 49 31 3
-0.307166 0.586824 2.619000 37 16 5
-0.309511 0.595925 2.639000 25 9 7
-0.309511 0.600544 2.639000 13 7 5
-0.311857 0.609750 2.659000 11 7 3
-0.311857 0.614405 2.659000 9 8 6
-0.311857 0.619059 2.659000 9 9 9
-0.311857 0.623714 2.659000 9 7 7
-0.314320 0.633331 2.680000 8 7 5
-0.314320 0.638022 2.680000 7 5 4
-0.314320 0.642714 2.680000 6 5 3
-0.314320 0.647405 2.680000 5 4 3
-0.311857 0.646987 2.659000 4 5 2
-0.311857 0.651641 2.659000 4 3 3
-0.309511 0.651359 2.639000 4 3 3
-0.309511 0.655979 2.639000 4 3 2
-0.263184 0.675637 2.244000 163 137 127
-0.263184 0.679565 2.244000 161 136 132
-0.261542 0.679229 2.230000 160 137 135
-0.259783 0.678538 2.215000 158 139 138
-0.259783 0.682415 2.215000 156 140 137
-0.258141 0.681955 2.201000 159 141 137
-0.256499 0.681445 2.187000 162 143 132
-0.254974 0.681200 2.174000 162 142 127
-0.251808 0.676498 2.147000 162 141 132
-0.250166 0.675821 2.133000 161 143 138
-0.248641 0.675413 2.120000 160 143 138
-0.247116 0.674960 2.107000 159 143 138
-0.245709 0.674783 2.095000 158 144 141
-0.245709 0.678450 2.095000 161 149 144
-0.244184 0.677885 2.082000 164 146 142
-0.242660 0.677274 2.069000 163 145 140
-0.241252 0.676947 2.057000 162 146 140
-0.239845 0.676577 2.045000 163 147 141
-0.239845 0.680157 2.045000 164 146 145
-0.238437 0.679725 2.033000 164 147 149
-0.231635 0.663790 1.975000 164 146 147
-0.230345 0.663531 1.964000 163 146 144
-0.230345 0.666969 1.964000 162 145 144
-0.228937 0.666310 1.952000 166 146 145
-0.228937 0.669727 1.952000 170 146 143
-0.227647 0.669351 1.941000 168 145 142
-0.226474 0.669283 1.931000 167 146 138
-0.225184 0.668831 1.920000 167 149 135
-0.222721 0.664840 1.899000 168 150 140
-0.220258 0.660775 1.878000 168 157 145
-0.220258 0.664063 1.878000 169 150 146
-0.219086 0.663797 1.868000 172 152 147
-0.217913 0.663496 1.858000 175 151 144
-0.216740 0.663160 1.848000 170 151 142
-0.215567 0.662788 1.838000 166 150 140
-0.214394 0.662382 1.828000 162 151 139
-0.213339 0.662305 1.819000 159 142 130
-0.213339 0.665489 1.819000 154 139 122
-0.211110 0.661689 1.800000 149 128 121
-0.209938 0.661146 1.790000 142 125 121
-0.207826 0.657600 1.772000 135 117 118
-0.206771 0.657346 1.763000 132 116 116
-0.205715 0.657061 1.754000 129 108 112
-0.205129 0.658249 1.749000 126 102 108
-0.204660 0.659799 1.745000 124 103 106
-0.203604 0.659435 1.736000 122 103 104
-0.203604 0.662473 1.736000 121 103 100
-0.202666 0.662445 1.728000 121 104 97
-0.201610 0.662004 1.719000 122 103 100
-0.200672 0.661918 1.711000 122 106 102
-0.319449 -1.069669 2.765000 9 4 1
-0.319449 -1.064829 2.765000 7 4 2
-0.319449 -1.059989 2.765000 10 4 4
-0.319449 -1.055149 2.765000 14 4 2
-0.319449 -1.050309 2.765000 14 5 1
-0.316907 -1.037150 2.743000 14 5 2
-0.316907 -1.032349 2.743000 12 5 4
-0.316907 -1.027547 2.743000 10 3 4
-0.319449 -1.030948 2.765000 11 5 4
-0.319449 -1.026108 2.765000 12 5 3
-0.316907 -1.013142 2.743000 12 5 2
-0.316907 -1.008340 2.743000 12 2 1
-0.319449 -1.011588 2.765000 11 3 1
-0.319449 -1.006748 2.765000 10 3 2
-0.319449 -1.001908 2.765000 12 4 3
-0.319449 -0.997067 2.765000 14 3 2
-0.319449 -0.992227 2.765000 12 4 2
-0.319449 -0.987387 2.765000 11 3 2
-0.319449 -0.982547 2.765000 11 5 2
-0.319449 -0.977707 2.765000 11 5 3
-0.319449 -0.972867 2.765000 9 6 5
-0.319449 -0.968027 2.765000 7 5 6
-0.319449 -0.963186 2.765000 8 6 7
-0.316907 -0.950721 2.743000 10 4 6
-0.316907 -0.945919 2.743000 9 5 5
-0.316907 -0.941118 2.743000 7 4 3
-0.319449 -0.943826 2.765000 8 5 2
-0.319449 -0.938986 2.765000 10 4 2
-0.319449 -0.934146 2.765000 9 4 2
-0.319449 -0.929305 2.765000 8 4 4
-0.319449 -0.924465 2.765000 11 6 7
-0.319449 -0.919625 2.765000 15 6 6
-0.316907 -0.907507 2.743000 13 4 5
-0.319449 -0.909945 2.765000 11 4 5
-0.316907 -0.897903 2.743000 13 4 6
-0.319449 -0.900265 2.765000 15 3 7
-0.319449 -0.895425 2.765000 14 3 8
-0.319449 -0.890584 2.765000 14 3 6
-0.319449 -0.885744 2.765000 14 4 4
-0.316907 -0.873895 2.743000 15 4 3
-0.316907 -0.869093 2.743000 12 5 2
-0.316907 -0.864292 2.743000 10 5 1
-0.314481 -0.852910 2.722000 11 5 1
-0.316907 -0.854689 2.743000 13 3 3
-0.316907 -0.849887 2.743000 13 3 5
-0.316907 -0.845085 2.743000 13 3 5
-0.316907 -0.840284 2.743000 11 4 5
-0.316907 -0.835482 2.743000 9 4 4
-0.316907 -0.830681 2.743000 13 5 3
-0.316907 -0.825879 2.743000 16 4 2
-0.316907 -0.821077 2.743000 16 4 1
-0.312055 -0.803777 2.701000 16 4 2
-0.312055 -0.799049 2.701000 14 7 4
-0.312055 -0.794321 2.701000 13 6 4
-0.312055 -0.789593 2.701000 15 6 4
-0.312055 -0.784865 2.701000 17 5 3
-0.312055 -0.780137 2.701000 16 4 3
-0.312055 -0.775409 2.701000 15 4 3
-0.312055 -0.770680 2.701000 16 6 3
-0.312055 -0.765952 2.701000 16 4 5
-0.312055 -0.761224 2.701000 17 5 7
-0.314481 -0.762378 2.722000 18 2 6
-0.314481 -0.757613 2.722000 19 3 6
-0.314481 -0.752848 2.722000 20 3 4
-0.314481 -0.748083 2.722000 18 4 3
-0.314481 -0.743318 2.722000 17 4 3
-0.314481 -0.738554 2.722000 18 6 4
-0.314481 -0.733789 2.722000 20 4 4
-0.314481 -0.729024 2.722000 18 5 4
-0.314481 -0.724259 2.722000 16 4 6
-0.314481 -0.719494 2.722000 14 5 9
-0.314481 -0.714729 2.722000 12 5 10
-0.312055 -0.704487 2.701000 13 5 11
-0.314481 -0.705200 2.722000 14 4 9
-0.314481 -0.700435 2.722000 13 5 7
-0.314481 -0.695670 2.722000 12 4 7
-0.314481 -0.690905 2.722000 12 3 8
-0.314481 -0.686140 2.722000 12 2 13
-0.314481 -0.681375 2.722000 15 3 18
-0.314481 -0.676610 2.722000 19 3 15
-0.314481 -0.671845 2.722000 19 4 13
-0.314481 -0.667081 2.722000 19 4 13
-0.314481 -0.662316 2.722000 14 5 13
-0.312055 -0.652478 2.701000 10 4 9
-0.314481 -0.652786 2.722000 9 3 5
-0.312055 -0.643022 2.701000 8 3 9
-0.312055 -0.638294 2.701000 10 4 14
-0.312055 -0.633565 2.701000 13 5 15
-0.312055 -0.628837 2.701000 11 3 17
-0.312055 -0.624109 2.701000 9 2 17
-0.314481 -0.624197 2.722000 10 3 18
-0.312055 -0.614653 2.701000 10 2 15
-0.312055 -0.609925 2.701000 13 3 12
-0.314481 -0.609902 2.722000 15 3 14
-0.314481 -0.605137 2.722000 11 2 17
-0.314481 -0.600373 2.722000 7 1 19
-0.314481 -0.595608 2.722000 9 3 21
-0.312055 -0.586285 2.701000 11 3 20
-0.312055 -0.581556 2.701000 10 4 20
-0.312055 -0.576828 2.701000 8 3 15
-0.312055 -0.572100 2.701000 12 4 11
-0.312055 -0.567372 2.701000 16 4 10
-0.312055 -0.562644 2.701000 16 3 9
-0.312055 -0.557916 2.701000 16 3 12
-0.312055 -0.553188 2.701000 14 3 16
-0.312055 -0.548460 2.701000 12 4 18
-0.312055 -0.543732 2.701000 11 4 20
-0.312055 -0.539003 2.701000 10 3 23
-0.309629 -0.530121 2.680000 11 3 26
-0.309629 -0.525430 2.680000 13 2 21
-0.309629 -0.520739 2.680000 13 3 17
-0.309629 -0.516047 2.680000 13 4 18
-0.309629 -0.511356 2.680000 13 4 19
-0.309629 -0.506665 2.680000 14 4 15
-0.309629 -0.501973 2.680000 14 3 12
-0.309629 -0.497282 2.680000 14 2 16
-0.312055 -0.496451 2.701000 13 4 20
-0.312055 -0.491722 2.701000 12 7 20
-0.312055 -0.486994 2.701000 11 6 21
-0.309629 -0.478517 2.680000 11 4 18
-0.309629 -0.473825 2.680000 11 5 16
-0.309629 -0.469134 2.680000 12 6 15
-0.309629 -0.464443 2.680000 16 5 15
-0.309629 -0.459751 2.680000 21 3 18
-0.309629 -0.455060 2.680000 26 4 22
-0.309629 -0.450369 2.680000 31 5 21
-0.309629 -0.445677 2.680000 24 4 20
-0.309629 -0.440986 2.680000 17 3 21
-0.309629 -0.436295 2.680000 21 5 22
-0.309629 -0.431603 2.680000 25 4 19
-0.309629 -0.426912 2.680000 23 6 16
-0.309629 -0.422221 2.680000 21 7 14
-0.309629 -0.417529 2.680000 21 7 13
-0.309629 -0.412838 2.680000 21 10 14
-0.309629 -0.408147 2.680000 22 10 15
-0.309629 -0.403455 2.680000 24 9 14
-0.309629 -0.398764 2.680000 28 7 14
-0.309629 -0.394073 2.680000 32 5 14
-0.312055 -0.392432 2.701000 34 5 14
-0.312055 -0.387704 2.701000 36 5 15
-0.312055 -0.382976 2.701000 35 4 16
-0.309629 -0.375307 2.680000 35 5 15
-0.309629 -0.370616 2.680000 34 6 14
-0.309629 -0.365925 2.680000 33 5 19
-0.309629 -0.361233 2.680000 31 4 25
-0.309629 -0.356542 2.680000 30 5 26
-0.309629 -0.351850 2.680000 30 6 28
-0.309629 -0.347159 2.680000 31 7 23
-0.309629 -0.342468 2.680000 29 5 18
-0.309629 -0.337776 2.680000 28 5 16
-0.309629 -0.333085 2.680000 30 8 14
-0.309629 -0.328394 2.680000 32 10 14
-0.309629 -0.323702 2.680000 33 16 14
-0.309629 -0.319011 2.680000 34 15 14
-0.309629 -0.314320 2.680000 35 15 15
-0.309629 -0.309628 2.680000 37 14 15
-0.309629 -0.304937 2.680000 37 14 15
-0.309629 -0.300246 2.680000 38 14 17
-0.309629 -0.295554 2.680000 37 18 19
-0.309629 -0.290863 2.680000 36 20 19
-0.309629 -0.286172 2.680000 37 17 19
-0.309629 -0.281480 2.680000 38 16 17
-0.309629 -0.276789 2.680000 38 17 16
-0.309629 -0.272098 2.680000 38 14 14
-0.309629 -0.267406 2.680000 38 16 13
-0.309629 -0.262715 2.680000 38 14 12
-0.309629 -0.258024 2.680000 38 14 11
-0.309629 -0.253332 2.680000 38 14 13
-0.309629 -0.248641 2.680000 38 19 16
-0.309629 -0.243950 2.680000 39 18 14
-0.309629 -0.239258 2.680000 39 20 12
-0.309629 -0.234567 2.680000 40 25 17
-0.309629 -0.229876 2.680000 38 22 23
-0.309629 -0.225184 2.680000 37 19 21
-0.309629 -0.220493 2.680000 38 21 19
-0.309629 -0.215802 2.680000 39 21 17
-0.309629 -0.211110 2.680000 40 20 16
-0.309629 -0.206419 2.680000 42 17 19
-0.309629 -0.201728 2.680000 42 20 23
-0.309629 -0.197036 2.680000 42 21 18
-0.309629 -0.192345 2.680000 41 23 14
-0.309629 -0.187654 2.680000 41 25 17
-0.309629 -0.182962 2.680000 43 22 20
-0.309629 -0.178271 2.680000 45 19 17
-0.309629 -0.173580 2.680000 44 23 14
-0.309629 -0.168888 2.680000 43 26 18
-0.309629 -0.164197 2.680000 43 26 22
-0.309629 -0.159506 2.680000 43 26 18
-0.309629 -0.154814 2.680000 44 24 14
-0.309629 -0.150123 2.680000 45 30 10
-0.309629 -0.145431 2.680000 44 29 7
-0.309629 -0.140740 2.680000 43 41 8
-0.309629 -0.136049 2.680000 43 27 9
-0.309629 -0.131357 2.680000 42 30 10
-0.309629 -0.126666 2.680000 42 27 12
-0.309629 -0.121975 2.680000 43 37 11
-0.309629 -0.117283 2.680000 41 28 10
-0.309629 -0.112592 2.680000 40 25 7
-0.309629 -0.107901 2.680000 41 29 4
-0.309629 -0.103209 2.680000 43 44 7
-0.309629 -0.098518 2.680000 43 31 11
-0.307202 -0.093092 2.659000 43 34 16
-0.307202 -0.088437 2.659000 45 34 21
-0.307202 -0.083782 2.659000 47 49 15
-0.304892 -0.078533 2.639000 44 36 9
-0.307202 -0.074473 2.659000 42 46 6
-0.307202 -0.069819 2.659000 43 36 4
-0.307202 -0.065164 2.659000 45 48 3
-0.307202 -0.060509 2.659000 47 36 3
-0.307202 -0.055855 2.659000 50 47 3
-0.309629 -0.051605 2.680000 48 36 4
-0.309629 -0.046913 2.680000 47 49 7
-0.309629 -0.042222 2.680000 44 34 10
-0.309629 -0.037531 2.680000 42 41 10
-0.309629 -0.032839 2.680000 44 36 11
-0.309629 -0.028148 2.680000 47 51 9
-0.309629 -0.023457 2.680000 47 33 8
-0.309629 -0.018765 2.680000 47 34 7
-0.309629 -0.014074 2.680000 48 33 6
-0.309629 -0.009383 2.680000 48 51 9
-0.309629 -0.004691 2.680000 47 40 13
-0.309629 -0.000000 2.680000 46 46 14
-0.309629 0.004691 2.680000 49 39 15
-0.309629 0.009383 2.680000 52 56 9
-0.309629 0.014074 2.680000 52 41 4
-0.309629 0.018765 2.680000 51 53 6
-0.309629 0.023457 2.680000 54 38 9
-0.309629 0.028148 2.680000 56 47 10
-0.309629 0.032839 2.680000 56 37 11
-0.309629 0.037531 2.680000 56 49 30
-0.309629 0.042222 2.680000 57 40 50
-0.307202 0.046546 2.659000 59 52 31
-0.307202 0.051200 2.659000 58 39 12
-0.307202 0.055855 2.659000 57 47 13
-0.309629 0.060987 2.680000 57 40 15
-0.309629 0.065679 2.680000 57 46 13
-0.309629 0.070370 2.680000 58 40 12
-0.307202 0.074473 2.659000 60 54 26
-0.309629 0.079753 2.680000 60 40 40
-0.309629 0.084444 2.680000 60 53 28
-0.309629 0.089136 2.680000 59 39 17
-0.309629 0.093827 2.680000 59 45 19
-0.309629 0.098518 2.680000 57 40 21
-0.309629 0.103210 2.680000 55 42 37
-0.312055 0.108746 2.701000 55 41 54
-0.309629 0.112592 2.680000 55 49 34
-0.309629 0.117284 2.680000 55 39 14
-0.309629 0.121975 2.680000 56 47 14
-0.309629 0.126666 2.680000 57 41 15
-0.309629 0.131358 2.680000 59 40 18
-0.309629 0.136049 2.680000 60 37 22
-0.309629 0.140740 2.680000 61 38 19
-0.309629 0.145432 2.680000 61 39 17
-0.309629 0.150123 2.680000 61 45 35
-0.309629 0.154814 2.680000 60 41 53
-0.309629 0.159506 2.680000 59 43 39
-0.309629 0.164197 2.680000 64 40 26
-0.309629 0.168888 2.680000 68 41 23
-0.309629 0.173580 2.680000 65 40 21
-0.309629 0.178271 2.680000 61 44 21
-0.309629 0.182962 2.680000 61 44 22
-0.307202 0.186183 2.659000 61 44 40
-0.307202 0.190838 2.659000 62 43 58
-0.307202 0.195492 2.659000 63 44 46
-0.307202 0.200147 2.659000 65 40 35
-0.307202 0.204802 2.659000 68 42 32
-0.307202 0.209456 2.659000 68 41 30
-0.307202 0.214111 2.659000 68 42 27
-0.309629 0.220493 2.680000 66 39 25
-0.309629 0.225184 2.680000 65 41 21
-0.309629 0.229876 2.680000 66 44 17
-0.309629 0.234567 2.680000 66 49 19
-0.307202 0.237384 2.659000 66 46 22
-0.307202 0.242038 2.659000 65 45 21
-0.307202 0.246693 2.659000 70 44 21
-0.307202 0.251347 2.659000 75 42 17
-0.304892 0.254076 2.639000 73 42 14
-0.304892 0.258696 2.639000 71 42 16
-0.304892 0.263316 2.639000 73 43 19
-0.304892 0.267935 2.639000 75 42 19
-0.304892 0.272555 2.639000 78 42 20
-0.304892 0.277174 2.639000 82 41 20
-0.307202 0.283929 2.659000 80 43 21
-0.307202 0.288584 2.659000 78 42 19
-0.309629 0.295555 2.680000 78 45 17
-0.309629 0.300246 2.680000 78 43 27
-0.309629 0.304937 2.680000 80 44 37
-0.309629 0.309629 2.680000 81 42 29
-0.309629 0.314320 2.680000 77 43 21
-0.307202 0.316512 2.659000 74 44 22
-0.304892 0.318750 2.639000 75 45 24
-0.304892 0.323370 2.639000 77 44 25
-0.304892 0.327989 2.639000 75 44 26
-0.304892 0.332609 2.639000 73 44 25
-0.304892 0.337229 2.639000 73 46 25
-0.304892 0.341848 2.639000 73 47 28
-0.307202 0.349094 2.659000 76 47 31
-0.307202 0.353748 2.659000 78 46 37
-0.307202 0.358403 2.659000 77 47 44
-0.307202 0.363057 2.659000 76 45 37
-0.307202 0.367712 2.659000 74 45 31
-0.307202 0.372366 2.659000 73 40 40
-0.307202 0.377021 2.659000 72 43 50
-0.307202 0.381676 2.659000 71 44 40
-0.307202 0.386330 2.659000 73 44 31
-0.307202 0.390985 2.659000 75 45 26
-0.304892 0.392664 2.639000 73 44 22
-0.304892 0.397283 2.639000 72 47 31
-0.304892 0.401903 2.639000 71 46 41
-0.307202 0.409603 2.659000 69 44 31
-0.307202 0.414258 2.659000 71 44 21
-0.307202 0.418912 2.659000 74 42 18
-0.307202 0.423567 2.659000 73 44 15
-0.309629 0.431603 2.680000 72 43 29
-0.309629 0.436295 2.680000 72 43 44
-0.309629 0.440986 2.680000 72 44 33
-0.309629 0.445677 2.680000 73 40 22
-0.307202 0.446840 2.659000 75 37 23
-0.307202 0.451494 2.659000 78 37 24
-0.304892 0.452718 2.639000 81 34 22
-0.304892 0.457337 2.639000 79 39 21
-0.304892 0.461957 2.639000 77 41 18
-0.304892 0.466577 2.639000 75 42 15
-0.304892 0.471196 2.639000 74 44 18
-0.307202 0.479422 2.659000 72 44 21
-0.307202 0.484076 2.659000 70 43 21
-0.307202 0.488731 2.659000 72 45 21
-0.307202 0.493386 2.659000 73 45 17
-0.307202 0.498040 2.659000 73 43 14
-0.307202 0.502695 2.659000 73 43 14
-0.307202 0.507349 2.659000 74 43 14
-0.304892 0.508153 2.639000 75 41 15
-0.304892 0.512772 2.639000 74 38 17
-0.304892 0.517392 2.639000 73 34 18
-0.304892 0.522012 2.639000 72 40 20
-0.304892 0.526631 2.639000 71 42 20
-0.304892 0.531251 2.639000 73 40 20
-0.304892 0.535870 2.639000 75 39 29
-0.304892 0.540490 2.639000 71 36 39
-0.307202 0.549241 2.659000 68 34 33
-0.307202 0.553895 2.659000 66 37 28
-0.304892 0.554349 2.639000 64 37 27
-0.304892 0.558968 2.639000 66 39 26
-0.304892 0.563588 2.639000 68 40 26
-0.304892 0.568207 2.639000 66 36 26
-0.304892 0.572827 2.639000 64 33 22
-0.304892 0.577446 2.639000 67 38 19
-0.304892 0.582066 2.639000 71 43 11
-0.302581 0.582239 2.619000 53 27 3
-0.304892 0.591305 2.639000 35 6 4
-0.304892 0.595925 2.639000 21 5 6
-0.304892 0.600544 2.639000 8 5 4
-0.307202 0.609750 2.659000 7 6 3
-0.307202 0.614405 2.659000 7 7 2
-0.307202 0.619059 2.659000 7 6 2
-0.307202 0.623714 2.659000 7 4 3
-0.309629 0.633331 2.680000 7 4 4
-0.312055 0.643022 2.701000 8 4 3
-0.312055 0.647750 2.701000 6 4 2
-0.309629 0.647405 2.680000 5 4 2
-0.309629 0.652096 2.680000 4 3 3
-0.309629 0.656788 2.680000 4 3 3
-0.307202 0.656296 2.659000 4 2 3
-0.307202 0.660950 2.659000 4 2 2
-0.259256 0.675637 2.244000 160 136 129
-0.257639 0.675325 2.230000 159 136 129
-0.257639 0.679229 2.230000 159 136 134
-0.255906 0.678538 2.215000 158 137 140
-0.255906 0.682415 2.215000 157 139 137
-0.254288 0.681955 2.201000 159 141 134
-0.252671 0.681445 2.187000 161 143 126
-0.249551 0.676813 2.160000 161 141 119
-0.248049 0.676498 2.147000 162 139 127
-0.246432 0.675821 2.133000 161 142 136
-0.244930 0.675413 2.120000 161 143 138
-0.243428 0.674960 2.107000 161 144 140
-0.243428 0.678648 2.107000 161 147 143
-0.242042 0.678450 2.095000 163 146 146
-0.242042 0.682117 2.095000 165 144 143
-0.239038 0.677274 2.069000 163 144 140
-0.237651 0.676947 2.057000 162 146 141
-0.236265 0.676577 2.045000 162 146 142
-0.236265 0.680157 2.045000 163 146 148
-0.234879 0.679725 2.033000 163 145 154
-0.229449 0.667487 1.986000 163 146 149
-0.229449 0.670963 1.986000 161 145 145
-0.228178 0.670704 1.975000 160 142 139
-0.226907 0.670407 1.964000 163 144 134
-0.226907 0.673845 1.964000 166 145 138
-0.225521 0.673144 1.952000 166 145 143
-0.224250 0.672749 1.941000 165 146 143
-0.223094 0.672663 1.931000 166 147 144
-0.221823 0.672192 1.920000 167 147 145
-0.219397 0.668164 1.899000 168 149 146
-0.218126 0.667599 1.888000 169 149 147
-0.218126 0.670904 1.888000 170 150 148
-0.215816 0.667067 1.868000 171 151 145
-0.214660 0.666748 1.858000 168 151 142
-0.213505 0.666394 1.848000 165 153 140
-0.212350 0.666006 1.838000 161 146 139
-0.211194 0.665582 1.828000 157 131 130
-0.211194 0.668782 1.828000 151 129 122
-0.210155 0.668674 1.819000 145 123 120
-0.207959 0.664840 1.800000 139 122 118
-0.205764 0.660940 1.781000 134 117 114
-0.204725 0.660702 1.772000 130 110 111
-0.203685 0.660432 1.763000 127 100 109
-0.202645 0.660131 1.754000 125 102 108
-0.201605 0.659799 1.745000 123 104 106
-0.200565 0.659435 1.736000 120 103 105
-0.200565 0.662473 1.736000 118 104 103
-0.199641 0.662445 1.728000 120 102 102
-0.198601 0.662004 1.719000 122 100 103
-0.197677 0.661918 1.711000 122 104 104
-0.314609 -1.069669 2.765000 13 2 6
-0.314609 -1.064829 2.765000 12 2 7
-0.314609 -1.059989 2.765000 14 3 8
-0.314609 -1.055149 2.765000 16 3 8
-0.314609 -1.050309 2.765000 16 4 8
-0.314609 -1.045469 2.765000 16 4 9
-0.312105 -1.032349 2.743000 14 4 9
-0.312105 -1.027547 2.743000 12 3 11
-0.314609 -1.030948 2.765000 13 4 13
-0.314609 -1.026108 2.765000 14 4 12
-0.314609 -1.021268 2.765000 13 5 11
-0.314609 -1.016428 2.765000 13 4 9
-0.314609 -1.011588 2.765000 13 4 8
-0.314609 -1.006748 2.765000 14 3 7
-0.317226 -1.010242 2.788000 14 4 7
-0.314609 -0.997067 2.765000 14 4 6
-0.314609 -0.992227 2.765000 13 7 5
-0.314609 -0.987387 2.765000 13 5 6
-0.314609 -0.982547 2.765000 13 6 7
-0.314609 -0.977707 2.765000 14 5 10
-0.314609 -0.972867 2.765000 13 7 13
-0.314609 -0.968027 2.765000 12 5 13
-0.314609 -0.963186 2.765000 12 5 13
-0.314609 -0.958346 2.765000 13 4 12
-0.314609 -0.953506 2.765000 11 4 11
-0.314609 -0.948666 2.765000 10 6 8
-0.314609 -0.943826 2.765000 11 7 4
-0.314609 -0.938986 2.765000 13 5 4
-0.314609 -0.934146 2.765000 13 3 4
-0.312105 -0.921911 2.743000 14 5 6
-0.312105 -0.917110 2.743000 16 9 8
-0.312105 -0.912308 2.743000 19 5 11
-0.312105 -0.907507 2.743000 19 2 15
-0.312105 -0.902705 2.743000 19 3 12
-0.312105 -0.897903 2.743000 20 4 10
-0.312105 -0.893102 2.743000 21 3 11
-0.312105 -0.888300 2.743000 22 3 13
-0.314609 -0.890584 2.765000 24 3 13
-0.314609 -0.885744 2.765000 22 3 12
-0.314609 -0.880904 2.765000 21 4 9
-0.312105 -0.869093 2.743000 20 8 6
-0.312105 -0.864292 2.743000 19 6 5
-0.314609 -0.866384 2.765000 18 7 5
-0.312105 -0.854689 2.743000 18 5 7
-0.312105 -0.849887 2.743000 18 4 9
-0.314609 -0.851863 2.765000 19 5 8
-0.312105 -0.840284 2.743000 18 7 7
-0.312105 -0.835482 2.743000 17 6 5
-0.312105 -0.830681 2.743000 19 7 4
-0.312105 -0.825879 2.743000 21 8 7
-0.312105 -0.821077 2.743000 21 5 11
-0.309716 -0.810026 2.722000 22 7 10
-0.309716 -0.805262 2.722000 22 10 10
-0.309716 -0.800497 2.722000 23 9 9
-0.309716 -0.795732 2.722000 23 10 8
-0.309716 -0.790967 2.722000 24 9 10
-0.309716 -0.786202 2.722000 21 5 12
-0.312105 -0.787466 2.743000 19 7 9
-0.309716 -0.776672 2.722000 20 8 7
-0.309716 -0.771908 2.722000 22 10 9
-0.309716 -0.767143 2.722000 24 10 11
-0.312105 -0.768259 2.743000 27 8 10
-0.312105 -0.763458 2.743000 27 5 10
-0.312105 -0.758656 2.743000 27 8 6
-0.312105 -0.753855 2.743000 28 7 3
-0.309716 -0.743318 2.722000 30 9 3
-0.309716 -0.738554 2.722000 29 10 4
-0.309716 -0.733789 2.722000 29 9 7
-0.309716 -0.729024 2.722000 25 7 10
-0.309716 -0.724259 2.722000 21 8 11
-0.309716 -0.719494 2.722000 16 4 12
-0.309716 -0.714729 2.722000 12 10 13
-0.309716 -0.709964 2.722000 18 9 15
-0.309716 -0.705200 2.722000 24 11 11
-0.309716 -0.700435 2.722000 18 6 8
-0.309716 -0.695670 2.722000 12 13 8
-0.312105 -0.696235 2.743000 12 1 8
-0.312105 -0.691433 2.743000 12 7 13
-0.312105 -0.686632 2.743000 19 1 18
-0.312105 -0.681830 2.743000 26 11 17
-0.312105 -0.677029 2.743000 28 4 17
-0.312105 -0.672227 2.743000 30 10 15
-0.312105 -0.667425 2.743000 20 9 13
-0.309716 -0.657551 2.722000 10 12 11
-0.309716 -0.652786 2.722000 9 1 9
-0.309716 -0.648021 2.722000 8 11 10
-0.309716 -0.643256 2.722000 10 1 12
-0.309716 -0.638491 2.722000 12 12 13
-0.309716 -0.633727 2.722000 10 2 15
-0.309716 -0.628962 2.722000 8 11 16
-0.312105 -0.629012 2.743000 9 1 17
-0.309716 -0.619432 2.722000 11 12 15
-0.309716 -0.614667 2.722000 12 1 13
-0.312105 -0.614608 2.743000 13 11 13
-0.312105 -0.609806 2.743000 11 1 14
-0.312105 -0.605004 2.743000 10 12 15
-0.312105 -0.600203 2.743000 10 1 17
-0.312105 -0.595401 2.743000 11 12 15
-0.309716 -0.586078 2.722000 11 2 14
-0.309716 -0.581313 2.722000 12 14 12
-0.309716 -0.576548 2.722000 12 1 11
-0.309716 -0.571783 2.722000 12 11 12
-0.309716 -0.567018 2.722000 12 2 14
-0.309716 -0.562254 2.722000 12 14 14
-0.309716 -0.557489 2.722000 10 1 15
-0.309716 -0.552724 2.722000 8 14 17
-0.309716 -0.547959 2.722000 9 3 18
-0.309716 -0.543194 2.722000 10 15 20
-0.309716 -0.538429 2.722000 11 1 21
-0.309716 -0.533664 2.722000 13 13 18
-0.309716 -0.528900 2.722000 16 1 15
