ply
format ascii 1.0
element vertex 1171
property float x
property float y
property float z
property uchar red
property uchar green
property uchar blue
end_header
-0.042012 0.722606 2.400000 198 169 200
-0.041732 0.721962 2.384000 197 167 199
-0.041154 0.716084 2.351000 197 162 200
-0.040874 0.715298 2.335000 197 160 201
-0.040332 0.709835 2.304000 196 154 196
-0.039806 0.704573 2.274000 196 167 192
-0.039544 0.703880 2.259000 197 176 194
-0.039281 0.703134 2.244000 196 169 196
-0.039036 0.702651 2.230000 196 157 197
-0.038774 0.701802 2.215000 196 163 199
-0.038529 0.701219 2.201000 196 163 199
-0.038283 0.700587 2.187000 197 168 199
-0.038283 0.704415 2.187000 198 172 200
-0.038056 0.704034 2.174000 196 167 202
-0.038056 0.707839 2.174000 195 165 199
-0.037811 0.707062 2.160000 197 166 197
-0.037811 0.710843 2.160000 199 166 199
-0.037111 0.701391 2.120000 199 166 202
-0.036883 0.700778 2.107000 199 167 200
-0.036445 0.696108 2.082000 199 169 198
-0.036218 0.695383 2.069000 199 172 199
-0.036218 0.699005 2.069000 200 171 200
-0.036008 0.698551 2.057000 201 171 202
-0.035798 0.698056 2.045000 203 171 205
-0.035588 0.697518 2.033000 206 170 200
-0.035378 0.696939 2.021000 204 169 195
-0.035168 0.696317 2.009000 203 172 197
-0.034975 0.696002 1.998000 205 167 200
-0.034765 0.695299 1.986000 208 162 202
-0.034572 0.694905 1.975000 206 168 205
-0.034380 0.694473 1.964000 204 169 203
-0.033977 0.689737 1.941000 202 174 201
-0.033802 0.689564 1.931000 201 171 203
-0.033610 0.688997 1.920000 201 170 205
-0.033610 0.692358 1.920000 201 172 204
-0.033417 0.691733 1.909000 201 168 204
-0.033049 0.687429 1.888000 200 163 207
-0.033049 0.690733 1.888000 200 166 211
-0.032874 0.690362 1.878000 199 168 202
-0.032699 0.689956 1.868000 198 166 193
-0.032349 0.685804 1.848000 196 166 197
-0.032174 0.685310 1.838000 201 168 201
-0.032174 0.688528 1.838000 206 167 200
-0.031999 0.687982 1.828000 204 166 200
-0.031667 0.683998 1.809000 202 167 200
-0.031667 0.687164 1.809000 205 170 200
-0.031334 0.683080 1.790000 208 173 200
-0.031176 0.682763 1.781000 206 171 200
-0.031019 0.682415 1.772000 204 170 197
-0.030861 0.682035 1.763000 204 168 195
-0.052888 0.758059 3.357000 192 155 191
-0.052888 0.763936 3.357000 194 158 193
-0.052888 0.769812 3.357000 195 164 195
-0.052368 0.768064 3.324000 196 164 194
-0.052368 0.773882 3.324000 196 166 194
-0.052368 0.779701 3.324000 196 167 196
-0.051391 0.770868 3.262000 192 165 199
-0.050903 0.769198 3.231000 188 164 200
-0.050430 0.767659 3.201000 193 164 201
-0.049973 0.766257 3.172000 199 163 200
-0.048193 0.744315 3.059000 200 169 199
-0.048193 0.749669 3.059000 201 169 202
-0.047783 0.748607 3.033000 197 167 206
-0.047358 0.747204 3.006000 194 168 204
-0.047358 0.752467 3.006000 197 170 203
-0.046948 0.751175 2.980000 201 170 207
-0.046948 0.756391 2.980000 202 174 211
-0.046555 0.755218 2.955000 203 170 208
-0.046161 0.753958 2.930000 205 168 206
-0.045767 0.752610 2.905000 207 166 208
-0.045767 0.757695 2.905000 204 165 210
-0.045389 0.756479 2.881000 201 165 206
-0.043924 0.736940 2.788000 199 167 203
-0.043924 0.741820 2.788000 197 169 198
-0.043215 0.734648 2.743000 196 169 194
-0.042884 0.733789 2.722000 196 168 199
-0.042553 0.732856 2.701000 200 170 204
-0.042222 0.731849 2.680000 205 168 203
-0.042222 0.736540 2.680000 205 165 202
-0.041891 0.735424 2.659000 205 168 205
-0.041576 0.734512 2.639000 203 170 208
-0.040946 0.727928 2.599000 201 170 205
-0.040647 0.727123 2.580000 201 170 203
-0.040332 0.725968 2.560000 202 169 203
-0.040048 0.725313 2.542000 202 164 203
-0.039749 0.724308 2.523000 203 167 201
-0.039465 0.723526 2.505000 201 174 199
-0.039182 0.722680 2.487000 200 171 201
-0.038614 0.716510 2.451000 200 170 204
-0.038347 0.715801 2.434000 201 168 201
-0.038347 0.720061 2.434000 199 167 198
-0.038079 0.719263 2.417000 198 167 201
-0.037811 0.718405 2.400000 198 166 204
-0.037811 0.722606 2.400000 199 167 201
-0.037559 0.721962 2.384000 198 167 198
-0.037039 0.716084 2.351000 198 166 202
-0.036787 0.715298 2.335000 198 166 205
-0.036298 0.709835 2.304000 198 164 200
-0.036062 0.709220 2.289000 197 173 195
-0.035826 0.708554 2.274000 197 173 195
-0.035353 0.703134 2.244000 196 173 196
-0.035133 0.702651 2.230000 195 167 195
-0.034896 0.701802 2.215000 194 169 194
-0.034676 0.701219 2.201000 194 169 196
-0.034455 0.700587 2.187000 197 168 199
-0.034455 0.704415 2.187000 200 169 200
-0.034250 0.704034 2.174000 199 169 201
-0.034250 0.707839 2.174000 198 167 200
-0.034030 0.707062 2.160000 199 166 199
-0.034030 0.710843 2.160000 201 169 200
-0.033604 0.705691 2.133000 203 172 201
-0.033195 0.700778 2.107000 206 169 199
-0.032801 0.696108 2.082000 203 171 198
-0.032596 0.695383 2.069000 201 171 199
-0.032407 0.694950 2.057000 201 173 200
-0.032407 0.698551 2.057000 201 172 201
-0.032218 0.698056 2.045000 201 170 201
-0.032029 0.697518 2.033000 201 166 199
-0.031840 0.696939 2.021000 203 171 198
-0.031651 0.696317 2.009000 205 170 199
-0.031478 0.696002 1.998000 208 169 200
-0.031288 0.695299 1.986000 211 168 203
-0.031115 0.694905 1.975000 208 172 205
-0.030942 0.694473 1.964000 205 172 203
-0.030580 0.689737 1.941000 203 174 200
-0.030422 0.689564 1.931000 202 170 199
-0.030422 0.692944 1.931000 199 170 199
-0.030249 0.692358 1.920000 196 170 200
-0.030075 0.691733 1.909000 199 165 201
-0.029745 0.687429 1.888000 202 163 203
-0.029745 0.690733 1.888000 200 166 206
-0.029587 0.690362 1.878000 199 168 200
-0.029272 0.686263 1.858000 197 169 195
-0.029114 0.685804 1.848000 195 169 196
-0.028957 0.685310 1.838000 204 170 198
-0.028799 0.684782 1.828000 213 169 198
-0.028657 0.684594 1.819000 208 167 198
-0.028500 0.683998 1.809000 204 167 200
-0.028500 0.687164 1.809000 208 170 201
-0.028358 0.686896 1.800000 213 171 201
-0.028059 0.682763 1.781000 209 171 202
-0.027917 0.682415 1.772000 205 167 200
-0.027775 0.682035 1.763000 204 160 198
-0.047474 0.765511 3.390000 189 154 192
-0.047011 0.763936 3.357000 192 154 194
-0.047011 0.769812 3.357000 193 158 196
-0.046549 0.768064 3.324000 194 161 193
-0.046549 0.773882 3.324000 195 166 191
-0.046549 0.779701 3.324000 197 169 194
-0.046115 0.778194 3.293000 196 167 198
-0.045681 0.776578 3.262000 195 164 199
-0.044827 0.767659 3.201000 196 160 200
-0.044421 0.766257 3.172000 198 157 199
-0.042838 0.744315 3.059000 199 165 198
-0.042838 0.749669 3.059000 200 171 200
-0.042474 0.748607 3.033000 198 168 202
-0.042096 0.747204 3.006000 196 169 201
-0.042096 0.752467 3.006000 198 170 201
-0.041732 0.751175 2.980000 200 172 203
-0.041732 0.756391 2.980000 200 171 206
-0.041382 0.755218 2.955000 201 170 206
-0.041032 0.753958 2.930000 202 168 207
-0.040682 0.752610 2.905000 203 167 211
-0.040345 0.751436 2.881000 202 165 216
-0.040345 0.756479 2.881000 200 165 210
-0.038721 0.730860 2.765000 199 167 204
-0.038721 0.735700 2.765000 198 171 197
-0.038119 0.729024 2.722000 198 168 191
-0.038119 0.733789 2.722000 198 163 200
-0.037825 0.732856 2.701000 202 168 209
-0.037531 0.731849 2.680000 207 171 205
-0.037531 0.736540 2.680000 206 169 202
-0.037531 0.741232 2.680000 204 171 207
-0.037237 0.740078 2.659000 202 171 213
-0.036396 0.727928 2.599000 200 172 208
-0.036130 0.727123 2.580000 201 171 203
-0.035850 0.725968 2.560000 203 172 203
-0.035598 0.725313 2.542000 204 166 203
-0.035332 0.724308 2.523000 206 159 202
-0.035080 0.723526 2.505000 204 170 201
-0.034828 0.722680 2.487000 203 174 204
-0.034324 0.716510 2.451000 202 170 208
-0.034086 0.715801 2.434000 201 167 203
-0.033848 0.715032 2.417000 201 167 199
-0.033848 0.719263 2.417000 201 167 202
-0.033610 0.718405 2.400000 200 167 206
-0.033610 0.722606 2.400000 199 167 202
-0.033386 0.721962 2.384000 200 168 198
-0.032923 0.716084 2.351000 200 171 204
-0.032699 0.715298 2.335000 201 167 210
-0.032265 0.709835 2.304000 201 164 204
-0.032055 0.709220 2.289000 200 172 198
-0.032055 0.713227 2.289000 198 172 197
-0.031635 0.707834 2.259000 197 170 197
-0.031425 0.707062 2.244000 197 170 193
-0.031229 0.706554 2.230000 198 171 190
-0.031019 0.705679 2.215000 199 176 194
-0.030823 0.705072 2.201000 200 170 199
-0.030627 0.704415 2.187000 201 168 200
-0.030445 0.704034 2.174000 198 169 201
-0.030445 0.707839 2.174000 195 170 201
-0.030249 0.707062 2.160000 197 171 201
-0.030067 0.706565 2.147000 200 172 200
-0.029688 0.701391 2.120000 202 170 200
-0.029506 0.700778 2.107000 204 168 199
-0.029156 0.696108 2.082000 202 170 199
-0.028974 0.695383 2.069000 201 171 200
-0.028806 0.694950 2.057000 202 173 201
-0.028638 0.694476 2.045000 203 175 199
-0.028638 0.698056 2.045000 201 169 198
-0.028470 0.697518 2.033000 199 156 199
-0.028302 0.696939 2.021000 201 167 201
-0.028134 0.696317 2.009000 204 171 201
-0.027980 0.696002 1.998000 205 169 201
-0.027812 0.695299 1.986000 207 170 203
-0.027658 0.694905 1.975000 206 171 206
-0.027504 0.694473 1.964000 205 173 203
-0.027182 0.689737 1.941000 204 171 200
-0.027182 0.693135 1.941000 204 168 196
-0.027042 0.692944 1.931000 203 171 193
-0.026888 0.692358 1.920000 203 174 196
-0.026734 0.691733 1.909000 203 169 199
-0.026440 0.687429 1.888000 203 161 200
-0.026299 0.687075 1.878000 202 165 201
-0.026159 0.686686 1.868000 202 169 199
-0.026019 0.686263 1.858000 201 170 197
-0.025879 0.685804 1.848000 200 174 196
-0.025739 0.685310 1.838000 204 174 196
-0.025599 0.684782 1.828000 209 173 196
-0.025473 0.684594 1.819000 206 169 197
-0.025333 0.683998 1.809000 203 167 200
-0.025207 0.683745 1.800000 206 169 203
-0.025067 0.683080 1.790000 210 173 203
-0.024941 0.682763 1.781000 207 173 204
-0.024815 0.682415 1.772000 205 168 202
-0.024689 0.682035 1.763000 204 168 201
-0.043684 0.786307 3.565000 216 168 197
-0.041944 0.766971 3.423000 181 158 193
-0.041539 0.765511 3.390000 186 156 192
-0.041135 0.763936 3.357000 191 156 193
-0.041135 0.769812 3.357000 191 156 193
-0.040731 0.768064 3.324000 192 158 189
-0.040731 0.773882 3.324000 195 168 185
-0.040731 0.779701 3.324000 198 168 189
-0.040351 0.778194 3.293000 200 173 193
-0.039591 0.769198 3.231000 202 168 195
-0.039407 0.771257 3.216000 199 158 197
-0.038978 0.768431 3.181000 197 159 196
-0.037484 0.744315 3.059000 198 163 195
-0.037484 0.749669 3.059000 200 166 198
-0.037165 0.748607 3.033000 199 168 201
-0.036834 0.747204 3.006000 199 169 201
-0.036834 0.752467 3.006000 199 171 200
-0.036834 0.757729 3.006000 199 171 202
-0.036515 0.756391 2.980000 199 171 204
-0.036209 0.755218 2.955000 200 170 204
-0.036209 0.760391 2.955000 200 169 205
-0.035596 0.752610 2.905000 200 166 208
-0.035302 0.751436 2.881000 200 164 212
-0.035008 0.750177 2.857000 200 164 208
-0.033881 0.730860 2.765000 200 166 204
-0.033881 0.735700 2.765000 200 168 199
-0.033354 0.729024 2.722000 200 171 195
-0.033097 0.728128 2.701000 200 165 200
-0.032839 0.727158 2.680000 205 168 205
-0.032839 0.731849 2.680000 210 169 203
-0.032839 0.736540 2.680000 207 170 201
-0.032582 0.735424 2.659000 204 170 204
-0.032337 0.734512 2.639000 201 171 207
-0.032092 0.733530 2.619000 199 171 203
-0.031614 0.727123 2.580000 201 173 199
-0.031369 0.725968 2.560000 204 172 199
-0.031148 0.725313 2.542000 206 172 200
-0.030916 0.724308 2.523000 209 166 200
-0.030695 0.723526 2.505000 207 173 200
-0.030474 0.722680 2.487000 206 172 203
-0.030254 0.721772 2.469000 203 171 205
-0.030033 0.720800 2.451000 201 169 202
-0.029617 0.715032 2.417000 202 168 199
-0.029408 0.714204 2.400000 204 168 201
-0.029408 0.718405 2.400000 202 168 203
-0.029408 0.722606 2.400000 200 168 200
-0.029212 0.721962 2.384000 201 168 198
-0.028808 0.716084 2.351000 203 169 201
-0.028612 0.715298 2.335000 204 169 204
-0.028232 0.709835 2.304000 205 168 202
-0.028232 0.713868 2.304000 202 179 200
-0.028048 0.713227 2.289000 200 170 200
-0.027864 0.712534 2.274000 199 168 201
-0.027497 0.707062 2.244000 199 169 197
-0.027325 0.706554 2.230000 201 171 194
-0.027142 0.705679 2.215000 204 171 197
-0.026970 0.705072 2.201000 203 168 200
-0.026798 0.704415 2.187000 203 168 201
-0.026639 0.704034 2.174000 198 169 202
-0.026639 0.707839 2.174000 193 172 203
-0.026468 0.707062 2.160000 196 176 205
-0.026468 0.710843 2.160000 199 172 202
-0.026137 0.705691 2.133000 200 168 200
-0.025977 0.705102 2.120000 202 169 198
-0.025671 0.700454 2.095000 201 172 197
-0.025353 0.695383 2.069000 201 172 202
-0.025205 0.694950 2.057000 203 173 207
-0.025058 0.694476 2.045000 205 175 204
-0.024911 0.693960 2.033000 201 177 200
-0.024764 0.693401 2.021000 197 167 200
-0.024764 0.696939 2.021000 200 170 200
-0.024617 0.696317 2.009000 204 170 197
-0.024544 0.697744 2.003000 203 167 195
-0.024483 0.699500 1.998000 203 168 199
-0.024201 0.694905 1.975000 204 170 204
-0.024201 0.698362 1.975000 205 171 201
-0.023919 0.693646 1.952000 205 169 199
-0.023784 0.693135 1.941000 206 171 197
-0.023662 0.692944 1.931000 208 175 195
-0.023527 0.692358 1.920000 211 175 197
-0.023392 0.691733 1.909000 208 177 199
-0.023135 0.687429 1.888000 205 169 199
-0.023135 0.690733 1.888000 205 166 199
-0.022890 0.686686 1.868000 205 170 198
-0.022767 0.686263 1.858000 205 170 197
-0.022644 0.685804 1.848000 205 174 196
-0.022522 0.685310 1.838000 205 180 195
-0.022399 0.684782 1.828000 205 175 196
-0.022289 0.684594 1.819000 204 170 197
-0.022167 0.683998 1.809000 203 167 201
-0.022167 0.687164 1.809000 205 166 205
-0.022056 0.686896 1.800000 207 174 205
-0.021934 0.686214 1.790000 206 180 206
-0.021824 0.685881 1.781000 205 175 202
-0.021713 0.685517 1.772000 204 171 197
-0.037055 0.784322 3.528000 196 165 196
-0.036320 0.774813 3.458000 186 156 194
-0.036320 0.780867 3.458000 188 156 193
-0.035259 0.763936 3.357000 190 159 192
-0.035259 0.769812 3.357000 188 156 191
-0.034587 0.760900 3.293000 187 149 185
-0.034261 0.759448 3.262000 191 159 179
-0.034587 0.772429 3.293000 196 165 183
-0.034261 0.770868 3.262000 197 169 188
-0.033935 0.769198 3.231000 199 177 191
-0.033935 0.774854 3.231000 197 165 195
-0.033515 0.770847 3.191000 195 161 194
-0.031856 0.743297 3.033000 200 165 197
-0.031856 0.748607 3.033000 201 166 201
-0.031572 0.747204 3.006000 202 169 200
-0.031572 0.752467 3.006000 200 171 200
-0.031299 0.751175 2.980000 198 173 201
-0.031299 0.756391 2.980000 198 171 202
-0.031299 0.761608 2.980000 199 170 202
-0.031036 0.760391 2.955000 198 169 203
-0.030511 0.752610 2.905000 198 167 205
-0.030259 0.751436 2.881000 199 165 208
-0.030007 0.750177 2.857000 199 163 206
-0.029282 0.736940 2.788000 199 164 204
-0.028810 0.729847 2.743000 199 166 202
-0.028589 0.729024 2.722000 200 165 200
-0.028369 0.728128 2.701000 200 161 201
-0.028148 0.727158 2.680000 203 164 202
-0.028148 0.731849 2.680000 206 167 201
-0.027928 0.730769 2.659000 205 168 200
-0.027928 0.735424 2.659000 204 169 200
-0.027718 0.734512 2.639000 201 169 201
-0.027507 0.733530 2.619000 199 169 198
-0.027098 0.727123 2.580000 201 171 195
-0.026888 0.725968 2.560000 204 172 196
-0.026499 0.719892 2.523000 205 169 197
-0.026499 0.724308 2.523000 206 160 198
-0.026121 0.718327 2.487000 205 169 200
-0.025932 0.717450 2.469000 204 173 201
-0.025743 0.716510 2.451000 201 171 203
-0.025564 0.715801 2.434000 197 171 201
-0.025386 0.715032 2.417000 199 169 199
-0.025386 0.719263 2.417000 202 170 199
-0.025207 0.718405 2.400000 201 169 200
-0.025207 0.722606 2.400000 200 170 199
-0.025039 0.721962 2.384000 201 169 199
-0.024861 0.720958 2.367000 202 170 199
-0.024693 0.720200 2.351000 203 167 199
-0.024367 0.714764 2.320000 204 163 200
-0.024367 0.718825 2.320000 201 168 202
-0.023884 0.708554 2.274000 199 164 203
-0.023726 0.707834 2.259000 200 168 205
-0.023569 0.707062 2.244000 200 169 202
-0.023422 0.706554 2.230000 203 170 199
-0.023422 0.710458 2.230000 205 172 200
-0.023264 0.709557 2.215000 205 169 201
-0.023117 0.708925 2.201000 205 167 202
-0.022834 0.704034 2.174000 204 169 204
-0.022834 0.707839 2.174000 203 173 206
-0.022687 0.707062 2.160000 201 173 209
-0.022550 0.706565 2.147000 200 173 205
-0.022403 0.705691 2.133000 201 169 201
-0.022266 0.705102 2.120000 202 169 198
-0.022130 0.704466 2.107000 202 171 195
-0.021867 0.699752 2.082000 202 173 204
-0.021731 0.699005 2.069000 203 174 214
-0.021479 0.694476 2.045000 204 176 208
-0.021353 0.693960 2.033000 202 172 203
-0.021353 0.697518 2.033000 201 165 201
-0.021227 0.696939 2.021000 204 168 200
-0.021101 0.696317 2.009000 207 172 194
-0.021101 0.699834 2.009000 202 168 189
-0.020859 0.695299 1.986000 198 167 195
-0.020744 0.694905 1.975000 201 169 202
-0.020744 0.698362 1.975000 204 172 200
-0.020386 0.689737 1.941000 204 172 198
-0.020281 0.689564 1.931000 205 175 198
-0.020166 0.688997 1.920000 206 175 198
-0.020050 0.688391 1.909000 208 176 198
-0.020050 0.691733 1.909000 206 174 199
-0.019830 0.687429 1.888000 204 172 198
-0.019830 0.690733 1.888000 205 172 197
-0.019725 0.690362 1.878000 205 176 197
-0.019515 0.686263 1.858000 205 173 198
-0.019410 0.685804 1.848000 206 173 196
-0.019305 0.685310 1.838000 205 177 195
-0.019200 0.684782 1.828000 205 179 196
-0.019105 0.684594 1.819000 205 173 198
-0.019000 0.683998 1.809000 204 166 202
-0.019000 0.687164 1.809000 206 172 207
-0.018905 0.686896 1.800000 208 180 208
-0.018800 0.686214 1.790000 207 181 209
-0.018706 0.685881 1.781000 207 183 201
-0.018611 0.685517 1.772000 206 178 194
-0.030572 0.782656 3.493000 191 159 197
-0.030266 0.780867 3.458000 190 156 194
-0.029382 0.763936 3.357000 189 159 193
-0.029093 0.762245 3.324000 185 160 193
-0.029093 0.768064 3.324000 182 157 189
-0.028551 0.759448 3.262000 188 157 185
-0.028822 0.772429 3.293000 194 160 187
-0.028551 0.770868 3.262000 195 162 188
-0.028279 0.769198 3.231000 197 165 189
-0.028279 0.774854 3.231000 195 164 189
-0.028017 0.773263 3.201000 194 162 190
-0.026546 0.748607 3.033000 203 163 199
-0.026310 0.747204 3.006000 206 167 199
-0.026310 0.752467 3.006000 201 173 200
-0.026310 0.757729 3.006000 197 170 201
-0.026082 0.756391 2.980000 197 173 203
-0.026082 0.761608 2.980000 198 170 202
-0.026082 0.766824 2.980000 197 170 201
-0.025864 0.765564 2.955000 197 168 202
-0.025216 0.751436 2.881000 198 166 204
-0.025006 0.750177 2.857000 199 164 204
-0.024402 0.736940 2.788000 199 162 204
-0.024008 0.729847 2.743000 199 164 203
-0.023824 0.729024 2.722000 200 163 203
-0.023641 0.728128 2.701000 201 163 202
-0.023457 0.727158 2.680000 201 163 201
-0.023457 0.731849 2.680000 202 166 201
-0.023457 0.736540 2.680000 203 169 201
-0.023273 0.735424 2.659000 204 169 201
-0.023273 0.740078 2.659000 202 169 201
-0.023098 0.739131 2.639000 200 169 199
-0.022406 0.721486 2.560000 202 170 197
-0.022406 0.725968 2.560000 204 172 197
-0.022083 0.719892 2.523000 204 173 198
-0.021925 0.719141 2.505000 204 169 200
-0.021767 0.718327 2.487000 203 171 203
-0.021610 0.717450 2.469000 203 171 203
-0.021610 0.721772 2.469000 198 171 203
-0.021304 0.715801 2.434000 194 171 201
-0.021155 0.715032 2.417000 197 170 200
-0.021155 0.719263 2.417000 200 170 200
-0.021155 0.723494 2.417000 200 171 200
-0.021006 0.722606 2.400000 200 170 200
-0.020866 0.721962 2.384000 201 170 200
-0.020717 0.720958 2.367000 202 169 200
-0.020577 0.720200 2.351000 202 167 200
-0.020306 0.714764 2.320000 203 167 201
-0.020306 0.718825 2.320000 201 169 203
-0.020306 0.722887 2.320000 199 169 204
-0.019641 0.703134 2.244000 200 173 205
-0.019641 0.707062 2.244000 202 170 200
-0.019518 0.706554 2.230000 204 169 196
-0.019518 0.710458 2.230000 207 171 198
-0.019387 0.709557 2.215000 207 171 200
-0.019264 0.708925 2.201000 208 170 200
-0.019142 0.708244 2.187000 210 170 201
-0.019028 0.707839 2.174000 213 171 203
-0.018905 0.707062 2.160000 207 173 206
-0.018792 0.706565 2.147000 202 168 204
-0.018669 0.705691 2.133000 202 169 203
-0.018555 0.705102 2.120000 203 169 200
-0.018442 0.704466 2.107000 203 171 197
-0.018336 0.704121 2.095000 204 172 202
-0.018109 0.699005 2.069000 203 175 208
-0.018004 0.698551 2.057000 203 175 205
-0.017899 0.698056 2.045000 204 172 203
-0.017689 0.693401 2.021000 206 169 201
-0.017689 0.696939 2.021000 208 167 200
-0.017584 0.696317 2.009000 211 170 197
-0.017584 0.699834 2.009000 202 167 193
-0.017435 0.697399 1.992000 193 168 197
-0.017487 0.702997 1.998000 198 170 201
-0.017382 0.702252 1.986000 204 172 199
-0.017190 0.697910 1.964000 204 174 197
-0.016989 0.693135 1.941000 204 174 198
-0.016901 0.692944 1.931000 204 175 200
-0.016805 0.692358 1.920000 205 175 200
-0.016709 0.691733 1.909000 204 173 200
-0.016709 0.695075 1.909000 204 173 199
-0.016621 0.694758 1.899000 205 176 199
-0.016525 0.694038 1.888000 206 176 198
-0.016437 0.693650 1.878000 206 176 198
-0.016350 0.693226 1.868000 207 175 195
-0.016175 0.689039 1.848000 206 176 192
-0.016087 0.688528 1.838000 206 177 196
-0.016000 0.687982 1.828000 206 179 199
-0.015921 0.687779 1.819000 206 174 202
-0.015921 0.690963 1.819000 208 178 205
-0.015833 0.690331 1.809000 210 180 205
-0.015755 0.690047 1.800000 209 183 206
-0.015667 0.689347 1.790000 209 182 202
-0.015588 0.688999 1.781000 208 181 198
-0.024703 0.790498 3.528000 192 155 199
-0.024703 0.796674 3.528000 192 158 196
-0.024213 0.786920 3.458000 192 163 195
-0.023275 0.762245 3.324000 193 161 195
-0.023275 0.768064 3.324000 194 162 193
-0.022841 0.759448 3.262000 194 159 192
-0.023058 0.772429 3.293000 194 159 190
-0.023058 0.778194 3.293000 195 159 189
-0.022841 0.776578 3.262000 196 160 186
-0.022624 0.774854 3.231000 195 160 184
-0.022413 0.773263 3.201000 194 159 187
-0.021419 0.760379 3.059000 201 163 198
-0.021237 0.759225 3.033000 199 165 200
-0.021237 0.764535 3.033000 197 162 202
-0.021048 0.762991 3.006000 198 166 204
-0.021048 0.768253 3.006000 199 170 202
-0.021048 0.773515 3.006000 197 170 200
-0.020866 0.772041 2.980000 195 170 200
-0.020173 0.751436 2.881000 197 167 200
-0.020005 0.750177 2.857000 199 166 202
-0.019676 0.742755 2.810000 198 164 204
-0.019060 0.724259 2.722000 198 165 205
-0.019060 0.729024 2.722000 198 165 207
-0.019060 0.733789 2.722000 199 166 204
-0.018912 0.732856 2.701000 200 165 201
-0.018912 0.737584 2.701000 201 167 202
-0.018765 0.736540 2.680000 202 168 203
-0.018765 0.741232 2.680000 203 170 202
-0.018765 0.745923 2.680000 200 167 201
-0.018618 0.744733 2.659000 197 168 200
-0.018618 0.749388 2.659000 202 171 199
-0.018065 0.731639 2.580000 207 175 199
-0.017799 0.725313 2.542000 205 172 199
-0.017666 0.724308 2.523000 204 173 203
-0.017540 0.723526 2.505000 204 172 207
-0.017540 0.727911 2.505000 204 171 205
-0.017414 0.727034 2.487000 200 171 204
-0.017162 0.720800 2.451000 197 174 202
-0.017043 0.720061 2.434000 199 172 201
-0.017043 0.724322 2.434000 200 170 200
-0.016924 0.723494 2.417000 200 170 200
-0.016924 0.727725 2.417000 201 170 201
-0.016805 0.726808 2.400000 200 171 202
-0.016574 0.720958 2.367000 200 172 202
-0.016574 0.725101 2.367000 201 171 202
-0.016350 0.719386 2.335000 202 172 203
-0.016350 0.723473 2.335000 198 171 204
-0.016350 0.727560 2.335000 194 173 204
-0.015818 0.707834 2.259000 198 171 205
-0.015818 0.711788 2.259000 202 171 199
-0.015713 0.710990 2.244000 204 171 194
-0.015713 0.714918 2.244000 207 173 197
-0.015615 0.714362 2.230000 206 172 200
-0.015509 0.713434 2.215000 206 172 199
-0.015411 0.712777 2.201000 207 173 198
-0.015313 0.712072 2.187000 209 170 201
-0.015222 0.711645 2.174000 205 167 204
-0.015124 0.710843 2.160000 202 160 204
-0.014935 0.705691 2.133000 203 167 205
-0.014935 0.709425 2.133000 203 168 202
-0.014844 0.708813 2.120000 204 170 199
-0.014753 0.708154 2.107000 205 172 200
-0.014669 0.707789 2.095000 204 175 202
-0.014487 0.702626 2.069000 204 177 202
-0.014403 0.702152 2.057000 204 175 203
-0.014235 0.697518 2.033000 205 175 202
-0.014235 0.701077 2.033000 207 173 201
-0.014151 0.700477 2.021000 208 174 199
-0.014151 0.704014 2.021000 203 173 198
-0.013990 0.699500 1.998000 197 170 199
-0.013906 0.698775 1.986000 201 171 201
-0.013906 0.702252 1.986000 206 174 199
-0.013752 0.697910 1.964000 205 174 197
-0.013668 0.697063 1.952000 205 175 199
-0.013521 0.692944 1.931000 204 175 202
-0.013367 0.688391 1.909000 204 177 201
-0.013367 0.691733 1.909000 203 174 201
-0.013297 0.691434 1.899000 201 173 201
-0.013297 0.694758 1.899000 204 176 201
-0.013220 0.694038 1.888000 207 178 199
-0.013150 0.693650 1.878000 208 177 198
-0.013080 0.693226 1.868000 210 176 194
-0.012940 0.689039 1.848000 208 176 190
-0.012800 0.684782 1.828000 207 177 195
-0.012737 0.684594 1.819000 207 176 201
-0.012737 0.687779 1.819000 207 176 202
-0.012737 0.690963 1.819000 209 178 204
-0.012604 0.686896 1.800000 212 181 203
-0.012604 0.690047 1.800000 211 182 203
-0.012534 0.689347 1.790000 211 183 203
-0.012471 0.688999 1.781000 210 182 203
-0.018527 0.790498 3.528000 194 160 196
-0.018527 0.796674 3.528000 194 159 194
-0.018160 0.786920 3.458000 195 160 194
-0.017976 0.784947 3.423000 200 160 195
-0.017629 0.775689 3.357000 206 160 196
-0.017293 0.766665 3.293000 200 160 198
-0.017293 0.772429 3.293000 194 159 194
-0.017293 0.778194 3.293000 195 158 190
-0.017130 0.776578 3.262000 196 158 188
-0.016968 0.774854 3.231000 195 157 187
-0.016064 0.760379 3.059000 196 161 198
-0.015928 0.759225 3.033000 197 165 199
-0.015928 0.764535 3.033000 198 163 203
-0.015786 0.762991 3.006000 199 162 207
-0.015786 0.768253 3.006000 201 165 202
-0.015786 0.773515 3.006000 197 172 198
-0.015649 0.772041 2.980000 194 167 199
-0.015387 0.764216 2.930000 196 167 200
-0.015130 0.756479 2.881000 199 166 201
-0.014757 0.742755 2.810000 198 165 201
-0.014520 0.735700 2.765000 197 166 202
-0.014295 0.729024 2.722000 197 168 203
-0.014295 0.733789 2.722000 198 167 200
-0.014184 0.732856 2.701000 199 166 197
-0.014184 0.737584 2.701000 200 167 199
-0.014074 0.736540 2.680000 201 169 201
-0.014074 0.741232 2.680000 202 167 201
-0.014074 0.745923 2.680000 198 164 200
-0.014074 0.750615 2.680000 195 166 200
-0.013964 0.749388 2.659000 202 171 200
-0.013549 0.731639 2.580000 210 171 200
-0.013349 0.725313 2.542000 207 168 199
-0.013250 0.724308 2.523000 205 171 202
-0.013155 0.723526 2.505000 205 173 205
-0.013155 0.727911 2.505000 205 171 203
-0.013060 0.727034 2.487000 203 169 202
-0.012966 0.726094 2.469000 201 171 201
-0.012871 0.725091 2.451000 201 176 200
-0.012782 0.724322 2.434000 201 170 201
-0.012693 0.723494 2.417000 201 169 202
-0.012693 0.727725 2.417000 202 169 203
-0.012604 0.726808 2.400000 200 172 204
-0.012430 0.720958 2.367000 199 172 206
-0.012430 0.725101 2.367000 200 175 208
-0.012262 0.719386 2.335000 202 173 206
-0.012262 0.723473 2.335000 196 172 205
-0.012262 0.727560 2.335000 190 171 205
-0.011942 0.712534 2.274000 196 170 206
-0.011863 0.711788 2.259000 202 171 206
-0.011784 0.710990 2.244000 204 172 205
-0.011784 0.714918 2.244000 207 172 204
-0.011711 0.714362 2.230000 206 174 203
-0.011632 0.713434 2.215000 205 175 202
-0.011485 0.708244 2.187000 205 180 200
-0.011485 0.712072 2.187000 205 172 204
-0.011417 0.711645 2.174000 204 168 209
-0.011343 0.710843 2.160000 203 168 204
-0.011201 0.705691 2.133000 203 173 199
-0.011201 0.709425 2.133000 204 167 199
-0.011133 0.708813 2.120000 205 172 198
-0.011133 0.712524 2.120000 207 173 199
-0.011065 0.711843 2.107000 206 177 201
-0.010865 0.702626 2.069000 205 177 202
-0.010739 0.698056 2.045000 205 177 204
-0.010676 0.697518 2.033000 205 176 203
-0.010613 0.696939 2.021000 205 177 202
-0.010550 0.696317 2.009000 206 178 201
-0.010550 0.699834 2.009000 204 183 199
-0.010492 0.699500 1.998000 202 173 201
-0.010429 0.698775 1.986000 205 170 203
-0.010429 0.702252 1.986000 208 172 200
-0.010314 0.697910 1.964000 207 174 198
-0.010251 0.697063 1.952000 206 175 201
-0.010193 0.696533 1.941000 205 176 205
-0.010083 0.692358 1.920000 204 174 201
-0.010083 0.695719 1.920000 201 173 197
-0.010025 0.695075 1.909000 199 175 199
-0.009973 0.694758 1.899000 203 177 201
-0.009973 0.698082 1.899000 208 178 200
-0.009862 0.693650 1.878000 210 181 199
-0.009810 0.693226 1.868000 213 176 197
-0.009705 0.689039 1.848000 211 177 195
-0.009600 0.684782 1.828000 209 177 201
-0.009552 0.684594 1.819000 209 173 206
-0.009552 0.687779 1.819000 209 176 205
-0.009500 0.687164 1.809000 211 179 204
-0.009453 0.686896 1.800000 214 180 203
-0.009400 0.686214 1.790000 213 181 202
-0.009353 0.685881 1.781000 213 181 202
-0.009353 0.688999 1.781000 212 183 203
-0.012352 0.790498 3.528000 192 159 193
-0.012229 0.788770 3.493000 193 159 193
-0.012107 0.786920 3.458000 194 161 194
-0.011984 0.784947 3.423000 198 161 195
-0.011753 0.775689 3.357000 201 161 200
-0.011637 0.773882 3.324000 198 161 205
-0.011637 0.779701 3.324000 195 161 198
-0.011529 0.778194 3.293000 195 159 192
-0.011420 0.776578 3.262000 195 157 191
-0.010710 0.760379 3.059000 194 156 197
-0.010710 0.765734 3.059000 195 160 199
-0.010619 0.764535 3.033000 197 164 204
-0.010619 0.769844 3.033000 197 161 210
-0.010524 0.768253 3.006000 197 159 203
-0.010524 0.773515 3.006000 193 162 197
-0.010345 0.765564 2.955000 190 159 199
-0.010258 0.764216 2.930000 194 162 201
-0.010002 0.750177 2.857000 198 167 200
-0.009838 0.742755 2.810000 197 165 199
-0.009680 0.735700 2.765000 197 167 199
-0.009603 0.734648 2.743000 198 167 199
-0.009530 0.733789 2.722000 198 169 196
-0.009456 0.732856 2.701000 199 167 194
-0.009456 0.737584 2.701000 199 168 197
-0.009383 0.736540 2.680000 200 171 200
-0.009309 0.735424 2.659000 201 167 200
-0.009309 0.740078 2.659000 200 165 200
-0.009383 0.750615 2.680000 199 164 201
-0.009309 0.749388 2.659000 203 168 202
-0.009099 0.737027 2.599000 207 173 201
-0.008963 0.730449 2.560000 205 170 200
-0.008900 0.729763 2.542000 204 170 201
-0.008833 0.728725 2.523000 204 171 203
-0.008770 0.727911 2.505000 204 172 202
-0.008707 0.727034 2.487000 204 169 201
-0.008644 0.726094 2.469000 204 166 200
-0.008581 0.725091 2.451000 202 171 200
-0.008521 0.724322 2.434000 200 165 202
-0.008521 0.728583 2.434000 203 168 205
-0.008462 0.727725 2.417000 207 168 205
-0.008402 0.726808 2.400000 204 169 206
-0.008287 0.720958 2.367000 202 172 210
-0.008287 0.725101 2.367000 204 173 214
-0.008175 0.719386 2.335000 206 175 210
-0.008175 0.723473 2.335000 201 173 206
-0.008014 0.713227 2.289000 196 172 207
-0.007961 0.712534 2.274000 199 171 208
-0.007909 0.711788 2.259000 203 172 212
-0.007856 0.710990 2.244000 207 171 217
-0.007856 0.714918 2.244000 211 170 212
-0.007807 0.714362 2.230000 208 172 207
-0.007706 0.708925 2.201000 205 176 205
-0.007657 0.708244 2.187000 205 174 203
-0.007611 0.707839 2.174000 204 171 208
-0.007562 0.707062 2.160000 204 169 214
-0.007562 0.710843 2.160000 205 172 204
-0.007468 0.705691 2.133000 204 170 194
-0.007468 0.709425 2.133000 204 158 196
-0.007468 0.713159 2.133000 205 168 198
-0.007422 0.712524 2.120000 206 172 199
-0.007422 0.716235 2.120000 205 175 200
-0.007289 0.707041 2.082000 205 177 202
-0.007160 0.698056 2.045000 206 176 205
-0.007118 0.697518 2.033000 207 176 204
-0.007076 0.696939 2.021000 207 177 204
-0.007034 0.696317 2.009000 207 180 202
-0.007034 0.699834 2.009000 205 176 201
-0.006995 0.699500 1.998000 204 171 203
-0.006953 0.698775 1.986000 206 169 205
-0.006953 0.702252 1.986000 208 170 202
-0.006876 0.697910 1.964000 209 174 199
-0.006834 0.697063 1.952000 210 178 204
-0.006795 0.696533 1.941000 208 176 209
-0.006722 0.692358 1.920000 206 170 201
-0.006722 0.695719 1.920000 204 173 193
-0.006683 0.695075 1.909000 203 178 197
-0.006648 0.694758 1.899000 205 176 201
-0.006648 0.698082 1.899000 208 176 201
-0.006575 0.693650 1.878000 209 176 201
-0.006540 0.693226 1.868000 210 173 201
-0.006470 0.689039 1.848000 207 177 201
-0.006400 0.684782 1.828000 205 181 206
-0.006368 0.684594 1.819000 207 177 212
-0.006368 0.687779 1.819000 210 179 208
-0.006333 0.687164 1.809000 213 179 204
-0.006302 0.686896 1.800000 217 179 202
-0.006267 0.686214 1.790000 215 179 201
-0.006235 0.685881 1.781000 213 179 202
-0.006235 0.688999 1.781000 214 181 204
-0.006176 0.790498 3.528000 190 157 190
-0.006115 0.788770 3.493000 192 157 190
-0.005992 0.778955 3.423000 194 158 192
-0.005934 0.777380 3.390000 195 162 194
-0.005877 0.775689 3.357000 197 163 197
-0.005819 0.773882 3.324000 197 163 201
-0.005819 0.779701 3.324000 197 161 196
-0.005765 0.778194 3.293000 195 160 192
-0.005710 0.776578 3.262000 194 158 191
-0.005502 0.770255 3.143000 185 156 192
-0.005404 0.761935 3.087000 189 156 193
-0.005404 0.767339 3.087000 193 156 191
-0.005355 0.765734 3.059000 194 155 190
-0.005309 0.764535 3.033000 196 159 195
-0.005309 0.769844 3.033000 194 161 201
-0.005262 0.768253 3.006000 193 159 198
-0.005217 0.766824 2.980000 190 159 195
-0.005173 0.765564 2.955000 187 158 196
-0.005043 0.751436 2.881000 192 158 197
-0.005001 0.750177 2.857000 197 162 197
-0.004961 0.749099 2.834000 197 163 197
-0.004919 0.747674 2.810000 198 164 199
-0.004840 0.740540 2.765000 198 166 201
-0.004802 0.739450 2.743000 199 167 199
-0.004765 0.738554 2.722000 199 167 198
-0.004728 0.737584 2.701000 199 170 200
-0.004691 0.736540 2.680000 200 180 202
-0.004655 0.735424 2.659000 201 170 201
-0.004655 0.740078 2.659000 202 166 201
-0.004655 0.744733 2.659000 203 165 201
-0.004620 0.743751 2.639000 203 166 201
-0.004585 0.742699 2.619000 204 170 201
-0.004481 0.730449 2.560000 204 171 201
-0.004450 0.729763 2.542000 204 171 203
-0.004417 0.728725 2.523000 203 172 206
-0.004385 0.727911 2.505000 203 172 203
-0.004354 0.727034 2.487000 205 169 201
-0.004322 0.726094 2.469000 208 169 199
-0.004291 0.725091 2.451000 203 177 197
-0.004261 0.724322 2.434000 199 170 200
-0.004231 0.723494 2.417000 206 171 203
-0.004201 0.722606 2.400000 213 168 204
-0.004201 0.726808 2.400000 209 167 206
-0.004144 0.720958 2.367000 205 170 208
-0.004144 0.725101 2.367000 208 173 210
-0.004116 0.724315 2.351000 211 173 208
-0.004088 0.723473 2.335000 206 173 206
-0.003981 0.708554 2.274000 202 172 205
-0.003954 0.707834 2.259000 203 172 204
-0.003954 0.711788 2.259000 205 171 207
-0.003928 0.710990 2.244000 210 172 211
-0.003928 0.714918 2.244000 215 171 208
-0.003904 0.714362 2.230000 210 169 206
-0.003853 0.708925 2.201000 206 172 204
-0.003828 0.708244 2.187000 205 172 203
-0.003806 0.707839 2.174000 204 171 207
-0.003781 0.707062 2.160000 205 168 211
-0.003758 0.706565 2.147000 207 172 204
-0.003734 0.705691 2.133000 205 179 197
-0.003734 0.709425 2.133000 204 169 198
-0.003734 0.713159 2.133000 204 171 199
-0.003711 0.712524 2.120000 205 172 200
-0.003711 0.716235 2.120000 205 174 202
-0.003645 0.707041 2.082000 206 175 207
-0.003559 0.693960 2.033000 207 176 211
-0.003559 0.697518 2.033000 209 176 208
-0.003538 0.696939 2.021000 209 177 206
-0.003517 0.696317 2.009000 209 173 204
-0.003517 0.699834 2.009000 207 173 202
-0.003498 0.699500 1.998000 206 171 203
-0.003477 0.698775 1.986000 207 168 203
-0.003477 0.702252 1.986000 209 169 201
-0.003438 0.697910 1.964000 211 174 199
-0.003417 0.697063 1.952000 214 175 202
-0.003398 0.696533 1.941000 211 181 205
-0.003361 0.692358 1.920000 209 174 201
-0.003361 0.695719 1.920000 208 173 197
-0.003342 0.695075 1.909000 207 175 200
-0.003324 0.694758 1.899000 207 176 203
-0.003305 0.694038 1.888000 208 176 203
-0.003288 0.693650 1.878000 207 177 203
-0.003288 0.696937 1.878000 207 177 201
-0.003253 0.692768 1.858000 204 179 200
-0.003200 0.684782 1.828000 201 179 202
-0.003184 0.684594 1.819000 206 178 205
-0.003184 0.687779 1.819000 211 175 202
-0.003167 0.687164 1.809000 216 179 199
-0.003151 0.686896 1.800000 221 179 200
-0.003133 0.686214 1.790000 217 179 201
-0.003118 0.685881 1.781000 213 180 202
-0.003118 0.688999 1.781000 216 181 204
-0.000000 0.796674 3.528000 190 153 188
-0.000000 0.778955 3.423000 192 154 190
-0.000000 0.777380 3.390000 194 162 193
-0.000000 0.775689 3.357000 195 166 195
-0.000000 0.789248 3.390000 197 162 197
-0.000000 0.783454 3.340000 199 160 195
-0.000000 0.770255 3.143000 189 157 192
-0.000000 0.768846 3.115000 190 157 191
-0.000000 0.767339 3.087000 192 158 186
-0.000000 0.765734 3.059000 193 156 181
-0.000000 0.764535 3.033000 194 156 186
-0.000000 0.762991 3.006000 193 159 192
-0.000000 0.768253 3.006000 193 160 192
-0.000000 0.766824 2.980000 194 158 193
-0.000000 0.765564 2.955000 196 159 193
-0.000000 0.751436 2.881000 197 160 193
-0.000000 0.750177 2.857000 199 161 194
-0.000000 0.749099 2.834000 199 161 196
-0.000000 0.747674 2.810000 200 162 199
-0.000000 0.740540 2.765000 199 163 203
-0.000000 0.733789 2.722000 198 166 202
-0.000000 0.738554 2.722000 198 166 202
-0.000000 0.737584 2.701000 198 166 203
-0.000000 0.736540 2.680000 198 171 205
-0.000000 0.735424 2.659000 199 170 203
-0.000000 0.740078 2.659000 200 166 202
-0.000000 0.744733 2.659000 202 165 201
-0.000000 0.743751 2.639000 202 168 200
-0.000000 0.742699 2.619000 203 171 201
-0.000000 0.730449 2.560000 202 170 202
-0.000000 0.729763 2.542000 202 171 205
-0.000000 0.728725 2.523000 199 172 209
-0.000000 0.727911 2.505000 197 175 205
-0.000000 0.727034 2.487000 201 169 201
-0.000000 0.726094 2.469000 206 166 197
-0.000000 0.725091 2.451000 203 171 194
-0.000000 0.724322 2.434000 201 170 198
-0.000000 0.723494 2.417000 205 169 202
-0.000000 0.722606 2.400000 209 168 204
-0.000000 0.726808 2.400000 206 168 206
-0.000000 0.720958 2.367000 203 170 206
-0.000000 0.725101 2.367000 205 172 206
-0.000000 0.719386 2.335000 208 174 206
-0.000000 0.709220 2.289000 205 173 206
-0.000000 0.713227 2.289000 203 172 203
-0.000000 0.707834 2.259000 204 171 201
-0.000000 0.711788 2.259000 205 169 203
-0.000000 0.710990 2.244000 209 172 205
-0.000000 0.714918 2.244000 213 173 205
-0.000000 0.714362 2.230000 209 170 206
-0.000000 0.708925 2.201000 206 171 204
-0.000000 0.708244 2.187000 205 172 203
-0.000000 0.707839 2.174000 204 174 205
-0.000000 0.707062 2.160000 204 172 208
-0.000000 0.706565 2.147000 204 172 204
-0.000000 0.705691 2.133000 203 174 200
-0.000000 0.709425 2.133000 202 170 200
-0.000000 0.713159 2.133000 203 172 200
-0.000000 0.712524 2.120000 205 174 202
-0.000000 0.716235 2.120000 205 175 205
-0.000000 0.715531 2.107000 206 176 211
-0.000000 0.693960 2.033000 207 175 218
-0.000000 0.697518 2.033000 208 177 213
-0.000000 0.696939 2.021000 210 174 208
-0.000000 0.696317 2.009000 213 164 206
-0.000000 0.699834 2.009000 207 172 204
-0.000000 0.699500 1.998000 202 173 203
-0.000000 0.698775 1.986000 204 171 202
-0.000000 0.698362 1.975000 207 167 200
-0.000000 0.697910 1.964000 209 168 199
-0.000000 0.697063 1.952000 212 168 200
-0.000000 0.696533 1.941000 209 174 201
-0.000000 0.692358 1.920000 207 172 201
-0.000000 0.691733 1.909000 205 174 201
-0.000000 0.691434 1.899000 204 174 203
-0.000000 0.694758 1.899000 207 175 205
-0.000000 0.694038 1.888000 210 176 205
-0.000000 0.697343 1.888000 210 176 205
-0.000000 0.696937 1.878000 209 179 202
-0.000000 0.696496 1.868000 207 180 199
-0.000000 0.692274 1.848000 205 180 198
-0.000000 0.687982 1.828000 208 176 198
-0.000000 0.683998 1.809000 210 167 196
-0.000000 0.683745 1.800000 213 176 194
-0.000000 0.683080 1.790000 215 180 197
-0.000000 0.682763 1.781000 211 180 201
-0.000000 0.685881 1.781000 206 182 203
-0.000000 0.685517 1.772000 213 182 205
0.006053 0.780867 3.458000 188 151 187
0.005934 0.771446 3.390000 191 157 189
0.005992 0.784947 3.423000 192 167 191
0.005934 0.783314 3.390000 194 163 193
0.005934 0.789248 3.390000 198 161 195
0.005876 0.787442 3.357000 202 160 193
0.005453 0.763393 3.115000 193 157 194
0.005453 0.768846 3.115000 192 158 194
0.005404 0.767339 3.087000 192 158 190
0.005404 0.772743 3.087000 192 155 186
0.005309 0.764535 3.033000 192 156 188
0.005309 0.769844 3.033000 192 159 191
0.005217 0.761608 2.980000 193 157 191
0.005173 0.760391 2.955000 199 157 191
0.005129 0.759087 2.930000 206 159 190
0.005043 0.751436 2.881000 203 163 190
0.005043 0.756479 2.881000 201 162 192
0.004961 0.749099 2.834000 202 161 194
0.004919 0.747674 2.810000 203 161 196
0.004880 0.746700 2.788000 200 160 199
0.004802 0.739450 2.743000 198 162 199
0.004765 0.738554 2.722000 197 167 199
0.004728 0.737584 2.701000 197 167 201
0.004691 0.736540 2.680000 197 171 203
0.004655 0.735424 2.659000 198 166 201
0.004655 0.740078 2.659000 199 164 200
0.004655 0.744733 2.659000 201 165 199
0.004620 0.743751 2.639000 201 171 199
0.004585 0.742699 2.619000 202 169 200
0.004481 0.730449 2.560000 201 169 202
0.004450 0.729763 2.542000 200 169 204
0.004417 0.728725 2.523000 196 171 206
0.004385 0.727911 2.505000 192 172 203
0.004354 0.727034 2.487000 198 169 200
0.004354 0.731387 2.487000 204 169 199
0.004322 0.730416 2.469000 203 174 197
0.004261 0.724322 2.434000 203 171 200
0.004231 0.723494 2.417000 204 170 202
0.004201 0.722606 2.400000 205 169 203
0.004173 0.721962 2.384000 203 167 204
0.004143 0.720958 2.367000 201 170 202
0.004143 0.725101 2.367000 203 171 201
0.004115 0.724315 2.351000 206 172 203
0.004033 0.713868 2.304000 205 173 205
0.004007 0.713227 2.289000 204 173 201
0.003981 0.712534 2.274000 204 174 197
0.003954 0.711788 2.259000 205 173 200
0.003954 0.715743 2.259000 208 174 204
0.003928 0.714918 2.244000 212 172 205
0.003904 0.714362 2.230000 209 169 206
0.003877 0.713434 2.215000 206 171 203
0.003828 0.708244 2.187000 205 173 200
0.003806 0.707839 2.174000 204 175 202
0.003781 0.707062 2.160000 203 177 205
0.003758 0.706565 2.147000 202 172 201
0.003734 0.705691 2.133000 201 176 197
0.003734 0.709425 2.133000 200 173 198
0.003734 0.713159 2.133000 202 173 199
0.003711 0.712524 2.120000 205 173 201
0.003711 0.716235 2.120000 206 176 202
0.003645 0.707041 2.082000 207 175 207
0.003559 0.693960 2.033000 207 173 212
0.003559 0.697518 2.033000 208 175 209
0.003538 0.696939 2.021000 212 181 206
0.003517 0.696317 2.009000 217 174 204
0.003517 0.699834 2.009000 207 178 203
0.003498 0.699500 1.998000 198 176 202
0.003477 0.698775 1.986000 202 177 201
0.003477 0.702252 1.986000 206 167 198
0.003438 0.697910 1.964000 208 166 195
0.003417 0.697063 1.952000 210 171 197
0.003398 0.696533 1.941000 207 175 199
0.003380 0.696325 1.931000 205 174 200
0.003361 0.695719 1.920000 203 177 201
0.003324 0.691434 1.899000 202 176 202
0.003324 0.694758 1.899000 207 177 204
0.003305 0.694038 1.888000 213 176 203
0.003305 0.697343 1.888000 212 174 202
0.003287 0.696937 1.878000 212 178 197
0.003270 0.696496 1.868000 211 182 193
0.003252 0.696020 1.858000 210 181 195
0.003200 0.687982 1.828000 210 182 198
0.003184 0.687779 1.819000 210 178 198
0.003151 0.683745 1.800000 210 181 199
0.003133 0.683080 1.790000 210 180 200
0.003118 0.682763 1.781000 205 180 202
0.003118 0.685881 1.781000 200 182 204
0.003102 0.685517 1.772000 210 183 205
0.012064 0.778157 3.446000 185 153 186
0.011868 0.771446 3.390000 188 159 188
0.011868 0.777380 3.390000 190 161 190
0.011868 0.783314 3.390000 191 161 191
0.011753 0.781565 3.357000 194 162 193
0.011753 0.787442 3.357000 196 164 192
0.010906 0.763393 3.115000 194 159 196
0.010808 0.761935 3.087000 194 159 197
0.010808 0.767339 3.087000 194 161 194
0.010709 0.765734 3.059000 192 159 191
0.010618 0.764535 3.033000 191 156 190
0.010524 0.762991 3.006000 189 155 190
0.010433 0.761608 2.980000 187 154 190
0.010345 0.760391 2.955000 191 156 190
0.010258 0.759087 2.930000 195 157 188
0.010086 0.751436 2.881000 196 160 187
0.010002 0.750177 2.857000 197 163 189
0.009838 0.742755 2.810000 198 162 192
0.009838 0.747674 2.810000 200 163 193
0.009761 0.746700 2.788000 198 160 195
0.009680 0.745381 2.765000 197 155 196
0.009603 0.744251 2.743000 197 162 197
0.009456 0.737584 2.701000 197 164 199
0.009383 0.736540 2.680000 196 164 201
0.009309 0.735424 2.659000 196 160 199
0.009309 0.740078 2.659000 198 162 198
0.009239 0.739131 2.639000 200 163 198
0.009239 0.743751 2.639000 201 166 199
0.009169 0.742699 2.619000 201 166 200
0.009033 0.736156 2.580000 201 166 202
0.008963 0.734930 2.560000 202 165 202
0.008899 0.734212 2.542000 199 171 203
0.008770 0.727911 2.505000 196 174 201
0.008770 0.732296 2.505000 199 169 200
0.008707 0.731387 2.487000 203 167 200
0.008644 0.730416 2.469000 203 170 201
0.008581 0.729381 2.451000 203 172 202
0.008462 0.723494 2.417000 203 171 203
0.008402 0.722606 2.400000 204 172 203
0.008346 0.721962 2.384000 203 172 203
0.008287 0.720958 2.367000 202 173 199
0.008287 0.725101 2.367000 204 172 196
0.008066 0.709835 2.304000 206 173 200
0.008066 0.713868 2.304000 206 173 204
0.008014 0.713227 2.289000 205 175 199
0.007961 0.712534 2.274000 205 174 194
0.007961 0.716515 2.274000 205 175 198
0.007909 0.715743 2.259000 211 174 203
0.007856 0.714918 2.244000 217 174 205
0.007807 0.714362 2.230000 212 172 207
0.007706 0.708925 2.201000 206 172 202
0.007657 0.708244 2.187000 207 173 197
0.007611 0.707839 2.174000 207 176 199
0.007562 0.707062 2.160000 205 172 202
0.007517 0.706565 2.147000 202 166 198
0.007468 0.705691 2.133000 202 174 194
0.007468 0.709425 2.133000 202 175 196
0.007422 0.708813 2.120000 203 172 199
0.007422 0.712524 2.120000 205 172 199
0.007377 0.711843 2.107000 206 174 200
0.007289 0.707041 2.082000 207 175 203
0.007117 0.693960 2.033000 205 172 206
0.007117 0.697518 2.033000 204 170 205
0.007075 0.696939 2.021000 208 177 204
0.007033 0.696317 2.009000 212 174 203
0.007033 0.699834 2.009000 207 175 203
0.006995 0.699500 1.998000 202 177 201
0.006953 0.698775 1.986000 204 172 200
0.006914 0.698362 1.975000 206 161 195
0.006876 0.697910 1.964000 208 168 191
0.006834 0.697063 1.952000 210 175 194
0.006795 0.696533 1.941000 209 174 197
0.006760 0.696325 1.931000 208 174 199
0.006722 0.695719 1.920000 207 175 202
0.006683 0.695075 1.909000 207 178 202
0.006648 0.694758 1.899000 212 177 203
0.006610 0.694038 1.888000 218 178 201
0.006610 0.697343 1.888000 213 177 200
0.006575 0.696937 1.878000 209 179 193
0.006540 0.696496 1.868000 210 180 187
0.006505 0.696020 1.858000 211 182 192
0.006435 0.691745 1.838000 212 181 198
0.006368 0.687779 1.819000 213 182 201
0.006302 0.683745 1.800000 212 183 204
0.006267 0.683080 1.790000 211 180 204
0.006235 0.682763 1.781000 209 183 204
0.006235 0.685881 1.781000 206 186 205
0.006204 0.685517 1.772000 213 182 206
0.018034 0.775447 3.434000 181 152 184
0.017803 0.771446 3.390000 186 157 185
0.017803 0.777380 3.390000 187 158 186
0.017803 0.783314 3.390000 189 160 188
0.017629 0.781565 3.357000 190 165 191
0.017803 0.795182 3.390000 191 162 189
0.016064 0.755024 3.059000 195 160 201
0.016064 0.760379 3.059000 196 160 197
0.015928 0.759225 3.033000 193 164 193
0.015786 0.757729 3.006000 191 156 191
0.015786 0.762991 3.006000 186 151 190
0.015518 0.755218 2.955000 181 153 189
0.015387 0.753958 2.930000 183 157 188
0.015256 0.752610 2.905000 185 153 185
0.015130 0.751436 2.881000 189 157 183
0.015003 0.750177 2.857000 193 159 186
0.014883 0.749099 2.834000 195 163 190
0.014757 0.747674 2.810000 197 162 192
0.014641 0.746700 2.788000 196 165 194
0.014641 0.751581 2.788000 196 161 194
0.014405 0.744251 2.743000 196 162 195
0.014295 0.743318 2.722000 197 163 196
0.014074 0.736540 2.680000 196 162 197
0.013964 0.735424 2.659000 195 161 197
0.013964 0.740078 2.659000 197 161 196
0.013859 0.739131 2.639000 200 162 197
0.013859 0.743751 2.639000 200 164 198
0.013754 0.742699 2.619000 201 166 202
0.013549 0.736156 2.580000 202 165 207
