ply
format ascii 1.0
element vertex 1242
property float x
property float y
property float z
property uchar red
property uchar green
property uchar blue
end_header
0.110360 0.707123 2.335000 142 128 121
0.108895 0.701769 2.304000 146 132 126
0.108186 0.701207 2.289000 150 138 130
0.106768 0.695971 2.259000 154 140 131
0.106768 0.699925 2.259000 157 144 131
0.106059 0.699206 2.244000 161 141 132
0.105398 0.698747 2.230000 158 139 134
0.105398 0.702651 2.230000 155 139 135
0.104689 0.701802 2.215000 154 139 136
0.104027 0.701219 2.201000 153 138 134
0.103365 0.700587 2.187000 151 137 132
0.102751 0.700228 2.174000 149 138 126
0.101475 0.695290 2.147000 141 138 120
0.100813 0.694490 2.133000 134 125 118
0.100199 0.693968 2.120000 130 117 117
0.099584 0.693401 2.107000 126 116 114
0.098403 0.688818 2.082000 122 113 111
0.098403 0.692463 2.082000 119 117 114
0.097788 0.691761 2.069000 135 125 117
0.097221 0.691350 2.057000 152 127 118
0.096654 0.690896 2.045000 139 127 120
0.096087 0.690401 2.033000 127 112 115
0.095519 0.689863 2.021000 125 107 110
0.094432 0.685510 1.998000 124 109 109
0.094432 0.689007 1.998000 124 112 109
0.093865 0.688346 1.986000 125 112 111
0.093345 0.687990 1.975000 128 116 114
0.092825 0.687596 1.964000 132 118 115
0.092825 0.691035 1.964000 134 122 115
0.092258 0.690229 1.952000 137 123 116
0.090746 0.682275 1.920000 133 122 117
0.090226 0.681708 1.909000 130 119 116
0.089753 0.681461 1.899000 127 116 116
0.089233 0.680819 1.888000 125 114 109
0.088761 0.680500 1.878000 125 113 103
0.088288 0.680146 1.868000 125 116 108
0.087816 0.679758 1.858000 125 115 113
0.087343 0.679334 1.848000 126 115 113
0.086870 0.678876 1.838000 125 114 114
0.086398 0.678382 1.828000 124 112 113
0.085972 0.678226 1.819000 123 114 112
0.085972 0.681410 1.819000 122 112 115
0.085074 0.677444 1.800000 120 109 118
0.084602 0.676813 1.790000 118 106 112
0.083751 0.673109 1.772000 116 103 107
0.083326 0.672777 1.763000 115 102 106
0.082900 0.672413 1.754000 114 103 106
0.082475 0.672017 1.745000 114 102 108
0.082049 0.671590 1.736000 114 103 109
0.152679 0.632526 3.115000 38 9 23
0.151306 0.632244 3.087000 25 5 2
0.151306 0.637648 3.087000 12 7 4
0.149934 0.637219 3.059000 9 5 6
0.149934 0.642574 3.059000 7 4 5
0.149934 0.647928 3.059000 6 4 5
0.149934 0.653283 3.059000 5 5 4
0.149934 0.658638 3.059000 4 4 4
0.151306 0.670071 3.087000 3 4 2
0.151306 0.675474 3.087000 3 3 1
0.151306 0.680878 3.087000 3 4 1
0.149934 0.680057 3.059000 3 3 2
0.149934 0.685412 3.059000 4 4 3
0.151306 0.697089 3.087000 4 4 4
0.151306 0.702493 3.087000 4 4 4
0.151306 0.707897 3.087000 3 3 4
0.151306 0.713301 3.087000 3 4 4
0.151306 0.718705 3.087000 3 3 4
0.152679 0.730676 3.115000 3 3 9
0.152679 0.736129 3.115000 4 3 14
0.152679 0.741582 3.115000 5 3 8
0.152679 0.747035 3.115000 4 3 3
0.152679 0.752488 3.115000 3 3 2
0.151306 0.751127 3.087000 8 7 2
0.151306 0.756531 3.087000 13 14 4
0.148659 0.753916 3.033000 23 17 24
0.148659 0.759225 3.033000 41 27 41
0.128368 0.715191 2.619000 151 138 133
0.127387 0.714279 2.599000 148 136 129
0.126456 0.713574 2.580000 146 134 129
0.125476 0.712524 2.560000 143 135 130
0.125476 0.717005 2.560000 141 136 131
0.124594 0.716413 2.542000 140 133 132
0.122780 0.710371 2.505000 139 129 135
0.121016 0.704484 2.469000 139 127 139
0.121016 0.708806 2.469000 139 126 129
0.120133 0.707929 2.451000 139 125 120
0.119300 0.707279 2.434000 140 126 129
0.119300 0.711540 2.434000 139 127 138
0.118467 0.710801 2.417000 139 128 132
0.118467 0.715032 2.417000 138 128 127
0.116849 0.709443 2.384000 138 128 126
0.116016 0.708527 2.367000 139 128 125
0.114448 0.703036 2.335000 139 128 121
0.113712 0.702581 2.320000 142 129 117
0.112928 0.701769 2.304000 146 131 124
0.112193 0.701207 2.289000 149 136 131
0.111458 0.700592 2.274000 152 140 132
0.110723 0.699925 2.259000 154 139 134
0.109987 0.699206 2.244000 157 139 134
0.109301 0.698747 2.230000 155 138 134
0.108566 0.697925 2.215000 153 138 135
0.107880 0.697366 2.201000 152 138 137
0.107194 0.696759 2.187000 151 140 134
0.106556 0.696423 2.174000 149 139 132
0.105870 0.695719 2.160000 146 140 125
0.105233 0.695290 2.147000 139 132 118
0.104547 0.694490 2.133000 133 120 118
0.104547 0.698224 2.133000 130 119 118
0.103910 0.697679 2.120000 127 119 117
0.102684 0.693119 2.095000 125 116 117
0.101410 0.688139 2.069000 124 117 116
0.101410 0.691761 2.069000 133 121 115
0.100234 0.687316 2.045000 143 129 111
0.099645 0.686842 2.033000 134 120 108
0.099645 0.690401 2.033000 125 105 107
0.098469 0.685767 2.009000 124 107 107
0.098469 0.689284 2.009000 124 111 107
0.097930 0.689007 1.998000 124 111 108
0.097342 0.688346 1.986000 125 112 111
0.096803 0.687990 1.975000 129 116 115
0.096263 0.687596 1.964000 132 120 116
0.095675 0.686812 1.952000 134 122 117
0.095675 0.690229 1.952000 136 127 119
0.094646 0.686184 1.931000 133 123 122
0.094107 0.685636 1.920000 130 119 119
0.093568 0.685049 1.909000 127 117 116
0.092538 0.680819 1.888000 125 115 113
0.092048 0.680500 1.878000 126 115 110
0.091558 0.680146 1.868000 127 120 111
0.091068 0.679758 1.858000 126 118 113
0.091068 0.683010 1.858000 125 115 113
0.090578 0.682569 1.848000 124 112 114
0.090578 0.685804 1.848000 124 111 112
0.090088 0.685310 1.838000 123 112 111
0.089156 0.681410 1.819000 122 113 117
0.088225 0.677444 1.800000 121 109 123
0.087735 0.676813 1.790000 121 106 115
0.086412 0.669691 1.763000 117 103 107
0.086412 0.672777 1.763000 113 102 107
0.085971 0.672413 1.754000 113 101 108
0.085529 0.672017 1.745000 114 100 108
0.085088 0.671590 1.736000 114 100 109
0.158131 0.632526 3.115000 34 15 18
0.156710 0.632244 3.087000 24 2 8
0.156710 0.637648 3.087000 14 5 7
0.155289 0.637219 3.059000 9 6 6
0.155289 0.642574 3.059000 5 4 5
0.155289 0.647928 3.059000 5 5 4
0.155289 0.653283 3.059000 5 4 5
0.156710 0.664667 3.087000 4 4 6
0.156710 0.670071 3.087000 4 3 4
0.156710 0.675474 3.087000 3 3 3
0.156710 0.680878 3.087000 3 3 2
0.156710 0.686282 3.087000 3 4 2
0.156710 0.691686 3.087000 4 4 3
0.158131 0.703412 3.115000 4 4 4
0.158131 0.708865 3.115000 4 3 4
0.158131 0.714318 3.115000 3 3 5
0.156710 0.713301 3.087000 3 3 4
0.158131 0.725224 3.115000 3 3 3
0.158131 0.730676 3.115000 3 2 6
0.158131 0.736129 3.115000 4 3 8
0.158131 0.741582 3.115000 6 3 6
0.158131 0.747035 3.115000 5 3 3
0.156710 0.745724 3.087000 4 4 3
0.156710 0.751127 3.087000 9 7 3
0.156710 0.756531 3.087000 14 14 5
0.155289 0.755024 3.059000 20 21 8
0.153969 0.753916 3.033000 26 19 21
0.153969 0.759225 3.033000 47 22 35
0.153969 0.764535 3.033000 68 46 45
0.131937 0.709730 2.599000 148 138 135
0.130972 0.709058 2.580000 147 136 130
0.130972 0.713574 2.580000 146 135 129
0.129957 0.712524 2.560000 144 138 129
0.129043 0.711963 2.542000 142 135 130
0.129043 0.716413 2.542000 140 130 132
0.127165 0.710371 2.505000 139 128 134
0.125338 0.704484 2.469000 139 125 136
0.125338 0.708806 2.469000 140 125 130
0.124424 0.707929 2.451000 142 125 124
0.123561 0.707279 2.434000 145 126 129
0.123561 0.711540 2.434000 142 126 134
0.122698 0.710801 2.417000 140 127 131
0.122698 0.715032 2.417000 139 128 128
0.121023 0.709443 2.384000 139 127 127
0.119347 0.703738 2.351000 139 127 126
0.118535 0.703036 2.335000 140 127 123
0.117774 0.702581 2.320000 143 129 121
0.116961 0.701769 2.304000 146 131 126
0.116200 0.701207 2.289000 148 135 131
0.115438 0.700592 2.274000 150 136 132
0.114677 0.699925 2.259000 152 136 133
0.113916 0.699206 2.244000 154 137 134
0.113205 0.698747 2.230000 153 138 134
0.112443 0.697925 2.215000 152 138 134
0.111733 0.697366 2.201000 151 137 134
0.111022 0.696759 2.187000 150 138 132
0.110362 0.696423 2.174000 147 139 131
0.109651 0.695719 2.160000 144 135 124
0.108991 0.695290 2.147000 138 132 118
0.108281 0.694490 2.133000 132 123 117
0.108281 0.698224 2.133000 130 121 116
0.107621 0.697679 2.120000 128 118 117
0.105692 0.688818 2.082000 128 117 118
0.105032 0.688139 2.069000 129 117 120
0.105032 0.691761 2.069000 131 116 123
0.103813 0.687316 2.045000 134 121 116
0.103204 0.686842 2.033000 128 122 108
0.103204 0.690401 2.033000 123 110 107
0.102595 0.689863 2.021000 123 105 105
0.101986 0.689284 2.009000 124 108 103
0.101427 0.689007 1.998000 125 111 100
0.100818 0.688346 1.986000 126 112 106
0.100260 0.687990 1.975000 129 116 113
0.099701 0.687596 1.964000 133 119 113
0.099092 0.686812 1.952000 134 121 114
0.099092 0.690229 1.952000 135 124 114
0.098026 0.686184 1.931000 133 125 114
0.097468 0.685636 1.920000 131 121 115
0.096909 0.685049 1.909000 128 118 115
0.095843 0.680819 1.888000 125 115 113
0.094828 0.676876 1.868000 127 115 112
0.094320 0.676505 1.858000 130 119 112
0.094320 0.679758 1.858000 127 123 113
0.093813 0.679334 1.848000 124 113 113
0.093813 0.682569 1.848000 124 108 113
0.093813 0.685804 1.848000 124 110 111
0.093305 0.685310 1.838000 123 111 109
0.092798 0.684782 1.828000 123 111 112
0.091376 0.677444 1.800000 123 109 115
0.090412 0.673410 1.781000 124 105 111
0.089955 0.673109 1.772000 117 102 107
0.089498 0.672777 1.763000 111 102 107
0.089041 0.672413 1.754000 112 101 107
0.088584 0.672017 1.745000 114 100 106
0.088127 0.671590 1.736000 114 98 106
0.163584 0.632526 3.115000 20 3 13
0.163584 0.637979 3.115000 15 3 14
0.162114 0.637648 3.087000 11 5 10
0.162114 0.643052 3.087000 8 5 6
0.162114 0.648455 3.087000 5 4 5
0.162114 0.653859 3.087000 4 4 4
0.162114 0.659263 3.087000 4 4 6
0.162114 0.664667 3.087000 4 3 9
0.162114 0.670071 3.087000 5 3 7
0.162114 0.675474 3.087000 4 2 5
0.162114 0.680878 3.087000 4 3 4
0.162114 0.686282 3.087000 4 3 3
0.162114 0.691686 3.087000 4 4 3
0.163584 0.703412 3.115000 4 3 4
0.163584 0.708865 3.115000 4 3 5
0.163584 0.714318 3.115000 3 2 6
0.163584 0.719771 3.115000 2 2 4
0.163584 0.725224 3.115000 3 2 3
0.163584 0.730676 3.115000 3 2 3
0.163584 0.736129 3.115000 4 2 3
0.163584 0.741582 3.115000 4 3 3
0.162114 0.740320 3.087000 4 3 4
0.162114 0.745724 3.087000 3 3 4
0.160643 0.744315 3.059000 10 8 4
0.159278 0.743297 3.033000 17 14 6
0.159278 0.748607 3.033000 21 18 9
0.157860 0.747204 3.006000 26 16 19
0.157860 0.752467 3.006000 40 29 30
0.157860 0.757729 3.006000 55 58 35
0.157860 0.762991 3.006000 53 49 41
0.136487 0.709730 2.599000 148 139 138
0.135489 0.709058 2.580000 147 136 132
0.135489 0.713574 2.580000 146 135 130
0.134438 0.712524 2.560000 144 135 128
0.134438 0.717005 2.560000 143 137 130
0.133493 0.716413 2.542000 141 131 132
0.131550 0.710371 2.505000 140 128 133
0.129660 0.704484 2.469000 139 126 134
0.129660 0.708806 2.469000 138 127 131
0.128714 0.707929 2.451000 138 127 128
0.127822 0.707279 2.434000 138 128 129
0.127822 0.711540 2.434000 138 127 130
0.126929 0.710801 2.417000 139 128 129
0.126036 0.710003 2.400000 139 127 129
0.125196 0.709443 2.384000 139 128 128
0.123463 0.703738 2.351000 139 127 127
0.122623 0.703036 2.335000 140 125 126
0.121835 0.702581 2.320000 143 128 126
0.120995 0.701769 2.304000 145 131 128
0.120207 0.701207 2.289000 148 133 131
0.119419 0.700592 2.274000 151 135 132
0.118631 0.699925 2.259000 153 136 133
0.117844 0.699206 2.244000 155 138 134
0.117108 0.698747 2.230000 153 137 135
0.116321 0.697925 2.215000 152 139 133
0.115586 0.697366 2.201000 150 137 131
0.114850 0.696759 2.187000 148 137 130
0.114168 0.696423 2.174000 144 133 130
0.113432 0.695719 2.160000 141 129 124
0.112750 0.695290 2.147000 135 127 119
0.112015 0.694490 2.133000 129 121 116
0.112015 0.698224 2.133000 128 118 114
0.110649 0.693401 2.107000 127 116 116
0.109336 0.688818 2.082000 127 116 119
0.108654 0.688139 2.069000 127 118 125
0.108023 0.687749 2.057000 129 119 132
0.107393 0.687316 2.045000 131 120 120
0.106763 0.686842 2.033000 126 116 109
0.106763 0.690401 2.033000 121 109 106
0.106133 0.689863 2.021000 122 107 104
0.105503 0.689284 2.009000 123 108 98
0.104295 0.684869 1.986000 124 109 93
0.103717 0.684533 1.975000 125 110 102
0.103717 0.687990 1.975000 128 115 111
0.103139 0.687596 1.964000 132 120 111
0.102509 0.686812 1.952000 132 120 111
0.101932 0.686340 1.941000 133 123 109
0.101406 0.686184 1.931000 131 123 107
0.100829 0.685636 1.920000 130 122 111
0.100251 0.685049 1.909000 126 116 115
0.099726 0.684785 1.899000 121 113 114
0.098623 0.680500 1.878000 124 114 114
0.098098 0.680146 1.868000 127 118 113
0.097573 0.679758 1.858000 125 116 113
0.097048 0.679334 1.848000 123 109 113
0.097048 0.682569 1.848000 123 110 113
0.096523 0.682093 1.838000 124 111 110
0.096523 0.685310 1.838000 123 111 107
0.095997 0.684782 1.828000 123 111 107
0.094527 0.677444 1.800000 123 109 108
0.093529 0.673410 1.781000 123 106 107
0.092584 0.669691 1.763000 118 104 107
0.092584 0.672777 1.763000 113 103 107
0.092111 0.672413 1.754000 113 102 107
0.091639 0.672017 1.745000 114 101 105
0.091166 0.671590 1.736000 114 99 103
0.169037 0.632526 3.115000 7 13 16
0.169037 0.637979 3.115000 7 2 17
0.169037 0.643431 3.115000 8 3 12
0.167518 0.643052 3.087000 6 5 8
0.167518 0.648455 3.087000 5 4 7
0.167518 0.653859 3.087000 4 4 6
0.165998 0.653283 3.059000 4 3 6
0.167518 0.664667 3.087000 5 3 6
0.167518 0.670071 3.087000 6 2 5
0.167518 0.675474 3.087000 6 2 4
0.167518 0.680878 3.087000 6 2 3
0.169037 0.692507 3.115000 5 3 3
0.169037 0.697960 3.115000 4 3 3
0.169037 0.703412 3.115000 4 4 4
0.169037 0.708865 3.115000 4 3 4
0.169037 0.714318 3.115000 3 3 4
0.169037 0.719771 3.115000 2 2 3
0.169037 0.725224 3.115000 3 2 2
0.169037 0.730676 3.115000 4 2 2
0.169037 0.736129 3.115000 3 2 3
0.167518 0.734916 3.087000 3 3 3
0.167518 0.740320 3.087000 3 4 4
0.167518 0.745724 3.087000 3 5 3
0.165998 0.744315 3.059000 11 10 3
0.164587 0.743297 3.033000 20 15 7
0.163122 0.747204 3.006000 26 20 21
0.163122 0.752467 3.006000 34 23 30
0.163122 0.757729 3.006000 43 42 34
0.161711 0.756391 2.980000 47 52 37
0.140005 0.704541 2.580000 148 138 135
0.140005 0.709058 2.580000 147 135 132
0.140005 0.713574 2.580000 146 134 129
0.138920 0.712524 2.560000 145 133 126
0.138920 0.717005 2.560000 145 133 129
0.137943 0.716413 2.542000 143 130 132
0.135935 0.710371 2.505000 141 128 131
0.133982 0.704484 2.469000 139 127 130
0.133982 0.708806 2.469000 137 127 126
0.133005 0.707929 2.451000 134 128 122
0.132082 0.707279 2.434000 132 127 126
0.132082 0.711540 2.434000 135 128 129
0.131160 0.710801 2.417000 138 127 129
0.130237 0.710003 2.400000 138 126 128
0.129369 0.709443 2.384000 139 127 126
0.127578 0.703738 2.351000 140 129 124
0.126710 0.703036 2.335000 141 127 126
0.125896 0.702581 2.320000 143 128 129
0.125028 0.701769 2.304000 145 131 131
0.124214 0.701207 2.289000 148 133 134
0.123400 0.700592 2.274000 152 134 134
0.122586 0.699925 2.259000 154 135 134
0.121772 0.699206 2.244000 157 135 135
0.121012 0.698747 2.230000 154 135 135
0.120198 0.697925 2.215000 152 136 132
0.119438 0.697366 2.201000 149 138 130
0.118679 0.696759 2.187000 146 133 129
0.117973 0.696423 2.174000 142 130 128
0.117214 0.695719 2.160000 138 126 124
0.116508 0.695290 2.147000 132 126 120
0.115748 0.694490 2.133000 126 118 118
0.115043 0.693968 2.120000 126 114 116
0.114337 0.693401 2.107000 126 114 115
0.112981 0.688818 2.082000 125 113 114
0.112275 0.688139 2.069000 125 116 117
0.111624 0.687749 2.057000 127 122 120
0.111624 0.691350 2.057000 129 118 113
0.110973 0.690896 2.045000 124 115 106
0.110322 0.690401 2.033000 120 110 106
0.109671 0.689863 2.021000 121 107 106
0.109019 0.689284 2.009000 122 107 102
0.107771 0.684869 1.986000 123 107 99
0.107174 0.684533 1.975000 125 110 104
0.106577 0.684159 1.964000 128 114 109
0.105926 0.683395 1.952000 131 117 111
0.105329 0.682942 1.941000 131 119 112
0.105329 0.686340 1.941000 131 120 110
0.104787 0.686184 1.931000 130 125 109
0.104190 0.685636 1.920000 130 118 110
0.103593 0.685049 1.909000 124 114 112
0.103050 0.684785 1.899000 118 113 113
0.101911 0.680500 1.878000 121 113 114
0.101368 0.680146 1.868000 125 115 112
0.100825 0.679758 1.858000 123 115 111
0.100283 0.679334 1.848000 122 112 111
0.100283 0.682569 1.848000 123 112 111
0.100283 0.685804 1.848000 124 112 110
0.099740 0.685310 1.838000 123 112 108
0.099197 0.684782 1.828000 123 111 108
0.098166 0.680831 1.809000 122 111 108
0.097135 0.676813 1.790000 122 107 107
0.096158 0.673109 1.772000 118 105 107
0.095670 0.672777 1.763000 115 104 107
0.095182 0.672413 1.754000 114 104 107
0.094693 0.672017 1.745000 114 101 109
0.094205 0.671590 1.736000 114 99 111
0.176058 0.638211 3.143000 5 2 18
0.176058 0.643713 3.143000 7 2 20
0.176058 0.649215 3.143000 9 3 15
0.174490 0.648884 3.115000 7 4 10
0.172921 0.648455 3.087000 5 4 9
0.172921 0.653859 3.087000 4 4 9
0.172921 0.659263 3.087000 4 4 6
0.172921 0.664667 3.087000 4 3 3
0.172921 0.670071 3.087000 5 3 3
0.172921 0.675474 3.087000 5 2 3
0.174490 0.687054 3.115000 5 3 3
0.174490 0.692507 3.115000 4 3 4
0.174490 0.697960 3.115000 4 4 4
0.174490 0.703412 3.115000 4 4 4
0.174490 0.708865 3.115000 4 4 3
0.174490 0.714318 3.115000 3 3 3
0.174490 0.719771 3.115000 2 2 2
0.174490 0.725224 3.115000 3 2 1
0.174490 0.730676 3.115000 3 3 2
0.172921 0.729512 3.087000 2 2 3
0.172921 0.734916 3.087000 2 3 3
0.172921 0.740320 3.087000 2 3 4
0.172921 0.745724 3.087000 3 4 3
0.172921 0.751127 3.087000 11 11 3
0.146706 0.710607 2.619000 151 140 132
0.145586 0.709730 2.599000 145 138 132
0.144521 0.709058 2.580000 146 136 133
0.144521 0.713574 2.580000 146 135 129
0.143401 0.712524 2.560000 146 134 125
0.143401 0.717005 2.560000 145 133 128
0.142393 0.716413 2.542000 143 130 132
0.141328 0.715475 2.523000 141 129 129
0.139312 0.709620 2.487000 139 128 127
0.138303 0.708806 2.469000 137 129 122
0.138303 0.713128 2.469000 135 127 117
0.137295 0.712219 2.451000 134 127 123
0.136343 0.711540 2.434000 136 128 129
0.135391 0.710801 2.417000 139 129 128
0.134438 0.710003 2.400000 139 127 128
0.133542 0.709443 2.384000 140 127 125
0.132590 0.708527 2.367000 140 128 122
0.130797 0.703036 2.335000 141 128 127
0.130797 0.707123 2.335000 141 129 132
0.129061 0.701769 2.304000 142 132 134
0.128221 0.701207 2.289000 146 133 137
0.127380 0.700592 2.274000 150 134 136
0.126540 0.699925 2.259000 152 133 136
0.125700 0.699206 2.244000 153 134 136
0.124916 0.698747 2.230000 151 133 136
0.124075 0.697925 2.215000 150 134 132
0.123291 0.697366 2.201000 147 133 129
0.122507 0.696759 2.187000 145 129 127
0.121779 0.696423 2.174000 140 127 126
0.120995 0.695719 2.160000 135 121 123
0.120995 0.699500 2.160000 130 120 121
0.119482 0.694490 2.133000 125 114 120
0.119482 0.698224 2.133000 124 111 119
0.118754 0.697679 2.120000 124 113 114
0.116625 0.688818 2.082000 123 112 109
0.115897 0.688139 2.069000 123 112 108
0.115897 0.691761 2.069000 124 115 108
0.115225 0.691350 2.057000 125 116 106
0.114553 0.690896 2.045000 121 112 104
0.113880 0.690401 2.033000 117 110 106
0.113208 0.689863 2.021000 120 107 108
0.112536 0.689284 2.009000 124 106 106
0.111920 0.689007 1.998000 124 106 105
0.110632 0.684533 1.975000 124 110 106
0.110015 0.684159 1.964000 126 113 108
0.109343 0.683395 1.952000 128 118 111
0.108727 0.682942 1.941000 128 117 114
0.108727 0.686340 1.941000 128 114 112
0.108167 0.686184 1.931000 128 115 111
0.106935 0.681708 1.909000 128 112 110
0.106935 0.685049 1.909000 124 112 110
0.106374 0.684785 1.899000 120 113 112
0.105758 0.684124 1.888000 121 113 114
0.104638 0.680146 1.868000 123 117 112
0.104078 0.679758 1.858000 122 114 110
0.104078 0.683010 1.858000 122 113 110
0.103518 0.682569 1.848000 123 112 110
0.102957 0.682093 1.838000 124 115 110
0.102957 0.685310 1.838000 123 112 110
0.102397 0.684782 1.828000 122 110 109
0.101333 0.680831 1.809000 121 108 108
0.100269 0.676813 1.790000 121 108 107
0.099260 0.673109 1.772000 116 106 107
0.098756 0.672777 1.763000 112 105 107
0.098252 0.672413 1.754000 114 104 108
0.097972 0.673558 1.749000 116 103 114
0.097748 0.675072 1.745000 115 100 120
0.181560 0.638211 3.143000 4 12 17
0.179943 0.637979 3.115000 7 3 17
0.181560 0.649215 3.143000 10 4 13
0.179943 0.648884 3.115000 7 4 10
0.179943 0.654337 3.115000 5 4 8
0.179943 0.659790 3.115000 4 5 7
0.178325 0.659263 3.087000 4 4 5
0.179943 0.670695 3.115000 4 4 3
0.179943 0.676148 3.115000 4 3 3
0.179943 0.681601 3.115000 4 3 3
0.179943 0.687054 3.115000 4 3 3
0.179943 0.692507 3.115000 4 4 4
0.179943 0.697960 3.115000 4 4 5
0.179943 0.703412 3.115000 4 4 7
0.179943 0.708865 3.115000 4 3 5
0.179943 0.714318 3.115000 3 3 3
0.179943 0.719771 3.115000 3 3 4
0.179943 0.725224 3.115000 3 3 5
0.179943 0.730676 3.115000 3 3 4
0.179943 0.736129 3.115000 2 3 3
0.179943 0.741582 3.115000 1 3 2
0.179943 0.747035 3.115000 2 4 2
0.178325 0.745724 3.087000 4 7 4
0.176708 0.744315 3.059000 11 14 6
0.151290 0.710607 2.619000 151 140 137
0.150135 0.709730 2.599000 143 139 136
0.149038 0.709058 2.580000 145 137 135
0.149038 0.713574 2.580000 147 137 131
0.147882 0.712524 2.560000 146 138 128
0.147882 0.717005 2.560000 146 133 130
0.146842 0.716413 2.542000 144 130 133
0.145745 0.715475 2.523000 142 129 130
0.143665 0.709620 2.487000 140 129 128
0.142625 0.708806 2.469000 138 127 126
0.141586 0.707929 2.451000 137 126 123
0.140604 0.707279 2.434000 136 127 126
0.139622 0.706570 2.417000 138 128 128
0.139622 0.710801 2.417000 140 129 126
0.138640 0.710003 2.400000 140 129 125
0.136733 0.704384 2.367000 141 128 124
0.135809 0.703738 2.351000 141 129 123
0.135809 0.707853 2.351000 142 129 128
0.134885 0.707123 2.335000 140 130 133
0.133094 0.701769 2.304000 139 133 134
0.132227 0.701207 2.289000 144 136 136
0.131361 0.700592 2.274000 149 134 138
0.130495 0.699925 2.259000 149 132 141
0.129628 0.699206 2.244000 150 133 137
0.128819 0.698747 2.230000 149 132 134
0.127953 0.697925 2.215000 148 133 131
0.127144 0.697366 2.201000 146 133 128
0.126335 0.696759 2.187000 144 131 126
0.125584 0.696423 2.174000 138 129 125
0.124776 0.695719 2.160000 132 122 121
0.124776 0.699500 2.160000 128 119 118
0.123216 0.694490 2.133000 124 111 117
0.123216 0.698224 2.133000 123 106 117
0.122465 0.697679 2.120000 122 109 113
0.120270 0.688818 2.082000 121 111 108
0.119519 0.688139 2.069000 121 110 108
0.118826 0.687749 2.057000 121 112 107
0.118132 0.687316 2.045000 121 111 105
0.118132 0.690896 2.045000 117 110 103
0.117439 0.690401 2.033000 114 108 102
0.116746 0.689863 2.021000 120 107 101
0.116053 0.689284 2.009000 126 105 103
0.114724 0.684869 1.986000 124 104 105
0.114089 0.684533 1.975000 123 109 106
0.113453 0.684159 1.964000 124 113 108
0.112760 0.683395 1.952000 125 115 110
0.112125 0.682942 1.941000 125 117 112
0.112125 0.686340 1.941000 126 113 110
0.110912 0.682275 1.920000 126 110 109
0.110276 0.681708 1.909000 126 110 109
0.109699 0.681461 1.899000 124 110 108
0.109063 0.680819 1.888000 122 110 110
0.108485 0.680500 1.878000 122 112 113
0.107908 0.680146 1.868000 122 112 111
0.107330 0.679758 1.858000 122 113 109
0.107330 0.683010 1.858000 122 112 112
0.106752 0.682569 1.848000 123 111 116
0.106175 0.682093 1.838000 125 111 114
0.106175 0.685310 1.838000 123 113 112
0.105077 0.681410 1.819000 122 109 110
0.104500 0.680831 1.809000 121 106 108
0.103402 0.676813 1.790000 120 106 107
0.102362 0.673109 1.772000 114 106 107
0.102362 0.676211 1.772000 109 104 106
0.101842 0.675863 1.763000 114 104 105
0.101322 0.675483 1.754000 119 102 108
0.100803 0.675072 1.745000 117 99 111
0.187062 0.638211 3.143000 8 3 16
0.187062 0.643713 3.143000 8 3 14
0.187062 0.649215 3.143000 8 6 12
0.185395 0.648884 3.115000 6 4 10
0.185395 0.654337 3.115000 4 4 7
0.185395 0.659790 3.115000 4 4 5
0.185395 0.665243 3.115000 4 4 4
0.185395 0.670695 3.115000 4 4 4
0.185395 0.676148 3.115000 4 4 4
0.185395 0.681601 3.115000 4 3 4
0.185395 0.687054 3.115000 4 4 4
0.185395 0.692507 3.115000 4 4 4
0.185395 0.697960 3.115000 4 4 7
0.185395 0.703412 3.115000 3 3 10
0.185395 0.708865 3.115000 3 3 6
0.185395 0.714318 3.115000 3 3 3
0.185395 0.719771 3.115000 3 4 6
0.185395 0.725224 3.115000 3 3 9
0.185395 0.730676 3.115000 3 3 6
0.185395 0.736129 3.115000 2 3 3
0.185395 0.741582 3.115000 2 3 2
0.185395 0.747035 3.115000 4 5 1
0.185395 0.752488 3.115000 6 7 5
0.183729 0.751127 3.087000 13 14 9
0.157065 0.711414 2.639000 155 141 141
0.155875 0.710607 2.619000 151 141 142
0.154685 0.709730 2.599000 147 143 140
0.154685 0.714279 2.599000 147 139 138
0.153554 0.713574 2.580000 147 139 134
0.153554 0.718090 2.580000 146 136 131
0.152364 0.717005 2.560000 145 132 132
0.151292 0.716413 2.542000 143 129 134
0.150161 0.715475 2.523000 141 129 132
0.148019 0.709620 2.487000 139 128 130
0.146947 0.708806 2.469000 138 127 130
0.145876 0.707929 2.451000 138 127 130
0.144864 0.707279 2.434000 137 129 129
0.143853 0.706570 2.417000 139 129 128
0.142841 0.705802 2.400000 140 131 125
0.141889 0.705270 2.384000 141 129 122
0.140877 0.704384 2.367000 142 128 123
0.139924 0.703738 2.351000 142 129 125
0.139924 0.707853 2.351000 143 130 129
0.138972 0.707123 2.335000 142 132 134
0.137127 0.701769 2.304000 141 136 134
0.136234 0.701207 2.289000 144 136 135
0.135342 0.700592 2.274000 148 136 140
0.134449 0.699925 2.259000 148 134 146
0.133556 0.699206 2.244000 149 134 139
0.132723 0.698747 2.230000 148 133 133
0.131830 0.697925 2.215000 147 134 130
0.130997 0.697366 2.201000 144 133 128
0.130164 0.696759 2.187000 141 134 126
0.129390 0.696423 2.174000 135 129 124
0.128557 0.695719 2.160000 129 121 119
0.128557 0.699500 2.160000 126 115 115
0.127783 0.699048 2.147000 123 105 115
0.126950 0.698224 2.133000 122 105 116
0.126176 0.697679 2.120000 121 107 112
0.124688 0.693119 2.095000 120 108 108
0.123141 0.688139 2.069000 119 107 107
0.122426 0.687749 2.057000 119 108 107
0.121712 0.687316 2.045000 119 109 105
0.120998 0.686842 2.033000 117 108 103
0.120998 0.690401 2.033000 114 105 99
0.120284 0.689863 2.021000 119 106 95
0.119570 0.689284 2.009000 123 106 100
0.118915 0.689007 1.998000 122 106 105
0.117546 0.684533 1.975000 121 109 107
0.116891 0.684159 1.964000 120 112 109
0.116177 0.683395 1.952000 119 115 109
0.115523 0.682942 1.941000 121 115 110
0.115523 0.686340 1.941000 124 114 109
0.114273 0.682275 1.920000 123 111 108
0.113618 0.681708 1.909000 123 111 107
0.113023 0.681461 1.899000 121 109 107
0.112368 0.680819 1.888000 119 108 109
0.111773 0.680500 1.878000 120 107 112
0.111178 0.680146 1.868000 121 108 110
0.111178 0.683416 1.868000 120 110 109
0.110583 0.683010 1.858000 120 111 115
0.109987 0.682569 1.848000 121 109 122
0.109392 0.682093 1.838000 122 107 118
0.109392 0.685310 1.838000 120 109 115
0.108797 0.684782 1.828000 119 110 111
0.107666 0.680831 1.809000 119 106 108
0.106535 0.676813 1.790000 119 105 107
0.106000 0.676528 1.781000 116 104 107
0.105464 0.676211 1.772000 112 104 104
0.104928 0.675863 1.763000 114 103 102
0.104393 0.675483 1.754000 116 104 102
0.103857 0.675072 1.745000 115 101 102
0.192564 0.638211 3.143000 12 11 21
0.192564 0.643713 3.143000 9 3 12
0.192564 0.649215 3.143000 6 5 9
0.192564 0.654717 3.143000 4 5 7
0.190848 0.654337 3.115000 3 4 6
0.190848 0.659790 3.115000 4 5 5
0.190848 0.665243 3.115000 5 4 4
0.190848 0.670695 3.115000 4 4 4
0.190848 0.676148 3.115000 4 4 3
0.190848 0.681601 3.115000 4 4 3
0.190848 0.687054 3.115000 4 4 3
0.190848 0.692507 3.115000 4 5 3
0.190848 0.697960 3.115000 4 4 4
0.190848 0.703412 3.115000 3 4 6
0.190848 0.708865 3.115000 3 3 4
0.190848 0.714318 3.115000 3 3 3
0.190848 0.719771 3.115000 3 3 4
0.190848 0.725224 3.115000 3 4 6
0.190848 0.730676 3.115000 4 3 4
0.189133 0.729512 3.087000 3 3 3
0.189133 0.734916 3.087000 3 4 3
0.189133 0.740320 3.087000 6 8 3
0.189133 0.745724 3.087000 9 10 7
0.160460 0.706022 2.619000 151 142 139
0.159234 0.705180 2.599000 151 142 138
0.159234 0.709730 2.599000 151 141 136
0.158070 0.709058 2.580000 149 140 135
0.158070 0.713574 2.580000 148 139 132
0.156845 0.712524 2.560000 146 136 130
0.156845 0.717005 2.560000 144 132 132
0.155742 0.716413 2.542000 142 128 134
0.154578 0.715475 2.523000 140 129 132
0.152372 0.709620 2.487000 139 130 130
0.151269 0.708806 2.469000 139 129 130
0.150167 0.707929 2.451000 139 129 130
0.149125 0.707279 2.434000 139 130 129
0.148084 0.706570 2.417000 140 131 128
0.147042 0.705802 2.400000 141 131 124
0.146062 0.705270 2.384000 142 131 120
0.145020 0.704384 2.367000 143 129 122
0.144040 0.703738 2.351000 144 130 125
0.144040 0.707853 2.351000 145 131 129
0.143060 0.707123 2.335000 144 133 133
0.142141 0.706642 2.320000 144 134 133
0.141160 0.705802 2.304000 145 136 133
0.139322 0.700592 2.274000 147 135 136
0.138403 0.699925 2.259000 147 135 140
0.137484 0.699206 2.244000 148 134 136
0.136627 0.698747 2.230000 147 134 132
0.135708 0.697925 2.215000 146 134 129
0.134850 0.697366 2.201000 142 133 126
0.133992 0.696759 2.187000 139 131 123
0.133196 0.696423 2.174000 133 132 121
0.133196 0.700228 2.174000 127 119 119
0.132338 0.699500 2.160000 125 117 117
0.131541 0.699048 2.147000 123 106 115
0.130684 0.698224 2.133000 122 102 113
0.129887 0.697679 2.120000 121 105 107
0.128355 0.693119 2.095000 119 107 101
0.126762 0.688139 2.069000 117 105 102
0.126762 0.691761 2.069000 117 104 104
0.126027 0.691350 2.057000 118 107 103
0.125292 0.690896 2.045000 116 108 102
0.124557 0.690401 2.033000 115 106 99
0.123822 0.689863 2.021000 118 106 97
0.123086 0.689284 2.009000 121 106 101
0.122412 0.689007 1.998000 120 107 106
0.121003 0.684533 1.975000 119 108 107
0.121003 0.687990 1.975000 116 111 109
0.119594 0.683395 1.952000 114 112 109
0.118920 0.682942 1.941000 118 114 110
0.118920 0.686340 1.941000 122 112 108
0.117634 0.682275 1.920000 121 111 106
0.116960 0.681708 1.909000 121 109 104
0.116347 0.681461 1.899000 119 107 102
0.115673 0.680819 1.888000 117 104 104
0.115060 0.680500 1.878000 118 103 107
0.114448 0.680146 1.868000 120 105 104
0.113835 0.679758 1.858000 119 109 101
0.113835 0.683010 1.858000 118 109 108
0.113222 0.682569 1.848000 118 107 115
0.112610 0.682093 1.838000 119 106 114
0.111997 0.681582 1.828000 118 106 113
0.111446 0.681410 1.819000 117 107 110
0.110833 0.680831 1.809000 118 105 107
0.109669 0.676813 1.790000 119 104 106
0.109117 0.676528 1.781000 117 103 105
0.108566 0.676211 1.772000 116 102 102
0.108015 0.675863 1.763000 114 101 99
0.107463 0.675483 1.754000 113 102 100
0.106912 0.675072 1.745000 113 101 101
0.198066 0.638211 3.143000 7 8 26
0.198066 0.643713 3.143000 6 6 10
0.198066 0.649215 3.143000 6 6 7
0.198066 0.654717 3.143000 5 5 5
0.198066 0.660219 3.143000 4 5 5
0.196301 0.659790 3.115000 4 4 5
0.196301 0.665243 3.115000 4 4 4
0.196301 0.670695 3.115000 4 4 4
0.196301 0.676148 3.115000 4 4 3
0.196301 0.681601 3.115000 4 4 2
0.196301 0.687054 3.115000 4 4 2
0.196301 0.692507 3.115000 4 4 2
0.196301 0.697960 3.115000 4 4 2
0.196301 0.703412 3.115000 3 3 3
0.196301 0.708865 3.115000 3 3 3
0.196301 0.714318 3.115000 3 3 3
0.196301 0.719771 3.115000 4 3 3
0.196301 0.725224 3.115000 3 3 4
0.194537 0.724108 3.087000 3 3 3
0.194537 0.729512 3.087000 2 3 3
0.194537 0.734916 3.087000 2 3 4
0.194537 0.740320 3.087000 5 7 6
0.194537 0.745724 3.087000 9 12 9
0.167565 0.712151 2.659000 149 142 141
0.165044 0.706022 2.619000 151 140 138
0.165044 0.710607 2.619000 151 140 135
0.163784 0.709730 2.599000 152 141 133
0.162586 0.709058 2.580000 151 140 132
0.162586 0.713574 2.580000 149 141 130
0.161326 0.712524 2.560000 146 138 129
0.161326 0.717005 2.560000 144 134 131
0.160192 0.716413 2.542000 142 131 134
0.158994 0.715475 2.523000 140 132 132
0.156726 0.709620 2.487000 139 130 130
0.155591 0.708806 2.469000 138 130 130
0.154457 0.707929 2.451000 139 130 131
0.153386 0.707279 2.434000 140 132 129
0.152315 0.706570 2.417000 140 131 128
0.151243 0.705802 2.400000 140 131 123
0.150235 0.705270 2.384000 141 130 118
0.149164 0.704384 2.367000 143 130 122
0.148155 0.703738 2.351000 144 131 126
0.148155 0.707853 2.351000 146 133 129
0.147147 0.707123 2.335000 144 133 132
0.146202 0.706642 2.320000 142 134 132
0.145194 0.705802 2.304000 144 134 132
0.143303 0.700592 2.274000 145 134 133
0.142358 0.699925 2.259000 146 134 134
0.141412 0.699206 2.244000 147 135 133
0.140530 0.698747 2.230000 146 135 132
0.139585 0.697925 2.215000 145 137 128
0.138703 0.697366 2.201000 141 133 124
0.137820 0.696759 2.187000 137 126 121
0.137001 0.696423 2.174000 131 123 119
0.137001 0.700228 2.174000 125 109 119
0.136119 0.699500 2.160000 120 107 119
0.135300 0.699048 2.147000 115 102 114
0.134417 0.698224 2.133000 116 103 110
0.133598 0.697679 2.120000 118 106 102
0.132023 0.693119 2.095000 117 105 94
0.131204 0.692463 2.082000 116 103 97
0.130384 0.691761 2.069000 116 104 101
0.129628 0.691350 2.057000 117 108 101
0.128872 0.690896 2.045000 116 107 102
0.128116 0.690401 2.033000 116 106 100
0.127359 0.689863 2.021000 119 105 99
0.126603 0.689284 2.009000 122 105 103
0.125910 0.689007 1.998000 121 106 107
0.125154 0.688346 1.986000 120 108 108
0.123767 0.684159 1.964000 118 109 110
0.123011 0.683395 1.952000 116 109 110
0.122318 0.682942 1.941000 118 110 110
0.121688 0.682804 1.931000 121 112 107
0.120995 0.682275 1.920000 120 110 105
0.120301 0.681708 1.909000 120 109 101
0.119671 0.681461 1.899000 118 105 97
0.118978 0.680819 1.888000 116 101 99
0.118348 0.680500 1.878000 117 101 102
0.117718 0.680146 1.868000 118 102 98
0.117087 0.679758 1.858000 117 106 94
0.117087 0.683010 1.858000 117 110 101
0.116457 0.682569 1.848000 117 108 108
0.115827 0.682093 1.838000 118 106 109
0.115827 0.685310 1.838000 116 106 111
0.114630 0.681410 1.819000 115 107 108
0.114000 0.680831 1.809000 116 105 106
0.113432 0.680595 1.800000 117 104 104
0.112235 0.676528 1.781000 115 103 103
0.111668 0.676211 1.772000 114 102 100
0.111101 0.675863 1.763000 111 101 97
0.110534 0.675483 1.754000 109 102 99
0.109966 0.675072 1.745000 111 100 101
0.209267 0.644769 3.231000 35 22 29
0.207324 0.644386 3.201000 18 11 40
0.205446 0.644100 3.172000 2 9 25
0.205446 0.649653 3.172000 4 9 10
0.205446 0.655205 3.172000 7 6 7
0.203567 0.654717 3.143000 6 5 3
0.203567 0.660219 3.143000 5 4 3
0.201754 0.659790 3.115000 4 5 3
0.201754 0.665243 3.115000 4 4 3
0.201754 0.670695 3.115000 4 4 4
0.201754 0.676148 3.115000 4 4 4
0.201754 0.681601 3.115000 4 4 5
0.201754 0.687054 3.115000 4 4 3
0.201754 0.692507 3.115000 4 5 2
0.203567 0.704233 3.143000 4 4 2
0.201754 0.703412 3.115000 3 4 3
0.201754 0.708865 3.115000 3 3 3
0.201754 0.714318 3.115000 4 3 3
0.201754 0.719771 3.115000 5 3 3
0.199940 0.718705 3.087000 4 4 3
0.199940 0.724108 3.087000 3 3 2
0.199940 0.729512 3.087000 2 3 2
0.199940 0.734916 3.087000 1 3 4
0.201754 0.747035 3.115000 5 7 6
0.199940 0.745724 3.087000 10 13 9
0.170924 0.706794 2.639000 151 147 141
0.169629 0.706022 2.619000 151 141 138
0.169629 0.710607 2.619000 152 138 136
0.168333 0.709730 2.599000 154 138 134
0.168333 0.714279 2.599000 152 138 133
0.167103 0.713574 2.580000 151 139 132
0.167103 0.718090 2.580000 147 141 131
0.165807 0.717005 2.560000 144 136 136
0.164641 0.716413 2.542000 142 133 141
0.163411 0.715475 2.523000 141 131 136
0.161079 0.709620 2.487000 139 131 131
0.159913 0.708806 2.469000 138 130 130
0.158748 0.707929 2.451000 139 130 129
0.157646 0.707279 2.434000 141 131 129
0.156545 0.706570 2.417000 140 132 130
0.155444 0.705802 2.400000 140 131 127
0.154408 0.705270 2.384000 141 131 124
0.153307 0.704384 2.367000 143 131 126
0.152271 0.703738 2.351000 145 133 128
0.152271 0.707853 2.351000 147 133 131
0.151234 0.707123 2.335000 144 133 134
0.150263 0.706642 2.320000 141 133 133
0.149227 0.705802 2.304000 142 134 131
0.147284 0.700592 2.274000 144 134 132
0.146312 0.699925 2.259000 145 135 134
0.145340 0.699206 2.244000 146 134 135
0.144434 0.698747 2.230000 145 135 136
0.144434 0.702651 2.230000 145 136 130
0.143462 0.701802 2.215000 140 137 124
0.141649 0.696759 2.187000 136 127 121
0.140807 0.696423 2.174000 130 125 118
0.140807 0.700228 2.174000 124 109 115
0.139900 0.699500 2.160000 115 100 113
0.139058 0.699048 2.147000 107 102 111
0.138151 0.698224 2.133000 111 103 109
0.137309 0.697679 2.120000 116 105 104
0.135690 0.693119 2.095000 116 106 100
0.134848 0.692463 2.082000 116 104 101
0.134006 0.691761 2.069000 116 104 103
0.133229 0.691350 2.057000 116 106 102
0.132452 0.690896 2.045000 116 106 102
0.131674 0.690401 2.033000 117 105 100
0.130897 0.689863 2.021000 120 105 99
0.130120 0.689284 2.009000 124 104 104
0.128630 0.684869 1.986000 122 104 110
0.128630 0.688346 1.986000 121 106 113
0.127918 0.687990 1.975000 120 108 116
0.127205 0.687596 1.964000 119 108 113
0.126428 0.686812 1.952000 119 108 110
0.125068 0.682804 1.931000 120 109 108
0.124355 0.682275 1.920000 119 110 106
0.123643 0.681708 1.909000 119 107 105
0.122995 0.681461 1.899000 117 105 103
0.122283 0.680819 1.888000 116 101 104
0.121635 0.680500 1.878000 116 98 105
0.121635 0.683788 1.878000 116 101 103
0.120988 0.683416 1.868000 116 106 101
0.120340 0.683010 1.858000 116 107 103
0.119692 0.682569 1.848000 116 109 106
0.119044 0.682093 1.838000 117 107 107
0.118397 0.681582 1.828000 115 105 108
0.117814 0.681410 1.819000 113 105 106
0.117166 0.680831 1.809000 114 106 104
0.115936 0.676813 1.790000 115 104 104
0.115353 0.676528 1.781000 114 103 105
0.114770 0.676211 1.772000 113 102 107
0.114187 0.675863 1.763000 109 101 109
0.114187 0.678949 1.763000 105 100 106
0.113021 0.675072 1.745000 110 100 104
0.214923 0.639113 3.231000 47 37 21
0.214923 0.644769 3.231000 29 22 29
0.212927 0.644386 3.201000 17 12 38
0.210998 0.644100 3.172000 5 10 24
0.210998 0.649653 3.172000 7 8 11
0.209069 0.649215 3.143000 8 7 6
0.209069 0.654717 3.143000 7 4 2
0.209069 0.660219 3.143000 6 3 2
0.209069 0.665721 3.143000 4 4 2
0.207207 0.665243 3.115000 3 5 3
0.207207 0.670695 3.115000 3 4 4
0.207207 0.676148 3.115000 3 4 6
0.209069 0.687728 3.143000 4 3 9
0.207207 0.687054 3.115000 5 3 5
0.207207 0.692507 3.115000 4 4 2
0.209069 0.704233 3.143000 4 4 3
0.209069 0.709735 3.143000 4 3 4
0.209069 0.715237 3.143000 5 3 3
0.207207 0.714318 3.115000 5 3 3
0.207207 0.719771 3.115000 5 3 3
0.207207 0.725224 3.115000 4 3 3
0.207207 0.730676 3.115000 3 3 2
0.207207 0.736129 3.115000 2 3 1
0.205344 0.734916 3.087000 2 2 3
0.207207 0.747035 3.115000 7 7 6
0.207207 0.752488 3.115000 13 14 10
0.176209 0.709473 2.649000 151 142 141
0.175544 0.711414 2.639000 150 139 139
0.175544 0.716033 2.639000 151 137 138
0.174213 0.715191 2.619000 153 136 136
0.172883 0.714279 2.599000 151 137 134
0.171619 0.713574 2.580000 149 138 133
0.170289 0.712524 2.560000 147 138 133
0.170289 0.717005 2.560000 144 137 140
0.169091 0.716413 2.542000 142 133 148
0.167827 0.715475 2.523000 141 131 140
0.164235 0.704484 2.469000 138 131 132
0.163038 0.703638 2.451000 136 132 129
0.161907 0.703018 2.434000 138 131 127
0.161907 0.707279 2.434000 140 131 130
0.160776 0.706570 2.417000 140 130 133
0.160776 0.710801 2.417000 140 130 131
0.159646 0.710003 2.400000 141 130 130
0.158581 0.709443 2.384000 143 132 130
0.157450 0.708527 2.367000 144 133 130
0.156386 0.707853 2.351000 145 136 133
0.155322 0.707123 2.335000 143 133 137
0.154324 0.706642 2.320000 142 133 134
0.153260 0.705802 2.304000 143 133 131
0.151264 0.700592 2.274000 145 135 132
0.150266 0.699925 2.259000 147 134 134
0.149269 0.699206 2.244000 149 134 137
0.148337 0.698747 2.230000 146 133 140
0.148337 0.702651 2.230000 144 135 132
0.146408 0.697366 2.201000 139 130 125
0.145477 0.696759 2.187000 134 120 121
0.144612 0.696423 2.174000 128 115 117
0.143681 0.695719 2.160000 122 105 112
0.142816 0.695290 2.147000 117 104 107
0.141885 0.694490 2.133000 111 106 108
0.141885 0.698224 2.133000 113 105 109
0.141020 0.697679 2.120000 116 106 107
0.139357 0.693119 2.095000 115 105 106
0.137628 0.688139 2.069000 115 104 105
0.136830 0.687749 2.057000 115 105 105
0.136031 0.687316 2.045000 115 107 103
0.136031 0.690896 2.045000 115 105 102
0.135233 0.690401 2.033000 115 103 100
0.134435 0.689863 2.021000 116 104 99
0.133637 0.689284 2.009000 117 104 106
0.132506 0.686938 1.992000 118 104 113
0.132107 0.688346 1.986000 119 105 118
0.131375 0.687990 1.975000 117 107 123
0.130643 0.687596 1.964000 116 109 117
0.129845 0.686812 1.952000 117 108 111
0.129113 0.686340 1.941000 119 109 109
0.126985 0.678366 1.909000 118 107 108
0.126985 0.681708 1.909000 117 107 109
0.126320 0.681461 1.899000 116 103 110
0.125588 0.680819 1.888000 115 101 109
0.124923 0.680500 1.878000 115 99 109
0.124923 0.683788 1.878000 115 101 108
0.124257 0.683416 1.868000 115 103 108
0.123592 0.683010 1.858000 116 105 106
0.122927 0.682569 1.848000 116 106 104
0.122262 0.682093 1.838000 116 108 104
0.121597 0.681582 1.828000 115 105 105
0.120998 0.681410 1.819000 113 105 103
0.120333 0.680831 1.809000 113 105 102
0.119069 0.676813 1.790000 113 105 104
0.118470 0.676528 1.781000 112 103 107
0.117872 0.676211 1.772000 112 103 114
0.117273 0.675863 1.763000 110 101 121
0.117273 0.678949 1.763000 108 100 114
0.116076 0.675072 1.745000 111 99 107
0.220579 0.633457 3.231000 55 64 77
0.222695 0.645245 3.262000 39 49 30
0.220579 0.644769 3.231000 24 22 32
0.220579 0.650425 3.231000 16 6 34
0.218531 0.649989 3.201000 9 7 22
0.216551 0.649653 3.172000 9 7 11
0.216551 0.655205 3.172000 10 6 6
0.214571 0.654717 3.143000 8 4 2
0.214571 0.660219 3.143000 7 3 2
0.214571 0.665721 3.143000 5 4 2
0.214571 0.671222 3.143000 3 3 3
0.214571 0.676724 3.143000 3 3 3
0.214571 0.682226 3.143000 3 3 4
0.214571 0.687728 3.143000 5 3 6
0.214571 0.693230 3.143000 7 3 4
0.214571 0.698731 3.143000 5 4 3
0.214571 0.704233 3.143000 4 3 3
0.214571 0.709735 3.143000 5 2 4
0.214571 0.715237 3.143000 7 2 3
0.214571 0.720739 3.143000 6 3 3
0.212659 0.719771 3.115000 6 3 3
0.212659 0.725224 3.115000 4 4 3
0.212659 0.730676 3.115000 3 3 3
0.212659 0.736129 3.115000 3 4 2
0.212659 0.741582 3.115000 3 4 4
0.212659 0.747035 3.115000 9 8 5
0.212659 0.752488 3.115000 16 15 13
0.182962 0.713084 2.680000 155 138 139
0.181529 0.712151 2.659000 152 141 145
0.180163 0.711414 2.639000 149 138 142
0.178798 0.710607 2.619000 150 136 139
0.178798 0.715191 2.619000 152 136 137
0.177432 0.714279 2.599000 150 136 136
0.176135 0.713574 2.580000 148 137 134
0.174770 0.712524 2.560000 146 137 132
0.174770 0.717005 2.560000 145 135 136
0.173541 0.716413 2.542000 143 133 140
0.172244 0.715475 2.523000 141 132 135
0.168557 0.704484 2.469000 138 132 131
0.168557 0.708806 2.469000 135 132 130
0.167329 0.707929 2.451000 137 131 128
0.166168 0.707279 2.434000 140 130 130
0.165007 0.706570 2.417000 140 129 132
0.165007 0.710801 2.417000 140 130 128
0.163847 0.710003 2.400000 141 130 125
0.162754 0.709443 2.384000 143 131 127
0.161594 0.708527 2.367000 143 133 128
0.160502 0.707853 2.351000 144 134 132
0.160502 0.711969 2.351000 143 133 135
0.158385 0.706642 2.320000 143 133 133
0.157293 0.705802 2.304000 145 133 131
0.155245 0.700592 2.274000 147 133 132
0.154221 0.699925 2.259000 150 135 133
0.153197 0.699206 2.244000 153 134 134
0.152241 0.698747 2.230000 148 131 135
0.152241 0.702651 2.230000 143 132 129
0.150261 0.697366 2.201000 137 130 124
0.149305 0.696759 2.187000 132 119 120
0.148418 0.696423 2.174000 126 111 116
0.148418 0.700228 2.174000 121 107 112
0.147462 0.699500 2.160000 118 105 107
0.146575 0.699048 2.147000 116 105 108
0.145619 0.698224 2.133000 116 106 109
0.144731 0.697679 2.120000 116 105 108
0.142137 0.688818 2.082000 115 104 107
0.141250 0.688139 2.069000 115 104 105
0.139611 0.683737 2.045000 115 105 103
0.139611 0.687316 2.045000 115 105 103
0.138792 0.686842 2.033000 114 105 103
0.137973 0.686326 2.021000 113 103 103
0.137973 0.689863 2.021000 111 104 103
0.137153 0.689284 2.009000 110 103 107
0.136402 0.689007 1.998000 113 104 111
0.135583 0.688346 1.986000 117 105 114
0.134832 0.687990 1.975000 115 106 118
0.134081 0.687596 1.964000 113 107 114
0.133262 0.686812 1.952000 115 108 110
0.132511 0.686340 1.941000 118 108 108
0.131077 0.682275 1.920000 116 105 106
0.130326 0.681708 1.909000 115 105 108
0.129644 0.681461 1.899000 115 101 110
0.128893 0.680819 1.888000 115 100 108
0.128210 0.680500 1.878000 114 98 106
0.128210 0.683788 1.878000 114 99 106
0.127527 0.683416 1.868000 115 102 107
0.126845 0.683010 1.858000 116 103 105
0.126162 0.682569 1.848000 116 104 104
0.125479 0.682093 1.838000 116 105 104
0.124797 0.681582 1.828000 115 105 105
0.123500 0.677664 1.809000 114 104 103
0.122885 0.677444 1.800000 112 104 102
0.122202 0.676813 1.790000 111 104 103
0.121588 0.676528 1.781000 111 104 105
0.120359 0.672777 1.763000 112 102 108
0.120359 0.675863 1.763000 111 101 111
0.119745 0.675483 1.754000 111 99 108
0.119130 0.675072 1.745000 112 100 104
0.226235 0.633457 3.231000 52 33 80
0.226235 0.639113 3.231000 35 33 39
0.226235 0.644769 3.231000 17 11 35
0.224134 0.644386 3.201000 13 7 31
0.222103 0.644100 3.172000 9 8 21
0.222103 0.649653 3.172000 8 6 11
0.222103 0.655205 3.172000 8 7 6
0.220073 0.654717 3.143000 7 4 2
0.220073 0.660219 3.143000 7 4 2
0.220073 0.665721 3.143000 5 3 3
0.218112 0.665243 3.115000 4 3 3
0.218112 0.670695 3.115000 3 3 3
0.218112 0.676148 3.115000 3 3 3
0.218112 0.681601 3.115000 4 3 3
0.218112 0.687054 3.115000 5 4 3
0.220073 0.698731 3.143000 4 3 4
0.220073 0.704233 3.143000 4 4 4
0.220073 0.709735 3.143000 4 3 4
0.220073 0.715237 3.143000 5 3 4
0.220073 0.720739 3.143000 5 3 4
0.220073 0.726241 3.143000 4 3 4
0.218112 0.725224 3.115000 3 3 4
0.218112 0.730676 3.115000 3 2 4
0.218112 0.736129 3.115000 4 3 4
0.218112 0.741582 3.115000 5 3 4
0.218112 0.747035 3.115000 11 10 5
0.216152 0.745724 3.087000 18 16 15
0.187654 0.713084 2.680000 155 142 140
0.186183 0.712151 2.659000 152 140 150
0.184783 0.711414 2.639000 149 139 145
0.184783 0.716033 2.639000 150 139 140
0.183382 0.715191 2.619000 151 138 139
0.181982 0.714279 2.599000 150 138 138
0.180652 0.713574 2.580000 150 139 135
0.179251 0.712524 2.560000 148 137 132
0.179251 0.717005 2.560000 146 136 132
0.177991 0.716413 2.542000 144 134 132
0.176660 0.715475 2.523000 142 134 131
0.172879 0.704484 2.469000 140 133 131
0.172879 0.708806 2.469000 138 135 130
0.171619 0.707929 2.451000 139 132 130
0.170429 0.707279 2.434000 141 132 130
0.170429 0.711540 2.434000 141 131 131
0.169238 0.710801 2.417000 141 131 126
0.168048 0.710003 2.400000 143 131 121
0.166928 0.709443 2.384000 144 132 124
0.165737 0.708527 2.367000 144 133 127
0.164617 0.707853 2.351000 143 134 130
0.164617 0.711969 2.351000 143 133 134
0.163497 0.711211 2.335000 143 133 133
0.161326 0.705802 2.304000 144 133 132
0.160276 0.705214 2.289000 146 132 132
0.158175 0.699925 2.259000 147 134 132
0.157125 0.699206 2.244000 149 137 131
0.156145 0.698747 2.230000 145 133 130
0.156145 0.702651 2.230000 141 132 126
0.155094 0.701802 2.215000 136 126 123
0.153134 0.696759 2.187000 130 115 119
0.153134 0.700587 2.187000 125 113 116
0.152223 0.700228 2.174000 120 109 112
0.151243 0.699500 2.160000 117 105 108
0.149353 0.694490 2.133000 115 105 108
0.148442 0.693968 2.120000 115 105 109
0.147532 0.693401 2.107000 115 106 108
0.145782 0.688818 2.082000 115 104 108
0.144871 0.688139 2.069000 116 103 105
0.144031 0.687749 2.057000 115 104 102
0.143191 0.687316 2.045000 115 106 103
0.142351 0.686842 2.033000 114 104 105
0.141510 0.686326 2.021000 114 103 106
0.141510 0.689863 2.021000 113 103 107
