ply
format ascii 1.0
element vertex 1205
property float x
property float y
property float z
property uchar red
property uchar green
property uchar blue
end_header
0.183435 0.593106 3.493000 214 201 190
0.183435 0.599221 3.493000 216 198 186
0.183435 0.605335 3.493000 214 199 183
0.183435 0.611450 3.493000 212 197 187
0.183435 0.617564 3.493000 212 195 191
0.183435 0.623679 3.493000 212 195 192
0.183435 0.629793 3.493000 213 195 194
0.183435 0.635908 3.493000 214 190 193
0.183435 0.642022 3.493000 218 198 193
0.183435 0.648137 3.493000 222 196 180
0.183435 0.654251 3.493000 214 193 167
0.183435 0.660366 3.493000 206 180 148
0.183435 0.666480 3.493000 168 158 130
0.183435 0.672595 3.493000 129 102 109
0.183435 0.678709 3.493000 98 62 89
0.181597 0.677962 3.458000 67 52 49
0.166578 0.638548 3.172000 12 6 15
0.166578 0.644100 3.172000 14 10 12
0.165055 0.643713 3.143000 11 8 9
0.165055 0.649215 3.143000 8 10 5
0.166578 0.660758 3.172000 8 9 1
0.165055 0.660219 3.143000 8 9 7
0.165055 0.665721 3.143000 9 7 14
0.166578 0.677416 3.172000 11 7 8
0.165055 0.676724 3.143000 9 7 3
0.166578 0.688521 3.172000 8 7 2
0.166578 0.694073 3.172000 8 5 1
0.168101 0.706022 3.201000 8 3 1
0.169676 0.718295 3.231000 9 3 2
0.169676 0.723951 3.231000 10 4 3
0.169676 0.729607 3.231000 9 3 4
0.169676 0.735263 3.231000 7 3 4
0.169676 0.740919 3.231000 6 4 4
0.168101 0.739642 3.201000 4 5 3
0.169676 0.752230 3.231000 6 4 2
0.169676 0.757886 3.231000 9 3 1
0.169676 0.763542 3.231000 15 11 1
0.169676 0.769198 3.231000 21 20 4
0.139637 0.716805 2.659000 176 162 151
0.138587 0.716033 2.639000 178 162 153
0.137537 0.715191 2.619000 180 165 156
0.136487 0.714279 2.599000 177 164 159
0.133493 0.703064 2.542000 175 164 161
0.132495 0.702226 2.523000 179 163 163
0.132495 0.706642 2.523000 183 165 163
0.131550 0.705986 2.505000 185 167 164
0.131550 0.710371 2.505000 187 170 165
0.130605 0.709620 2.487000 186 170 166
0.129660 0.708806 2.469000 185 171 165
0.128714 0.707929 2.451000 184 170 165
0.127822 0.707279 2.434000 183 171 168
0.126929 0.706570 2.417000 181 168 171
0.126929 0.710801 2.417000 180 167 169
0.126036 0.710003 2.400000 182 165 168
0.124303 0.704384 2.367000 183 165 170
0.123463 0.703738 2.351000 181 165 172
0.122623 0.703036 2.335000 180 167 167
0.121835 0.702581 2.320000 177 162 162
0.120995 0.701769 2.304000 175 155 161
0.120207 0.701207 2.289000 176 159 160
0.118631 0.695971 2.259000 178 157 158
0.117844 0.695278 2.244000 176 159 157
0.117108 0.694844 2.230000 175 164 152
0.116321 0.694047 2.215000 173 163 147
0.115586 0.693513 2.201000 171 157 142
0.115586 0.697366 2.201000 161 150 138
0.114850 0.696759 2.187000 150 133 138
0.114168 0.696423 2.174000 147 131 139
0.113432 0.695719 2.160000 144 129 132
0.113432 0.699500 2.160000 140 128 126
0.112015 0.694490 2.133000 136 127 123
0.111332 0.693968 2.120000 133 126 121
0.110649 0.693401 2.107000 131 125 120
0.109336 0.688818 2.082000 131 121 120
0.108654 0.688139 2.069000 132 120 120
0.108023 0.687749 2.057000 133 117 121
0.107393 0.687316 2.045000 134 115 125
0.106763 0.686842 2.033000 131 115 130
0.106763 0.690401 2.033000 129 116 123
0.106133 0.689863 2.021000 128 118 116
0.104925 0.685510 1.998000 128 120 119
0.104295 0.684869 1.986000 128 119 122
0.103717 0.684533 1.975000 129 120 120
0.103717 0.687990 1.975000 129 118 118
0.103139 0.687596 1.964000 129 116 116
0.102509 0.686812 1.952000 130 114 114
0.101932 0.686340 1.941000 131 114 117
0.100829 0.682275 1.920000 130 116 121
0.100251 0.681708 1.909000 129 118 118
0.099148 0.677514 1.888000 129 114 116
0.098623 0.677213 1.878000 128 115 122
0.097573 0.673253 1.858000 127 116 128
0.097573 0.676505 1.858000 125 117 120
0.097048 0.676099 1.848000 123 112 112
0.097048 0.679334 1.848000 122 108 114
0.096523 0.678876 1.838000 122 110 116
0.096523 0.682093 1.838000 123 112 112
0.095997 0.681582 1.828000 123 110 109
0.095525 0.681410 1.819000 123 110 107
0.094527 0.677444 1.800000 124 107 106
0.093529 0.673410 1.781000 125 106 105
0.093057 0.673109 1.772000 123 106 105
0.092584 0.672777 1.763000 121 106 105
0.092584 0.675863 1.763000 119 104 106
0.092111 0.675483 1.754000 117 102 106
0.091639 0.675072 1.745000 119 105 106
0.197526 -1.408172 3.640000 178 161 161
0.199643 -1.416820 3.679000 180 162 159
0.199643 -1.410380 3.679000 180 161 157
0.199643 -1.403940 3.679000 181 160 157
0.197526 -1.382685 3.640000 181 160 158
0.197526 -1.376313 3.640000 182 159 155
0.197526 -1.369941 3.640000 182 155 152
0.197526 -1.363570 3.640000 183 159 155
0.197526 -1.357198 3.640000 182 158 158
0.197526 -1.350826 3.640000 181 161 162
0.197526 -1.344454 3.640000 181 162 165
0.197526 -1.338082 3.640000 182 161 162
0.197526 -1.331710 3.640000 180 163 159
0.199643 -1.339539 3.679000 179 162 155
0.197526 -1.318967 3.640000 180 163 152
0.197526 -1.312595 3.640000 182 162 153
0.197526 -1.306223 3.640000 184 160 155
0.197526 -1.299851 3.640000 186 160 157
0.197526 -1.293479 3.640000 185 162 160
0.195464 -1.273671 3.602000 185 163 162
0.195464 -1.267366 3.602000 183 165 164
0.197526 -1.274364 3.640000 181 166 164
0.195464 -1.254755 3.602000 184 168 164
0.197526 -1.261620 3.640000 187 167 163
0.197526 -1.255249 3.640000 187 166 163
0.197526 -1.248877 3.640000 188 166 168
0.197526 -1.242505 3.640000 187 166 173
0.199643 -1.249377 3.679000 187 166 168
0.199643 -1.242937 3.679000 191 166 163
0.199643 -1.236497 3.679000 195 166 167
0.197526 -1.217018 3.640000 192 166 170
0.197526 -1.210646 3.640000 190 167 170
0.197526 -1.204274 3.640000 192 170 170
0.197526 -1.197902 3.640000 195 169 168
0.197526 -1.191530 3.640000 191 169 166
0.197526 -1.185158 3.640000 188 170 165
0.197526 -1.178787 3.640000 188 173 164
0.195464 -1.160175 3.602000 189 171 162
0.195464 -1.153870 3.602000 192 174 161
0.197526 -1.159671 3.640000 196 171 164
0.197526 -1.153299 3.640000 193 173 167
0.197526 -1.146928 3.640000 191 173 170
0.197526 -1.140556 3.640000 195 173 172
0.197526 -1.134184 3.640000 199 176 168
0.197526 -1.127812 3.640000 185 181 164
0.197526 -1.121440 3.640000 171 161 167
0.197526 -1.115068 3.640000 167 145 170
0.187650 0.181597 3.458000 218 209 202
0.189549 0.189550 3.493000 218 209 202
0.189549 0.195664 3.493000 218 209 203
0.189549 0.201778 3.493000 218 214 203
0.189549 0.207893 3.493000 218 208 200
0.189549 0.214007 3.493000 219 207 197
0.189549 0.220122 3.493000 220 208 199
0.189549 0.226236 3.493000 218 213 201
0.189549 0.232351 3.493000 217 206 200
0.189549 0.238465 3.493000 216 203 199
0.189549 0.244580 3.493000 215 206 200
0.189549 0.250694 3.493000 216 217 202
0.189549 0.256809 3.493000 218 209 202
0.189549 0.262923 3.493000 216 207 203
0.189549 0.269038 3.493000 215 205 202
0.189549 0.275153 3.493000 216 207 202
0.189549 0.281267 3.493000 217 206 201
0.189549 0.287382 3.493000 216 205 201
0.189549 0.293496 3.493000 216 203 203
0.189549 0.299611 3.493000 215 210 205
0.189549 0.305725 3.493000 214 205 205
0.189549 0.311840 3.493000 216 202 205
0.189549 0.317954 3.493000 218 204 206
0.189549 0.324068 3.493000 218 206 208
0.189549 0.330183 3.493000 219 207 209
0.189549 0.336297 3.493000 219 209 211
0.191449 0.345843 3.528000 220 207 210
0.191449 0.352019 3.528000 216 206 209
0.191449 0.358194 3.528000 212 206 206
0.191449 0.364370 3.528000 217 206 204
0.191449 0.370546 3.528000 222 204 203
0.191449 0.376722 3.528000 216 202 202
0.191449 0.382898 3.528000 210 202 198
0.189549 0.385213 3.493000 211 202 195
0.189549 0.391328 3.493000 213 203 199
0.189549 0.397442 3.493000 214 206 202
0.189549 0.403557 3.493000 215 206 204
0.189549 0.409671 3.493000 216 206 205
0.189549 0.415786 3.493000 218 207 207
0.189549 0.421900 3.493000 217 210 208
0.189549 0.428015 3.493000 216 204 205
0.189549 0.434129 3.493000 217 203 202
0.189549 0.440244 3.493000 218 206 199
0.189549 0.446359 3.493000 218 208 196
0.189549 0.452473 3.493000 218 203 196
0.189549 0.458587 3.493000 217 202 196
0.187650 0.460046 3.458000 216 201 197
0.187650 0.466099 3.458000 216 200 198
0.185751 0.467373 3.423000 216 202 200
0.185751 0.473365 3.423000 215 201 202
0.187650 0.484258 3.458000 215 201 201
0.187650 0.490312 3.458000 214 199 200
0.187650 0.496365 3.458000 214 200 199
0.187650 0.502418 3.458000 214 199 199
0.189549 0.513618 3.493000 215 200 198
0.189549 0.519732 3.493000 214 198 197
0.189549 0.525847 3.493000 213 199 196
0.189549 0.531961 3.493000 211 198 196
0.189549 0.538076 3.493000 210 200 195
0.189549 0.544190 3.493000 210 205 195
0.189549 0.550305 3.493000 211 199 195
0.189549 0.556419 3.493000 210 196 195
0.189549 0.562534 3.493000 209 199 195
0.189549 0.568648 3.493000 210 202 196
0.189549 0.574763 3.493000 212 199 193
0.189549 0.580877 3.493000 212 204 190
0.187650 0.581110 3.458000 213 201 191
0.189549 0.593106 3.493000 216 206 192
0.187650 0.593217 3.458000 219 201 189
0.187650 0.599270 3.458000 215 206 187
0.187650 0.605323 3.458000 212 199 189
0.187650 0.611376 3.458000 212 195 191
0.187650 0.617429 3.458000 212 198 192
0.189549 0.629793 3.493000 213 204 193
0.189549 0.635908 3.493000 214 197 191
0.189549 0.642022 3.493000 217 202 190
0.189549 0.648137 3.493000 221 199 182
0.189549 0.654251 3.493000 213 205 174
0.189549 0.660366 3.493000 205 181 148
0.189549 0.666480 3.493000 164 173 122
0.189549 0.672595 3.493000 123 97 100
0.187650 0.671909 3.458000 94 39 78
0.173704 0.644386 3.201000 11 4 13
0.173704 0.649989 3.201000 14 7 11
0.172130 0.649653 3.172000 10 5 8
0.172130 0.655205 3.172000 7 7 6
0.172130 0.660758 3.172000 7 9 5
0.172130 0.666311 3.172000 7 8 7
0.172130 0.671863 3.172000 8 5 10
0.172130 0.677416 3.172000 10 7 6
0.170557 0.676724 3.143000 8 9 3
0.172130 0.688521 3.172000 7 7 2
0.173704 0.700419 3.201000 7 6 1
0.175332 0.712639 3.231000 7 4 1
0.175332 0.718295 3.231000 7 4 2
0.175332 0.723951 3.231000 8 4 3
0.175332 0.729607 3.231000 7 4 4
0.175332 0.735263 3.231000 7 4 3
0.175332 0.740919 3.231000 5 5 3
0.175332 0.746574 3.231000 4 4 2
0.175332 0.752230 3.231000 7 5 1
0.175332 0.757886 3.231000 11 5 1
0.175332 0.763542 3.231000 16 12 1
0.144292 0.716805 2.659000 177 162 152
0.143207 0.716033 2.639000 177 163 154
0.143207 0.720653 2.639000 178 164 156
0.141036 0.714279 2.599000 175 165 158
0.138920 0.708042 2.560000 173 164 159
0.137943 0.707514 2.542000 178 163 161
0.136912 0.706642 2.523000 183 165 161
0.135935 0.705986 2.505000 186 167 161
0.135935 0.710371 2.505000 190 169 163
0.134958 0.709620 2.487000 188 171 166
0.133982 0.708806 2.469000 186 170 166
0.133005 0.707929 2.451000 184 170 166
0.132082 0.707279 2.434000 183 169 167
0.131160 0.706570 2.417000 181 167 168
0.131160 0.710801 2.417000 179 164 167
0.130237 0.710003 2.400000 180 165 166
0.128446 0.704384 2.367000 181 165 167
0.126710 0.698949 2.335000 180 166 169
0.125896 0.698520 2.320000 179 164 165
0.125896 0.702581 2.320000 175 162 160
0.125028 0.701769 2.304000 172 159 159
0.124214 0.701207 2.289000 174 156 159
0.122586 0.695971 2.259000 177 158 158
0.121772 0.695278 2.244000 175 158 158
0.121012 0.694844 2.230000 174 161 153
0.120198 0.694047 2.215000 172 167 148
0.120198 0.697925 2.215000 170 156 141
0.119438 0.697366 2.201000 159 151 134
0.118679 0.696759 2.187000 149 134 135
0.117973 0.696423 2.174000 145 128 137
0.117214 0.695719 2.160000 142 125 131
0.117214 0.699500 2.160000 138 124 125
0.115748 0.694490 2.133000 135 126 123
0.115043 0.693968 2.120000 134 129 121
0.114337 0.693401 2.107000 134 124 120
0.112981 0.688818 2.082000 132 120 119
0.112275 0.688139 2.069000 131 117 119
0.111624 0.687749 2.057000 131 115 119
0.110973 0.687316 2.045000 131 116 119
0.110322 0.686842 2.033000 129 116 120
0.110322 0.690401 2.033000 127 117 118
0.109671 0.689863 2.021000 125 118 116
0.108422 0.685510 1.998000 124 118 122
0.107771 0.684869 1.986000 126 116 127
0.107174 0.684533 1.975000 128 117 122
0.106577 0.684159 1.964000 128 118 117
0.106577 0.687596 1.964000 129 115 111
0.105926 0.686812 1.952000 129 114 105
0.105329 0.686340 1.941000 130 115 115
0.104190 0.682275 1.920000 129 118 126
0.103593 0.681708 1.909000 129 117 122
0.103050 0.681461 1.899000 128 113 118
0.102453 0.680819 1.888000 128 114 120
0.101368 0.676876 1.868000 126 115 122
0.100825 0.676505 1.858000 125 115 116
0.100283 0.676099 1.848000 123 112 110
0.100283 0.679334 1.848000 121 109 114
0.099740 0.678876 1.838000 122 108 118
0.099740 0.682093 1.838000 123 109 114
0.099197 0.681582 1.828000 123 109 110
0.098709 0.681410 1.819000 123 108 109
0.098166 0.680831 1.809000 124 105 108
0.097135 0.676813 1.790000 126 106 105
0.096158 0.673109 1.772000 123 105 102
0.095670 0.672777 1.763000 120 105 104
0.095670 0.675863 1.763000 118 105 106
0.095182 0.675483 1.754000 116 103 106
0.094693 0.675072 1.745000 118 103 107
0.203898 -1.408172 3.640000 176 160 152
0.203898 -1.401801 3.640000 179 161 154
0.203898 -1.395429 3.640000 179 161 157
0.206083 -1.403940 3.679000 179 160 156
0.203898 -1.382685 3.640000 178 160 156
0.203898 -1.376313 3.640000 177 161 151
0.203898 -1.369941 3.640000 179 160 146
0.203898 -1.363570 3.640000 181 162 152
0.203898 -1.357198 3.640000 181 159 159
0.203898 -1.350826 3.640000 181 157 163
0.203898 -1.344454 3.640000 181 159 167
0.203898 -1.338082 3.640000 182 159 163
0.203898 -1.331710 3.640000 181 161 160
0.206083 -1.339539 3.679000 180 160 153
0.206083 -1.333099 3.679000 181 162 146
0.206083 -1.326659 3.679000 182 162 151
0.203898 -1.306223 3.640000 184 161 156
0.203898 -1.299851 3.640000 187 160 157
0.203898 -1.293479 3.640000 186 162 159
0.203898 -1.287108 3.640000 185 164 160
0.201770 -1.267366 3.602000 183 165 161
0.203898 -1.274364 3.640000 182 166 155
0.203898 -1.267992 3.640000 184 167 150
0.203898 -1.261620 3.640000 186 168 157
0.203898 -1.255249 3.640000 186 165 164
0.203898 -1.248877 3.640000 187 164 172
0.203898 -1.242505 3.640000 186 165 180
0.203898 -1.236133 3.640000 186 166 174
0.206083 -1.242937 3.679000 187 166 168
0.206083 -1.236497 3.679000 188 167 170
0.203898 -1.217018 3.640000 188 166 172
0.206083 -1.223617 3.679000 188 166 170
0.203898 -1.204274 3.640000 189 168 168
0.203898 -1.197902 3.640000 191 168 166
0.203898 -1.191530 3.640000 187 168 165
0.203898 -1.185158 3.640000 184 169 163
0.201770 -1.166481 3.602000 186 167 161
0.201770 -1.160175 3.602000 188 165 158
0.201770 -1.153870 3.602000 191 168 156
0.203898 -1.159671 3.640000 194 171 161
0.203898 -1.153299 3.640000 192 170 166
0.203898 -1.146928 3.640000 190 171 169
0.203898 -1.140556 3.640000 192 173 172
0.201770 -1.122344 3.602000 194 176 169
0.203898 -1.127812 3.640000 185 175 166
0.203898 -1.121440 3.640000 176 168 169
0.201770 -1.103428 3.602000 168 153 173
0.203898 -1.108697 3.640000 160 142 164
0.193703 0.175544 3.458000 218 210 201
0.193703 0.181597 3.458000 215 209 201
0.195664 0.189550 3.493000 216 208 201
0.195664 0.195664 3.493000 217 208 202
0.195664 0.201778 3.493000 216 207 203
0.195664 0.207893 3.493000 216 205 199
0.195664 0.214007 3.493000 217 205 196
0.195664 0.220122 3.493000 217 207 198
0.195664 0.226236 3.493000 216 208 201
0.195664 0.232351 3.493000 216 207 200
0.195664 0.238465 3.493000 215 203 200
0.195664 0.244580 3.493000 214 201 201
0.195664 0.250694 3.493000 215 207 202
0.195664 0.256809 3.493000 217 207 202
0.195664 0.262923 3.493000 215 204 203
0.195664 0.269038 3.493000 214 200 202
0.195664 0.275153 3.493000 215 203 201
0.195664 0.281267 3.493000 216 204 200
0.195664 0.287382 3.493000 216 202 200
0.195664 0.293496 3.493000 216 196 202
0.195664 0.299611 3.493000 216 205 205
0.195664 0.305725 3.493000 216 201 205
0.195664 0.311840 3.493000 217 203 205
0.195664 0.317954 3.493000 217 204 206
0.195664 0.324068 3.493000 218 206 208
0.195664 0.330183 3.493000 219 209 210
0.195664 0.336297 3.493000 219 209 213
0.195664 0.342412 3.493000 219 210 211
0.195664 0.348526 3.493000 216 208 209
0.197624 0.358194 3.528000 214 208 206
0.195664 0.360755 3.493000 217 206 203
0.195664 0.366870 3.493000 219 204 202
0.195664 0.372984 3.493000 215 202 201
0.195664 0.379099 3.493000 212 202 195
0.195664 0.385213 3.493000 212 202 189
0.195664 0.391328 3.493000 213 204 195
0.195664 0.397442 3.493000 214 205 201
0.195664 0.403557 3.493000 215 205 202
0.195664 0.409671 3.493000 216 205 204
0.195664 0.415786 3.493000 216 203 205
0.195664 0.421900 3.493000 215 206 206
0.195664 0.428015 3.493000 214 199 203
0.195664 0.434129 3.493000 215 204 200
0.195664 0.440244 3.493000 217 208 197
0.195664 0.446359 3.493000 217 206 194
0.195664 0.452473 3.493000 217 202 192
0.195664 0.458587 3.493000 216 201 191
0.193703 0.460046 3.458000 215 201 193
0.193703 0.466099 3.458000 215 202 196
0.193703 0.472152 3.458000 215 203 197
0.193703 0.478205 3.458000 215 202 198
0.193703 0.484258 3.458000 215 203 198
0.193703 0.490312 3.458000 214 202 198
0.193703 0.496365 3.458000 214 204 197
0.193703 0.502418 3.458000 214 203 197
0.195664 0.513618 3.493000 214 204 196
0.195664 0.519732 3.493000 213 202 195
0.197624 0.531116 3.528000 213 200 195
0.195664 0.531961 3.493000 212 197 196
0.195664 0.538076 3.493000 212 196 196
0.195664 0.544190 3.493000 212 198 196
0.195664 0.550305 3.493000 211 199 196
0.195664 0.556419 3.493000 210 198 197
0.195664 0.562534 3.493000 210 199 196
0.195664 0.568648 3.493000 210 198 196
0.195664 0.574763 3.493000 211 196 197
0.195664 0.580877 3.493000 211 196 199
0.193703 0.581110 3.458000 210 193 196
0.193703 0.587163 3.458000 212 197 194
0.193703 0.593217 3.458000 214 196 193
0.193703 0.599270 3.458000 211 198 192
0.193703 0.605323 3.458000 208 198 191
0.193703 0.611376 3.458000 210 197 191
0.193703 0.617429 3.458000 211 199 191
0.195664 0.629793 3.493000 212 196 192
0.195664 0.635908 3.493000 213 193 189
0.195664 0.642022 3.493000 218 196 187
0.195664 0.648137 3.493000 222 195 184
0.195664 0.654251 3.493000 208 190 182
0.195664 0.660366 3.493000 194 168 148
0.193703 0.659802 3.458000 147 138 114
0.193703 0.665855 3.458000 101 77 91
0.191743 0.665108 3.423000 78 50 68
0.179307 0.649989 3.201000 14 9 10
0.177683 0.649653 3.172000 11 6 8
0.176058 0.649215 3.143000 8 4 8
0.176058 0.654717 3.143000 7 7 9
0.176058 0.660219 3.143000 7 9 8
0.176058 0.665721 3.143000 8 7 7
0.176058 0.671222 3.143000 8 7 5
0.176058 0.676724 3.143000 7 8 3
0.177683 0.688521 3.172000 6 9 2
0.179307 0.700419 3.201000 6 5 1
0.180988 0.712639 3.231000 7 4 1
0.180988 0.718295 3.231000 7 4 2
0.180988 0.723951 3.231000 8 4 3
0.180988 0.729607 3.231000 7 5 5
0.179307 0.728436 3.201000 6 7 3
0.179307 0.734039 3.201000 4 5 2
0.179307 0.739642 3.201000 3 4 1
0.179307 0.745246 3.201000 6 4 1
0.180988 0.757886 3.231000 9 3 1
0.180988 0.763542 3.231000 16 13 1
0.148947 0.712151 2.659000 174 161 152
0.148947 0.716805 2.659000 176 164 153
0.147826 0.716033 2.639000 176 164 155
0.147826 0.720653 2.639000 177 165 156
0.146706 0.719776 2.619000 176 164 157
0.144521 0.713574 2.580000 176 164 158
0.143401 0.712524 2.560000 179 164 160
0.142393 0.711963 2.542000 182 165 159
0.141328 0.711058 2.523000 184 166 159
0.140320 0.710371 2.505000 186 169 162
0.139312 0.709620 2.487000 185 169 166
0.138303 0.708806 2.469000 184 170 166
0.137295 0.707929 2.451000 183 169 167
0.136343 0.707279 2.434000 182 169 166
0.135391 0.706570 2.417000 181 165 165
0.134438 0.705802 2.400000 179 159 164
0.133542 0.705270 2.384000 180 162 164
0.132590 0.704384 2.367000 182 165 165
0.131694 0.703738 2.351000 180 164 167
0.130797 0.703036 2.335000 179 164 163
0.129957 0.702581 2.320000 177 163 159
0.129061 0.701769 2.304000 175 164 158
0.128221 0.701207 2.289000 176 161 158
0.126540 0.695971 2.259000 178 162 158
0.125700 0.695278 2.244000 175 158 159
0.124916 0.694844 2.230000 172 157 154
0.124075 0.694047 2.215000 169 159 150
0.124075 0.697925 2.215000 165 152 140
0.123291 0.697366 2.201000 157 142 131
0.122507 0.696759 2.187000 149 127 133
0.121779 0.696423 2.174000 145 124 135
0.120995 0.695719 2.160000 141 122 130
0.120995 0.699500 2.160000 138 123 125
0.119482 0.694490 2.133000 136 126 123
0.118754 0.693968 2.120000 136 124 122
0.118026 0.693401 2.107000 136 122 120
0.116625 0.688818 2.082000 133 117 118
0.115897 0.688139 2.069000 129 113 118
0.115225 0.687749 2.057000 131 115 118
0.114553 0.687316 2.045000 133 118 114
0.113880 0.686842 2.033000 131 117 110
0.113880 0.690401 2.033000 129 118 113
0.113208 0.689863 2.021000 128 118 117
0.112200 0.687225 2.003000 127 120 125
0.111920 0.689007 1.998000 128 117 133
0.111248 0.688346 1.986000 130 116 124
0.110632 0.687990 1.975000 128 115 116
0.110015 0.687596 1.964000 127 114 106
0.109343 0.686812 1.952000 127 114 96
0.108727 0.686340 1.941000 128 117 113
0.107551 0.682275 1.920000 126 117 131
0.106374 0.678137 1.899000 125 119 125
0.106374 0.681461 1.899000 126 115 120
0.105758 0.680819 1.888000 127 116 118
0.104638 0.676876 1.868000 126 115 117
0.104078 0.676505 1.858000 125 116 112
0.104078 0.679758 1.858000 122 113 108
0.103518 0.679334 1.848000 119 110 114
0.102957 0.678876 1.838000 120 107 121
0.102957 0.682093 1.838000 122 107 116
0.102397 0.681582 1.828000 122 108 112
0.101893 0.681410 1.819000 122 109 111
0.101333 0.680831 1.809000 122 108 111
0.100269 0.676813 1.790000 122 108 105
0.099260 0.673109 1.772000 119 107 99
0.099260 0.676211 1.772000 116 107 103
0.098756 0.675863 1.763000 116 105 107
0.098252 0.675483 1.754000 117 104 107
0.097748 0.675072 1.745000 119 102 108
0.210270 -1.408172 3.640000 174 163 139
0.210270 -1.401801 3.640000 179 162 145
0.210270 -1.395429 3.640000 178 164 152
0.210270 -1.389057 3.640000 178 161 154
0.210270 -1.382685 3.640000 175 160 156
0.210270 -1.376313 3.640000 172 162 153
0.210270 -1.369941 3.640000 176 165 150
0.210270 -1.363570 3.640000 180 163 154
0.210270 -1.357198 3.640000 180 162 158
0.210270 -1.350826 3.640000 181 160 160
0.210270 -1.344454 3.640000 181 161 163
0.210270 -1.338082 3.640000 182 161 161
0.210270 -1.331710 3.640000 182 163 160
0.210270 -1.325339 3.640000 182 162 156
0.210270 -1.318967 3.640000 182 163 153
0.210270 -1.312595 3.640000 183 162 158
0.210270 -1.306223 3.640000 185 163 164
0.208075 -1.286282 3.602000 188 162 162
0.208075 -1.279976 3.602000 186 165 160
0.208075 -1.273671 3.602000 185 165 160
0.208075 -1.267366 3.602000 184 167 161
0.208075 -1.261060 3.602000 183 166 158
0.208075 -1.254755 3.602000 184 167 155
0.208075 -1.248450 3.602000 186 166 160
0.208075 -1.242144 3.602000 186 164 165
0.208075 -1.235839 3.602000 186 163 169
0.210270 -1.242505 3.640000 186 165 173
0.210270 -1.236133 3.640000 186 166 170
0.210270 -1.229761 3.640000 183 168 168
0.210270 -1.223389 3.640000 181 166 169
0.210270 -1.217018 3.640000 184 166 171
0.210270 -1.210646 3.640000 187 167 170
0.210270 -1.204274 3.640000 187 168 169
0.210270 -1.197902 3.640000 187 168 167
0.210270 -1.191530 3.640000 183 169 165
0.210270 -1.185158 3.640000 180 166 164
0.208075 -1.166481 3.602000 184 161 164
0.205938 -1.148258 3.565000 188 164 163
0.210270 -1.166043 3.640000 190 163 162
0.208075 -1.147565 3.602000 192 168 165
0.208075 -1.141260 3.602000 190 168 168
0.208075 -1.134954 3.602000 189 170 170
0.210270 -1.140556 3.640000 189 172 172
0.210270 -1.134184 3.640000 189 174 173
0.210270 -1.127812 3.640000 185 177 174
0.208075 -1.109733 3.602000 181 171 172
0.210270 -1.115068 3.640000 168 159 170
0.210270 -1.108697 3.640000 156 148 160
0.210270 -1.102325 3.640000 159 146 149
0.197735 0.173767 3.423000 215 211 200
0.197735 0.179759 3.423000 213 208 200
0.201778 0.189550 3.493000 214 206 200
0.201778 0.195664 3.493000 216 206 201
0.201778 0.201778 3.493000 215 204 203
0.201778 0.207893 3.493000 215 204 203
0.201778 0.214007 3.493000 215 204 203
0.201778 0.220122 3.493000 215 205 202
0.201778 0.226236 3.493000 215 205 202
0.201778 0.232351 3.493000 215 205 200
0.201778 0.238465 3.493000 214 204 198
0.201778 0.244580 3.493000 214 203 200
0.201778 0.250694 3.493000 215 204 201
0.201778 0.256809 3.493000 216 204 201
0.201778 0.262923 3.493000 215 203 201
0.201778 0.269038 3.493000 214 201 200
0.201778 0.275153 3.493000 214 202 200
0.201778 0.281267 3.493000 215 204 199
0.201778 0.287382 3.493000 215 204 199
0.201778 0.293496 3.493000 216 205 201
0.201778 0.299611 3.493000 217 215 202
0.201778 0.305725 3.493000 219 207 201
0.201778 0.311840 3.493000 218 207 199
0.201778 0.317954 3.493000 217 205 202
0.201778 0.324068 3.493000 218 206 206
0.203800 0.333491 3.528000 219 208 205
0.203800 0.339667 3.528000 218 209 205
0.203800 0.345843 3.528000 218 209 206
0.201778 0.348526 3.493000 217 209 207
0.203800 0.358194 3.528000 217 208 205
0.201778 0.360755 3.493000 217 206 202
0.201778 0.366870 3.493000 217 204 201
0.201778 0.372984 3.493000 215 203 200
0.201778 0.379099 3.493000 214 201 196
0.201778 0.385213 3.493000 214 202 193
0.201778 0.391328 3.493000 214 204 197
0.201778 0.397442 3.493000 215 206 202
0.201778 0.403557 3.493000 216 205 205
0.201778 0.409671 3.493000 215 206 207
0.201778 0.415786 3.493000 215 207 206
0.201778 0.421900 3.493000 214 212 205
0.201778 0.428015 3.493000 213 206 202
0.201778 0.434129 3.493000 214 208 200
0.201778 0.440244 3.493000 216 207 198
0.201778 0.446359 3.493000 216 206 197
0.201778 0.452473 3.493000 216 203 198
0.201778 0.458587 3.493000 215 202 200
0.199757 0.460046 3.458000 215 202 199
0.199757 0.466099 3.458000 215 205 198
0.199757 0.472152 3.458000 215 203 197
0.199757 0.478205 3.458000 215 201 195
0.199757 0.484258 3.458000 215 202 194
0.201778 0.495274 3.493000 214 204 193
0.199757 0.496365 3.458000 214 204 195
0.201778 0.507503 3.493000 214 206 197
0.201778 0.513618 3.493000 214 203 196
0.201778 0.519732 3.493000 213 208 195
0.201778 0.525847 3.493000 213 199 195
0.201778 0.531961 3.493000 214 197 195
0.201778 0.538076 3.493000 215 196 195
0.201778 0.544190 3.493000 213 195 195
0.201778 0.550305 3.493000 212 197 195
0.201778 0.556419 3.493000 211 198 196
0.201778 0.562534 3.493000 211 197 194
0.201778 0.568648 3.493000 211 196 193
0.201778 0.574763 3.493000 211 195 194
0.199757 0.575057 3.458000 209 194 196
0.199757 0.581110 3.458000 208 193 194
0.199757 0.587163 3.458000 209 193 192
0.199757 0.593217 3.458000 210 193 191
0.199757 0.599270 3.458000 207 193 191
0.199757 0.605323 3.458000 205 193 190
0.199757 0.611376 3.458000 208 197 189
0.199757 0.617429 3.458000 211 195 189
0.199757 0.623483 3.458000 212 191 190
0.201778 0.635908 3.493000 213 192 186
0.201778 0.642022 3.493000 218 197 183
0.201778 0.648137 3.493000 224 193 181
0.201778 0.654251 3.493000 204 192 180
0.201778 0.660366 3.493000 184 165 150
0.201778 0.666480 3.493000 131 134 120
0.199757 0.665855 3.458000 79 77 89
0.199757 0.671909 3.458000 62 52 58
0.181560 0.643713 3.143000 11 9 4
0.181560 0.649215 3.143000 9 7 5
0.181560 0.654717 3.143000 8 9 6
0.181560 0.660219 3.143000 8 9 6
0.181560 0.665721 3.143000 7 9 5
0.183235 0.677416 3.172000 7 8 3
0.181560 0.676724 3.143000 6 7 2
0.183235 0.688521 3.172000 5 6 2
0.186644 0.706983 3.231000 6 4 2
0.188434 0.719477 3.262000 8 4 2
0.186644 0.718295 3.231000 8 4 2
0.186644 0.723951 3.231000 8 4 5
0.186644 0.729607 3.231000 6 5 8
0.186644 0.735263 3.231000 5 6 5
0.184911 0.734039 3.201000 4 6 2
0.184911 0.739642 3.201000 3 4 2
0.153601 0.712151 2.659000 172 160 153
0.153601 0.716805 2.659000 175 163 152
0.152446 0.716033 2.639000 176 166 151
0.151290 0.715191 2.619000 177 164 154
0.150135 0.714279 2.599000 178 164 157
0.149038 0.713574 2.580000 179 164 156
0.147882 0.712524 2.560000 180 166 155
0.146842 0.711963 2.542000 182 165 158
0.145745 0.711058 2.523000 182 166 161
0.144705 0.710371 2.505000 183 167 163
0.143665 0.709620 2.487000 183 167 166
0.142625 0.708806 2.469000 183 168 166
0.141586 0.707929 2.451000 182 168 167
0.140604 0.707279 2.434000 182 167 165
0.139622 0.706570 2.417000 181 165 164
0.138640 0.705802 2.400000 180 162 161
0.137715 0.705270 2.384000 181 162 159
0.135809 0.699623 2.351000 183 163 162
0.134885 0.698949 2.335000 181 162 166
0.134018 0.698520 2.320000 180 163 163
0.134018 0.702581 2.320000 179 164 161
0.133094 0.701769 2.304000 178 164 163
0.132227 0.701207 2.289000 179 165 165
0.130495 0.695971 2.259000 180 160 163
0.129628 0.695278 2.244000 175 156 161
0.128819 0.694844 2.230000 171 158 157
0.128819 0.698747 2.230000 166 161 154
0.127953 0.697925 2.215000 161 150 141
0.127144 0.697366 2.201000 155 140 127
0.126335 0.696759 2.187000 150 130 129
0.125584 0.696423 2.174000 145 122 131
0.124776 0.695719 2.160000 140 121 125
0.124025 0.695290 2.147000 139 122 119
0.123216 0.694490 2.133000 138 122 120
0.123216 0.698224 2.133000 138 122 121
0.122465 0.697679 2.120000 139 119 115
0.121021 0.693119 2.095000 133 114 110
0.119519 0.688139 2.069000 128 115 116
0.118826 0.687749 2.057000 132 116 122
0.118132 0.687316 2.045000 136 117 114
0.117439 0.686842 2.033000 133 118 105
0.117439 0.690401 2.033000 131 117 110
0.116746 0.689863 2.021000 131 117 115
0.116053 0.689284 2.009000 131 117 120
0.114724 0.684869 1.986000 131 118 126
0.114089 0.684533 1.975000 132 115 122
0.113453 0.684159 1.964000 128 114 118
0.112760 0.683395 1.952000 125 114 112
0.112760 0.686812 1.952000 125 114 105
0.112125 0.686340 1.941000 126 116 114
0.110276 0.678366 1.909000 124 117 124
0.109699 0.678137 1.899000 122 116 120
0.109699 0.681461 1.899000 124 114 116
0.109063 0.680819 1.888000 126 114 113
0.108485 0.680500 1.878000 125 113 111
0.107908 0.680146 1.868000 125 114 106
0.107330 0.679758 1.858000 121 116 101
0.106752 0.679334 1.848000 118 110 108
0.106752 0.682569 1.848000 119 105 115
0.106175 0.682093 1.838000 121 106 110
0.105597 0.681582 1.828000 121 107 105
0.105077 0.681410 1.819000 121 108 111
0.104500 0.680831 1.809000 120 110 118
0.103402 0.676813 1.790000 119 108 110
0.102362 0.673109 1.772000 115 108 103
0.101842 0.672777 1.763000 112 106 104
0.101842 0.675863 1.763000 115 104 106
0.101322 0.675483 1.754000 118 104 108
0.100803 0.675072 1.745000 120 105 110
0.216642 -1.408172 3.640000 176 162 126
0.216642 -1.401801 3.640000 179 163 137
0.216642 -1.395429 3.640000 179 161 148
0.216642 -1.389057 3.640000 179 161 152
0.216642 -1.382685 3.640000 177 161 157
0.216642 -1.376313 3.640000 176 163 156
0.214380 -1.355640 3.602000 177 163 155
0.216642 -1.363570 3.640000 179 163 156
0.216642 -1.357198 3.640000 179 160 157
0.216642 -1.350826 3.640000 180 162 158
0.216642 -1.344454 3.640000 179 162 159
0.216642 -1.338082 3.640000 179 163 159
0.216642 -1.331710 3.640000 180 164 160
0.216642 -1.325339 3.640000 181 164 160
0.214380 -1.305197 3.602000 181 163 160
0.214380 -1.298892 3.602000 182 163 166
0.214380 -1.292587 3.602000 182 162 172
0.214380 -1.286282 3.602000 182 161 166
0.214380 -1.279976 3.602000 182 163 161
0.214380 -1.273671 3.602000 183 164 161
0.214380 -1.267366 3.602000 181 166 161
0.214380 -1.261060 3.602000 179 167 160
0.214380 -1.254755 3.602000 182 167 160
0.214380 -1.248450 3.602000 186 166 163
0.214380 -1.242144 3.602000 187 163 166
0.216642 -1.248877 3.640000 188 161 166
0.216642 -1.242505 3.640000 187 164 167
0.216642 -1.236133 3.640000 186 166 167
0.216642 -1.229761 3.640000 184 167 168
0.216642 -1.223389 3.640000 182 166 169
0.216642 -1.217018 3.640000 184 167 170
0.216642 -1.210646 3.640000 186 168 170
0.216642 -1.204274 3.640000 186 168 170
0.216642 -1.197902 3.640000 187 169 167
0.216642 -1.191530 3.640000 187 168 165
0.216642 -1.185158 3.640000 187 167 166
0.212178 -1.154499 3.565000 187 166 168
0.212178 -1.148258 3.565000 188 170 168
0.216642 -1.166043 3.640000 189 168 168
0.214380 -1.147565 3.602000 191 173 169
0.214380 -1.141260 3.602000 191 170 171
0.214380 -1.134954 3.602000 191 170 172
0.216642 -1.140556 3.640000 190 172 173
0.214380 -1.122344 3.602000 189 174 177
0.216642 -1.127812 3.640000 190 176 182
0.214380 -1.109733 3.602000 190 182 175
0.214380 -1.103428 3.602000 172 166 168
0.214380 -1.097123 3.602000 155 147 156
0.214380 -1.090817 3.602000 157 144 144
0.203727 0.167775 3.423000 220 201 201
0.205810 0.175544 3.458000 217 205 199
0.205810 0.181597 3.458000 215 208 199
0.207893 0.189550 3.493000 216 207 200
0.207893 0.195664 3.493000 218 207 201
0.207893 0.201778 3.493000 216 205 203
0.207893 0.207893 3.493000 215 204 206
0.207893 0.214007 3.493000 215 204 210
0.207893 0.220122 3.493000 215 205 207
0.207893 0.226236 3.493000 216 205 204
0.207893 0.232351 3.493000 217 204 200
0.207893 0.238465 3.493000 214 203 197
0.207893 0.244580 3.493000 211 204 199
0.207893 0.250694 3.493000 213 204 201
0.207893 0.256809 3.493000 215 205 200
0.207893 0.262923 3.493000 214 202 200
0.207893 0.269038 3.493000 213 201 199
0.207893 0.275153 3.493000 214 204 199
0.207893 0.281267 3.493000 214 207 199
0.207893 0.287382 3.493000 215 205 199
0.207893 0.293496 3.493000 215 207 199
0.207893 0.299611 3.493000 217 207 200
0.207893 0.305725 3.493000 219 206 197
0.207893 0.311840 3.493000 217 206 194
0.207893 0.317954 3.493000 216 206 199
0.207893 0.324068 3.493000 217 206 204
0.207893 0.330183 3.493000 217 208 201
0.207893 0.336297 3.493000 216 208 198
0.207893 0.342412 3.493000 215 210 202
0.207893 0.348526 3.493000 215 209 206
0.207893 0.354641 3.493000 216 209 204
0.207893 0.360755 3.493000 216 206 202
0.207893 0.366870 3.493000 216 204 201
0.207893 0.372984 3.493000 215 203 200
0.207893 0.379099 3.493000 213 199 198
0.207893 0.385213 3.493000 214 203 197
0.207893 0.391328 3.493000 214 207 200
0.205810 0.393460 3.458000 214 205 204
0.207893 0.403557 3.493000 215 206 207
0.207893 0.409671 3.493000 214 206 211
0.207893 0.415786 3.493000 214 209 208
0.207893 0.421900 3.493000 213 207 205
0.207893 0.428015 3.493000 213 206 202
0.207893 0.434129 3.493000 214 206 200
0.207893 0.440244 3.493000 215 206 200
0.207893 0.446359 3.493000 215 204 201
0.207893 0.452473 3.493000 216 203 205
0.205810 0.453992 3.458000 214 202 209
0.205810 0.460046 3.458000 212 202 205
0.205810 0.466099 3.458000 213 202 201
0.205810 0.472152 3.458000 214 203 197
0.205810 0.478205 3.458000 213 202 193
0.205810 0.484258 3.458000 213 202 190
0.207893 0.495274 3.493000 213 202 188
0.207893 0.501389 3.493000 212 202 192
0.207893 0.507503 3.493000 212 200 197
0.207893 0.513618 3.493000 213 197 196
0.207893 0.519732 3.493000 212 198 195
0.207893 0.525847 3.493000 212 193 195
0.207893 0.531961 3.493000 213 196 195
0.207893 0.538076 3.493000 214 197 194
0.207893 0.544190 3.493000 213 196 194
0.207893 0.550305 3.493000 212 196 195
0.207893 0.556419 3.493000 212 197 196
0.205810 0.556897 3.458000 212 197 193
0.205810 0.562950 3.458000 213 196 190
0.207893 0.574763 3.493000 214 196 191
0.205810 0.575057 3.458000 212 195 193
0.205810 0.581110 3.458000 211 194 191
0.205810 0.587163 3.458000 211 194 190
0.205810 0.593217 3.458000 211 192 190
0.205810 0.599270 3.458000 210 192 190
0.205810 0.605323 3.458000 208 186 188
0.205810 0.611376 3.458000 211 195 187
0.205810 0.617429 3.458000 215 196 187
0.205810 0.623483 3.458000 214 194 188
0.205810 0.629536 3.458000 214 190 183
0.205810 0.635589 3.458000 221 194 179
0.205810 0.641642 3.458000 228 189 178
0.207893 0.654251 3.493000 207 186 178
0.205810 0.653749 3.458000 186 167 152
0.205810 0.659802 3.458000 131 116 126
0.205810 0.665855 3.458000 76 48 87
0.205810 0.671909 3.458000 59 47 49
0.188788 0.649653 3.172000 11 8 1
0.187062 0.649215 3.143000 8 7 2
0.187062 0.654717 3.143000 7 8 4
0.187062 0.660219 3.143000 7 9 4
0.187062 0.665721 3.143000 7 9 4
0.187062 0.671222 3.143000 7 9 2
0.187062 0.676724 3.143000 6 8 1
0.187062 0.682226 3.143000 6 7 2
0.190514 0.700419 3.201000 6 6 3
0.192299 0.712639 3.231000 6 7 3
0.192299 0.718295 3.231000 6 6 3
0.192299 0.723951 3.231000 7 6 7
0.192299 0.729607 3.231000 6 5 12
0.192299 0.735263 3.231000 5 6 7
0.192299 0.740919 3.231000 4 6 3
0.192299 0.746574 3.231000 3 5 3
0.159506 0.713084 2.680000 170 161 155
0.158256 0.712151 2.659000 172 161 155
0.158256 0.716805 2.659000 174 162 151
0.157065 0.716033 2.639000 175 163 147
0.157065 0.720653 2.639000 177 164 152
0.155875 0.719776 2.619000 178 163 158
0.154685 0.718829 2.599000 179 165 154
0.153554 0.718090 2.580000 181 166 151
0.152364 0.717005 2.560000 182 166 157
0.150161 0.711058 2.523000 182 167 164
0.150161 0.715475 2.523000 183 168 165
0.148019 0.709620 2.487000 183 168 166
0.146947 0.708806 2.469000 184 168 167
0.145876 0.707929 2.451000 183 168 168
0.144864 0.707279 2.434000 183 169 165
0.143853 0.706570 2.417000 181 167 163
0.142841 0.705802 2.400000 180 165 158
0.141889 0.705270 2.384000 180 163 154
0.139924 0.699623 2.351000 181 163 160
0.138972 0.698949 2.335000 180 162 166
0.138079 0.698520 2.320000 179 164 164
0.137127 0.697735 2.304000 178 164 163
0.136234 0.697200 2.289000 177 165 167
0.136234 0.701207 2.289000 178 164 172
0.134449 0.695971 2.259000 179 160 167
0.133556 0.695278 2.244000 174 159 163
0.132723 0.694844 2.230000 170 161 161
0.132723 0.698747 2.230000 165 156 159
0.131830 0.697925 2.215000 161 148 141
0.130997 0.697366 2.201000 153 140 124
0.130164 0.696759 2.187000 146 132 125
0.129390 0.696423 2.174000 142 127 127
0.128557 0.695719 2.160000 139 121 120
0.127783 0.695290 2.147000 137 120 113
0.126950 0.694490 2.133000 135 121 117
0.126950 0.698224 2.133000 136 120 121
0.126176 0.697679 2.120000 136 119 111
0.124688 0.693119 2.095000 133 117 102
0.123141 0.688139 2.069000 129 118 114
0.122426 0.687749 2.057000 131 116 127
0.121712 0.687316 2.045000 133 116 114
0.121712 0.690896 2.045000 131 115 101
0.120998 0.690401 2.033000 130 115 107
0.120284 0.689863 2.021000 131 115 113
0.119570 0.689284 2.009000 133 114 116
0.118201 0.684869 1.986000 132 115 119
0.117546 0.684533 1.975000 131 115 120
0.116891 0.684159 1.964000 129 115 121
0.116177 0.683395 1.952000 127 117 118
0.116177 0.686812 1.952000 127 116 115
0.115523 0.686340 1.941000 128 117 116
0.114273 0.682275 1.920000 125 117 117
0.113618 0.681708 1.909000 123 116 114
0.113023 0.681461 1.899000 124 115 112
0.112368 0.680819 1.888000 126 116 108
0.111773 0.680500 1.878000 125 114 105
0.111178 0.680146 1.868000 124 114 99
0.110583 0.679758 1.858000 122 113 94
0.110583 0.683010 1.858000 120 111 102
0.109987 0.682569 1.848000 121 106 110
0.109392 0.682093 1.838000 122 105 104
0.109392 0.685310 1.838000 121 106 98
0.108261 0.681410 1.819000 121 109 111
0.107666 0.680831 1.809000 120 109 125
0.106535 0.676813 1.790000 120 109 116
0.106000 0.676528 1.781000 117 108 107
0.104928 0.672777 1.763000 115 108 106
0.104928 0.675863 1.763000 116 105 106
0.104928 0.678949 1.763000 118 106 109
0.103857 0.675072 1.745000 119 104 113
0.220686 -1.393472 3.602000 178 161 136
0.223014 -1.401801 3.640000 179 161 144
0.223014 -1.395429 3.640000 180 159 153
0.223014 -1.389057 3.640000 181 160 154
0.223014 -1.382685 3.640000 180 161 155
0.223014 -1.376313 3.640000 180 162 154
0.220686 -1.355640 3.602000 179 163 154
0.223014 -1.363570 3.640000 179 159 155
0.223014 -1.357198 3.640000 179 153 157
0.223014 -1.350826 3.640000 179 159 157
0.223014 -1.344454 3.640000 178 162 158
0.220686 -1.324113 3.602000 177 163 158
0.220686 -1.317808 3.602000 178 166 159
0.220686 -1.311503 3.602000 180 164 159
0.220686 -1.305197 3.602000 180 164 160
0.220686 -1.298892 3.602000 181 162 163
0.220686 -1.292587 3.602000 178 162 166
0.218419 -1.273069 3.565000 176 162 163
0.220686 -1.279976 3.602000 179 164 160
0.220686 -1.273671 3.602000 182 164 162
0.223014 -1.280736 3.640000 179 166 164
0.220686 -1.261060 3.602000 176 166 165
0.220686 -1.254755 3.602000 181 169 167
0.220686 -1.248450 3.602000 186 166 166
0.220686 -1.242144 3.602000 188 164 165
0.223014 -1.248877 3.640000 191 164 165
0.220686 -1.229534 3.602000 189 165 165
0.223014 -1.236133 3.640000 187 166 164
0.223014 -1.229761 3.640000 185 169 164
0.223014 -1.223389 3.640000 184 167 166
0.223014 -1.217018 3.640000 184 169 169
0.223014 -1.210646 3.640000 185 168 171
0.223014 -1.204274 3.640000 186 170 174
0.223014 -1.197902 3.640000 187 169 170
0.223014 -1.191530 3.640000 190 169 165
0.220686 -1.172786 3.602000 194 167 166
0.218419 -1.154499 3.565000 191 168 166
0.218419 -1.148258 3.565000 188 167 168
0.223014 -1.166043 3.640000 189 166 170
0.220686 -1.147565 3.602000 190 170 168
0.220686 -1.141260 3.602000 192 171 167
0.220686 -1.134954 3.602000 194 171 168
0.223014 -1.140556 3.640000 192 174 170
0.220686 -1.122344 3.602000 190 173 173
0.223014 -1.127812 3.640000 195 173 175
0.220686 -1.109733 3.602000 200 176 171
0.220686 -1.103428 3.602000 177 179 167
0.220686 -1.097123 3.602000 154 156 159
0.218419 -1.079612 3.565000 156 138 151
0.216152 -1.062231 3.528000 158 140 147
0.209719 0.167775 3.423000 222 207 201
0.211863 0.175544 3.458000 219 202 201
0.211863 0.181597 3.458000 217 205 200
0.214007 0.189550 3.493000 218 207 200
0.214007 0.195664 3.493000 220 206 200
0.211863 0.199757 3.458000 218 207 201
0.214007 0.207893 3.493000 216 205 201
0.214007 0.214007 3.493000 216 205 202
0.211863 0.217916 3.458000 216 204 202
0.211863 0.223970 3.458000 217 207 202
0.211863 0.230023 3.458000 219 205 200
0.211863 0.236076 3.458000 214 203 198
0.211863 0.242129 3.458000 209 203 199
0.214007 0.250694 3.493000 211 204 200
0.214007 0.256809 3.493000 214 204 200
0.211863 0.260289 3.458000 213 202 199
0.211863 0.266342 3.458000 213 203 200
0.214007 0.275153 3.493000 213 209 201
0.211863 0.278449 3.458000 214 205 197
0.214007 0.287382 3.493000 214 202 194
0.211863 0.290555 3.458000 215 202 197
0.211863 0.296608 3.458000 217 201 200
0.211863 0.302662 3.458000 219 203 198
0.211863 0.308715 3.458000 217 206 197
0.214007 0.317954 3.493000 216 206 201
0.214007 0.324068 3.493000 216 206 205
0.214007 0.330183 3.493000 216 207 202
0.214007 0.336297 3.493000 214 206 200
0.214007 0.342412 3.493000 212 207 202
0.214007 0.348526 3.493000 214 211 205
0.214007 0.354641 3.493000 216 206 203
0.214007 0.360755 3.493000 216 205 201
0.214007 0.366870 3.493000 216 205 200
0.214007 0.372984 3.493000 214 206 199
0.214007 0.379099 3.493000 213 203 196
0.211863 0.381354 3.458000 214 204 192
0.214007 0.391328 3.493000 215 204 197
0.211863 0.393460 3.458000 214 203 202
0.211863 0.399513 3.458000 214 203 204
0.211863 0.405566 3.458000 214 205 206
0.211863 0.411620 3.458000 214 205 204
0.211863 0.417673 3.458000 213 203 203
0.214007 0.428015 3.493000 213 204 200
0.214007 0.434129 3.493000 213 204 197
0.214007 0.440244 3.493000 214 204 199
0.214007 0.446359 3.493000 215 202 201
0.214007 0.452473 3.493000 216 202 203
0.214007 0.458587 3.493000 213 202 205
0.211863 0.460046 3.458000 210 201 202
0.211863 0.466099 3.458000 211 200 200
0.211863 0.472152 3.458000 213 201 197
0.211863 0.478205 3.458000 212 204 195
0.211863 0.484258 3.458000 212 201 194
0.211863 0.490312 3.458000 211 202 192
0.211863 0.496365 3.458000 211 200 196
0.211863 0.502418 3.458000 211 198 200
0.214007 0.513618 3.493000 212 197 198
0.214007 0.519732 3.493000 211 197 196
0.214007 0.525847 3.493000 211 196 197
0.214007 0.531961 3.493000 212 197 198
0.214007 0.538076 3.493000 213 197 195
0.214007 0.544190 3.493000 212 197 192
0.214007 0.550305 3.493000 212 196 192
0.214007 0.556419 3.493000 212 197 193
0.214007 0.562534 3.493000 213 196 189
0.211863 0.562950 3.458000 215 195 185
0.214007 0.574763 3.493000 217 196 187
0.214007 0.580877 3.493000 215 196 190
0.214007 0.586992 3.493000 214 196 189
0.211863 0.587163 3.458000 213 199 188
0.211863 0.593217 3.458000 213 197 186
0.211863 0.599270 3.458000 212 199 185
0.211863 0.605323 3.458000 212 195 185
0.211863 0.611376 3.458000 215 203 186
0.211863 0.617429 3.458000 219 199 188
0.211863 0.623483 3.458000 217 202 191
0.211863 0.629536 3.458000 215 196 183
0.211863 0.635589 3.458000 224 202 176
0.211863 0.641642 3.458000 233 194 178
0.211863 0.647696 3.458000 211 196 180
0.211863 0.653749 3.458000 189 155 152
0.211863 0.659802 3.458000 131 118 124
0.209719 0.659116 3.423000 74 68 86
0.209719 0.665108 3.423000 56 56 48
0.194341 0.655205 3.172000 7 8 7
0.192564 0.654717 3.143000 7 9 4
0.192564 0.660219 3.143000 7 8 3
0.194341 0.671863 3.172000 7 9 3
0.194341 0.677416 3.172000 7 9 2
0.192564 0.676724 3.143000 7 9 2
0.194341 0.688521 3.172000 7 7 2
0.197955 0.706983 3.231000 6 7 2
0.199855 0.719477 3.262000 5 6 2
0.197955 0.718295 3.231000 5 7 2
0.197955 0.723951 3.231000 6 6 4
0.197955 0.729607 3.231000 5 6 7
0.197955 0.735263 3.231000 5 6 5
0.197955 0.740919 3.231000 4 7 2
0.164197 0.713084 2.680000 171 161 158
0.162910 0.712151 2.659000 172 162 159
0.162910 0.716805 2.659000 174 162 156
0.161685 0.716033 2.639000 175 163 152
0.161685 0.720653 2.639000 177 163 155
0.160460 0.719776 2.619000 178 162 158
0.159234 0.718829 2.599000 180 164 157
0.158070 0.718090 2.580000 181 167 156
0.156845 0.717005 2.560000 183 165 163
0.155742 0.716413 2.542000 183 169 170
0.154578 0.715475 2.523000 183 168 169
0.152372 0.709620 2.487000 184 169 168
0.151269 0.708806 2.469000 185 168 171
0.149125 0.703018 2.434000 184 167 174
0.148084 0.702339 2.417000 184 169 168
0.147042 0.701601 2.400000 182 172 162
0.147042 0.705802 2.400000 180 167 160
0.146062 0.705270 2.384000 179 165 158
0.144040 0.699623 2.351000 179 164 161
0.143060 0.698949 2.335000 178 162 165
0.142141 0.698520 2.320000 178 162 162
0.142141 0.702581 2.320000 177 164 160
0.141160 0.701769 2.304000 177 164 164
0.140241 0.701207 2.289000 177 167 169
0.139322 0.700592 2.274000 178 163 163
0.138403 0.699925 2.259000 174 162 157
0.136627 0.694844 2.230000 170 157 155
0.136627 0.698747 2.230000 165 157 153
0.135708 0.697925 2.215000 161 146 140
0.134850 0.697366 2.201000 151 142 128
0.133992 0.696759 2.187000 142 135 126
0.133196 0.696423 2.174000 140 135 125
0.132338 0.695719 2.160000 138 123 122
0.131541 0.695290 2.147000 135 117 119
0.130684 0.694490 2.133000 133 119 123
0.130684 0.698224 2.133000 133 120 127
0.129887 0.697679 2.120000 134 118 118
0.128355 0.693119 2.095000 132 118 110
0.126762 0.688139 2.069000 131 117 116
0.126762 0.691761 2.069000 130 117 123
0.126027 0.691350 2.057000 130 115 114
0.125292 0.690896 2.045000 130 114 106
0.124557 0.690401 2.033000 130 116 109
0.123822 0.689863 2.021000 132 117 112
0.123086 0.689284 2.009000 135 115 115
0.122412 0.689007 1.998000 132 113 118
0.121003 0.684533 1.975000 130 114 119
0.120329 0.684159 1.964000 129 116 120
0.120329 0.687596 1.964000 129 117 117
0.119594 0.686812 1.952000 129 119 115
0.118920 0.686340 1.941000 130 117 113
0.117634 0.682275 1.920000 127 119 112
0.116960 0.681708 1.909000 124 116 111
0.116347 0.681461 1.899000 125 116 110
0.115673 0.680819 1.888000 126 116 109
0.114448 0.676876 1.868000 125 116 108
0.114448 0.680146 1.868000 124 113 108
0.113835 0.679758 1.858000 123 111 108
0.113222 0.679334 1.848000 122 109 111
0.113222 0.682569 1.848000 123 106 114
0.112610 0.682093 1.838000 124 105 109
0.111997 0.681582 1.828000 122 104 104
0.111446 0.681410 1.819000 121 106 111
0.110281 0.677444 1.800000 121 108 118
0.109669 0.676813 1.790000 121 107 112
0.109117 0.676528 1.781000 120 107 107
0.108566 0.676211 1.772000 119 106 103
0.108015 0.675863 1.763000 118 105 99
0.108015 0.678949 1.763000 118 105 104
0.106912 0.675072 1.745000 119 104 110
0.226991 -1.393472 3.602000 179 162 146
0.229386 -1.401801 3.640000 180 164 152
0.226991 -1.380861 3.602000 182 160 158
0.229386 -1.389057 3.640000 184 159 155
0.226991 -1.368250 3.602000 182 160 153
0.229386 -1.376313 3.640000 180 162 153
0.231843 -1.384619 3.679000 180 162 153
