ply
format ascii 1.0
element vertex 1286
property float x
property float y
property float z
property uchar red
property uchar green
property uchar blue
end_header
-0.998757 0.680157 2.045000 96 60 74
-0.992896 0.679725 2.033000 97 57 77
-0.992896 0.683283 2.033000 98 59 75
-0.987035 0.682788 2.021000 100 60 74
-0.981175 0.682250 2.009000 102 59 76
-0.969942 0.677916 1.986000 95 51 78
-0.969942 0.681393 1.986000 89 54 77
-0.964569 0.681076 1.975000 90 58 76
-0.959197 0.680721 1.964000 91 60 70
-0.953336 0.679978 1.952000 90 60 65
-0.947964 0.679544 1.941000 89 62 69
-0.947964 0.682942 1.941000 89 63 73
-0.943080 0.682804 1.931000 90 62 72
-0.932336 0.678366 1.909000 90 63 72
-0.927452 0.678137 1.899000 91 62 69
-0.927452 0.681461 1.899000 90 58 67
-0.917196 0.677213 1.878000 90 59 68
-0.912312 0.676876 1.868000 83 65 70
-0.907428 0.676505 1.858000 76 62 74
-0.902544 0.676099 1.848000 83 62 79
-0.897660 0.675658 1.838000 90 61 72
-0.892776 0.675182 1.828000 85 58 66
-0.892776 0.678382 1.828000 80 60 67
-0.888381 0.678226 1.819000 83 62 69
-0.883497 0.677664 1.809000 87 61 68
-0.879101 0.677444 1.800000 87 63 66
-0.874217 0.676813 1.790000 87 62 66
-0.869822 0.676528 1.781000 86 62 67
-0.861031 0.672777 1.763000 85 60 73
-0.856635 0.672413 1.754000 75 59 80
-0.852240 0.672017 1.745000 66 57 75
-0.847844 0.671590 1.736000 78 57 71
-0.843937 0.671520 1.728000 90 58 77
-0.839542 0.671032 1.719000 89 55 83
-0.835635 0.670904 1.711000 89 56 79
-1.304193 0.703701 2.680000 94 62 93
-1.304193 0.708392 2.680000 94 64 84
-1.293973 0.707496 2.659000 94 70 88
-1.293973 0.712151 2.659000 98 70 92
-1.284240 0.711414 2.639000 101 69 87
-1.245796 0.703561 2.560000 95 66 90
-1.245796 0.708042 2.560000 95 69 84
-1.227790 0.711058 2.523000 95 68 80
-1.219031 0.710371 2.505000 95 69 81
-1.210271 0.709620 2.487000 92 68 82
-1.192752 0.703638 2.451000 89 67 81
-1.176207 0.698108 2.417000 91 66 80
-1.176207 0.702339 2.417000 93 62 82
-1.167934 0.701601 2.400000 97 67 85
-1.160147 0.701096 2.384000 102 69 74
-1.151875 0.700240 2.367000 98 65 64
-1.144088 0.699623 2.351000 94 64 71
-1.085205 0.694844 2.230000 97 67 81
-1.064280 0.685274 2.187000 96 70 78
-1.057953 0.685006 2.174000 96 72 77
-1.044814 0.680257 2.147000 94 63 76
-1.044814 0.684015 2.147000 92 60 76
-1.044814 0.687773 2.147000 93 62 76
-1.044814 0.691532 2.147000 95 67 67
-1.038001 0.690756 2.133000 95 64 58
-1.025348 0.686025 2.107000 96 64 70
-1.019509 0.685785 2.095000 95 62 83
-1.013182 0.685174 2.082000 95 60 78
-1.006856 0.684517 2.069000 100 62 74
-1.001016 0.684148 2.057000 106 62 75
-0.989337 0.679725 2.033000 102 58 77
-0.989337 0.683283 2.033000 99 58 81
-0.983498 0.682788 2.021000 99 60 85
-0.972305 0.678515 1.998000 99 63 81
-0.966465 0.677916 1.986000 95 57 78
-0.961112 0.677619 1.975000 91 54 77
-0.961112 0.681076 1.975000 93 60 77
-0.955759 0.680721 1.964000 96 65 71
-0.949919 0.679978 1.952000 91 63 66
-0.944566 0.679544 1.941000 86 63 68
-0.939700 0.679423 1.931000 91 63 70
-0.939700 0.682804 1.931000 96 64 71
-0.928994 0.678366 1.909000 94 64 72
-0.924127 0.678137 1.899000 91 64 72
-0.924127 0.681461 1.899000 91 60 72
-0.918775 0.680819 1.888000 91 56 72
-0.913908 0.680500 1.878000 91 61 72
-0.904175 0.676505 1.858000 91 63 78
-0.899309 0.676099 1.848000 92 62 85
-0.899309 0.679334 1.848000 92 63 75
-0.889576 0.675182 1.828000 88 61 66
-0.889576 0.678382 1.828000 84 65 67
-0.885196 0.678226 1.819000 85 61 68
-0.875950 0.674293 1.800000 86 63 66
-0.875950 0.677444 1.800000 88 62 65
-0.866704 0.673410 1.781000 90 62 66
-0.862324 0.673109 1.772000 92 61 68
-0.857945 0.672777 1.763000 95 61 77
-0.853565 0.672413 1.754000 85 58 86
-0.851132 0.673558 1.749000 76 56 80
-0.844805 0.671590 1.736000 86 57 74
-0.844805 0.674629 1.736000 95 59 81
-0.840912 0.674545 1.728000 92 58 89
-0.840912 0.677570 1.728000 90 57 82
-1.299501 0.708392 2.680000 91 63 78
-1.289319 0.707496 2.659000 89 68 82
-1.289319 0.712151 2.659000 91 70 86
-1.279621 0.711414 2.639000 94 70 83
-1.251013 0.700025 2.580000 92 68 81
-1.251013 0.704541 2.580000 90 66 83
-1.251013 0.709058 2.580000 92 69 85
-1.241315 0.708042 2.560000 94 69 81
-1.241315 0.712524 2.560000 93 69 78
-1.232587 0.711963 2.542000 93 69 79
-1.223374 0.711058 2.523000 94 68 79
-1.214646 0.710371 2.505000 95 68 80
-1.205918 0.709620 2.487000 91 69 81
-1.188462 0.703638 2.451000 87 68 78
-1.180219 0.703018 2.434000 90 73 76
-1.180219 0.707279 2.434000 93 68 79
-1.171976 0.706570 2.417000 101 71 83
-1.155974 0.701096 2.384000 109 67 76
-1.147731 0.700240 2.367000 102 64 70
-1.081301 0.690940 2.230000 96 67 81
-1.081301 0.694844 2.230000 97 69 78
-1.074028 0.694047 2.215000 96 73 75
-1.054148 0.685006 2.174000 96 68 74
-1.047359 0.684376 2.160000 95 60 73
-1.041056 0.684015 2.147000 94 62 73
-1.041056 0.687773 2.147000 94 64 73
-1.041056 0.691532 2.147000 95 65 68
-1.034267 0.690756 2.133000 96 65 63
-1.015841 0.682117 2.095000 97 63 70
-1.009538 0.681529 2.082000 97 62 77
-1.009538 0.685174 2.082000 98 62 71
-1.003234 0.684517 2.069000 107 62 66
-0.997416 0.684148 2.057000 116 60 69
-0.997416 0.687749 2.057000 108 57 73
-0.991597 0.687316 2.045000 100 58 75
-0.985778 0.686842 2.033000 98 60 77
-0.974141 0.682250 2.009000 96 61 76
-0.962989 0.677916 1.986000 95 60 75
-0.957655 0.677619 1.975000 94 61 75
-0.957655 0.681076 1.975000 97 63 74
-0.952321 0.680721 1.964000 101 64 69
-0.946502 0.679978 1.952000 92 67 65
-0.941169 0.679544 1.941000 84 65 65
-0.936320 0.679423 1.931000 93 64 66
-0.936320 0.682804 1.931000 103 63 68
-0.930986 0.682275 1.920000 97 65 69
-0.925652 0.681708 1.909000 92 64 70
-0.920803 0.681461 1.899000 92 62 70
-0.915470 0.680819 1.888000 92 60 70
-0.910621 0.680500 1.878000 99 63 71
-0.905772 0.680146 1.868000 107 62 70
-0.900923 0.679758 1.858000 101 63 70
-0.900923 0.683010 1.858000 95 62 68
-0.891225 0.678876 1.838000 91 59 65
-0.886376 0.678382 1.828000 88 59 65
-0.882012 0.678226 1.819000 87 56 65
-0.877163 0.677664 1.809000 86 60 59
-0.872799 0.677444 1.800000 89 63 54
-0.867950 0.676813 1.790000 93 61 59
-0.863587 0.676528 1.781000 99 59 64
-0.854859 0.672777 1.763000 105 57 70
-0.850495 0.672413 1.754000 96 56 75
-0.850495 0.675483 1.754000 87 56 72
-0.841767 0.671590 1.736000 94 58 68
-0.841767 0.674629 1.736000 101 60 74
-0.837887 0.674545 1.728000 96 64 79
-0.836433 0.676393 1.725000 91 61 72
-1.284664 0.702842 2.659000 96 68 72
-1.284664 0.707496 2.659000 97 69 76
-1.284664 0.712151 2.659000 95 72 80
-1.265339 0.706022 2.619000 94 73 80
-1.246496 0.700025 2.580000 93 68 80
-1.246496 0.704541 2.580000 92 68 80
-1.246496 0.709058 2.580000 92 70 80
-1.246496 0.713574 2.580000 93 72 79
-1.236834 0.712524 2.560000 92 71 78
-1.228137 0.711963 2.542000 91 71 78
-1.218957 0.711058 2.523000 94 70 79
-1.210261 0.710371 2.505000 97 67 80
-1.201564 0.709620 2.487000 98 66 81
-1.184171 0.703638 2.451000 99 65 76
-1.175958 0.703018 2.434000 97 68 72
-1.175958 0.707279 2.434000 95 69 76
-1.167745 0.706570 2.417000 99 68 81
-1.151801 0.701096 2.384000 103 67 78
-1.143588 0.700240 2.367000 98 64 76
-1.077398 0.690940 2.230000 96 68 79
-1.077398 0.694844 2.230000 95 70 76
-1.063387 0.689660 2.201000 94 70 73
-1.056623 0.689102 2.187000 94 68 71
-1.050342 0.688811 2.174000 91 64 70
-1.037297 0.684015 2.147000 89 64 70
-1.037297 0.687773 2.147000 93 64 71
-1.037297 0.691532 2.147000 97 65 69
-1.030534 0.690756 2.133000 99 64 68
-1.012174 0.682117 2.095000 102 62 70
-1.012174 0.685785 2.095000 99 64 72
-1.005893 0.685174 2.082000 97 65 65
-0.999613 0.684517 2.069000 102 61 58
-0.993815 0.684148 2.057000 107 61 63
-0.993815 0.687749 2.057000 102 58 69
-0.988017 0.687316 2.045000 98 57 69
-0.982220 0.686842 2.033000 96 60 69
-0.970624 0.682250 2.009000 94 63 71
-0.959512 0.677916 1.986000 93 63 73
-0.959512 0.681393 1.986000 92 67 72
-0.954198 0.681076 1.975000 95 64 72
-0.948883 0.680721 1.964000 99 64 68
-0.943086 0.679978 1.952000 93 66 64
-0.932940 0.676043 1.931000 87 68 63
-0.932940 0.679423 1.931000 93 62 63
-0.927625 0.678914 1.920000 98 59 65
-0.922311 0.678366 1.909000 95 62 67
-0.922311 0.681708 1.909000 92 65 68
-0.912165 0.677514 1.888000 90 62 69
-0.912165 0.680819 1.888000 89 60 69
-0.907333 0.680500 1.878000 93 62 70
-0.907333 0.683788 1.878000 98 61 63
-0.902502 0.683416 1.868000 95 63 56
-0.902502 0.686686 1.868000 92 66 60
-0.883176 0.675182 1.828000 89 61 65
-0.878828 0.675042 1.819000 87 59 63
-0.873997 0.674497 1.809000 83 59 62
-0.869649 0.674293 1.800000 79 61 53
-0.864817 0.673680 1.790000 85 61 44
-0.860469 0.673410 1.781000 92 62 52
-0.856121 0.673109 1.772000 96 57 61
-0.847424 0.669342 1.754000 100 55 63
-0.847424 0.672413 1.754000 93 55 65
-0.847424 0.675483 1.754000 86 55 64
-0.838728 0.671590 1.736000 88 59 63
-0.838728 0.674629 1.736000 90 62 66
-0.834863 0.674545 1.728000 89 63 70
-0.831964 0.675217 1.722000 87 67 62
-1.280010 0.707496 2.659000 106 74 78
-1.270382 0.706794 2.639000 100 76 79
-1.270382 0.711414 2.639000 94 70 80
-1.260754 0.710607 2.619000 94 65 82
-1.241980 0.704541 2.580000 94 68 80
-1.241980 0.709058 2.580000 93 72 79
-1.241980 0.713574 2.580000 93 71 78
-1.232352 0.712524 2.560000 91 73 77
-1.214541 0.706642 2.523000 89 73 75
-1.205876 0.705986 2.505000 94 76 73
-1.205876 0.710371 2.505000 99 70 77
-1.197211 0.709620 2.487000 105 65 81
-1.179881 0.703638 2.451000 111 65 80
-1.171697 0.703018 2.434000 104 68 79
-1.163514 0.702339 2.417000 98 68 88
-1.163514 0.706570 2.417000 97 68 97
-1.147628 0.701096 2.384000 97 66 89
-1.139444 0.700240 2.367000 94 63 81
-1.073494 0.690940 2.230000 96 63 78
-1.059534 0.685808 2.201000 93 67 76
-1.059534 0.689660 2.201000 92 70 75
-1.052795 0.689102 2.187000 92 68 73
-1.039797 0.684376 2.160000 88 65 71
-1.026800 0.679555 2.133000 84 63 72
-1.026800 0.683289 2.133000 91 64 74
-1.026800 0.690756 2.133000 103 66 70
-1.014284 0.686025 2.107000 108 64 72
-1.008507 0.685785 2.095000 102 67 75
-1.008507 0.689452 2.095000 96 63 71
-1.002249 0.688818 2.082000 97 59 68
-0.995991 0.688139 2.069000 98 59 70
-0.990214 0.687749 2.057000 97 58 72
-0.984438 0.687316 2.045000 97 59 72
-0.978661 0.686842 2.033000 95 60 72
-0.967108 0.682250 2.009000 93 63 73
-0.961812 0.682012 1.998000 92 65 73
-0.956036 0.681393 1.986000 91 64 72
-0.956036 0.684869 1.986000 94 62 71
-0.945445 0.680721 1.964000 97 63 70
-0.939668 0.679978 1.952000 94 66 69
-0.934373 0.679544 1.941000 91 64 68
-0.929559 0.679423 1.931000 92 60 67
-0.924264 0.678914 1.920000 94 59 72
-0.914155 0.674813 1.899000 93 60 78
-0.908860 0.674209 1.888000 93 61 75
-0.908860 0.677514 1.888000 89 62 72
-0.908860 0.680819 1.888000 86 62 73
-0.904046 0.680500 1.878000 87 65 73
-0.904046 0.683788 1.878000 89 62 67
-0.904046 0.687075 1.878000 89 64 62
-0.889604 0.679334 1.848000 89 64 64
-0.879976 0.675182 1.828000 88 61 67
-0.875644 0.675042 1.819000 87 60 67
-0.870830 0.674497 1.809000 80 63 67
-0.866498 0.674293 1.800000 73 60 62
-0.861684 0.673680 1.790000 82 60 57
-0.857351 0.673410 1.781000 91 59 65
-0.853019 0.673109 1.772000 93 55 72
-0.848686 0.672777 1.763000 96 55 64
-0.848686 0.675863 1.763000 91 56 57
-0.840021 0.672017 1.745000 86 57 61
-0.835689 0.671590 1.736000 83 62 65
-0.835689 0.674629 1.736000 80 63 69
-0.827505 0.671032 1.719000 82 62 72
-0.827505 0.674041 1.719000 84 64 66
-1.265762 0.702175 2.639000 97 76 80
-1.265762 0.706794 2.639000 96 73 79
-1.265762 0.711414 2.639000 95 69 81
-1.256170 0.710607 2.619000 94 68 84
-1.237464 0.704541 2.580000 94 69 81
-1.237464 0.709058 2.580000 95 70 79
-1.237464 0.713574 2.580000 96 70 77
-1.227871 0.712524 2.560000 97 72 76
-1.210124 0.706642 2.523000 98 72 71
-1.201491 0.705986 2.505000 98 73 67
-1.201491 0.710371 2.505000 99 74 74
-1.184224 0.704484 2.469000 102 68 81
-1.184224 0.708806 2.469000 105 65 84
-1.167437 0.703018 2.434000 100 66 87
-1.167437 0.707279 2.434000 95 69 100
-1.159283 0.706570 2.417000 91 68 114
-1.143455 0.701096 2.384000 88 67 100
-1.135301 0.700240 2.367000 90 65 87
-1.069591 0.690940 2.230000 95 67 77
-1.055681 0.685808 2.201000 93 65 77
-1.055681 0.689660 2.201000 93 67 78
-1.048966 0.689102 2.187000 94 69 75
-1.048966 0.692930 2.187000 93 64 72
-1.004840 0.685785 2.095000 97 64 78
-0.998604 0.685174 2.082000 94 62 78
-0.998604 0.688818 2.082000 95 60 78
-0.992369 0.688139 2.069000 95 60 76
-0.986614 0.687749 2.057000 94 60 75
-0.986614 0.691350 2.057000 94 63 75
-0.975102 0.686842 2.033000 93 63 76
-0.958315 0.678515 1.998000 92 64 75
-0.952559 0.677916 1.986000 90 63 74
-0.947283 0.677619 1.975000 89 65 72
-0.942007 0.677283 1.964000 92 64 71
-0.936252 0.676561 1.952000 96 63 72
-0.930976 0.676147 1.941000 94 64 74
-0.930976 0.679544 1.941000 93 65 72
-0.926179 0.679423 1.931000 94 62 71
-0.920903 0.678914 1.920000 96 60 80
-0.910831 0.674813 1.899000 93 59 89
-0.905555 0.674209 1.888000 90 60 82
-0.905555 0.677514 1.888000 86 60 76
-0.905555 0.680819 1.888000 81 62 76
-0.900758 0.680500 1.878000 87 62 77
-0.900758 0.683788 1.878000 93 61 72
-0.900758 0.687075 1.878000 92 63 68
-0.886369 0.679334 1.848000 91 65 68
-0.876777 0.675182 1.828000 91 62 69
-0.872460 0.675042 1.819000 91 59 71
-0.867664 0.674497 1.809000 86 58 73
-0.863347 0.674293 1.800000 81 57 72
-0.858550 0.673680 1.790000 86 58 71
-0.854234 0.673410 1.781000 92 60 77
-0.849917 0.673109 1.772000 93 57 84
-0.836967 0.665908 1.745000 94 56 66
-0.841283 0.672413 1.754000 92 56 49
-0.836967 0.672017 1.745000 90 56 58
-0.832650 0.671590 1.736000 87 62 68
-0.832650 0.674629 1.736000 84 67 71
-0.828813 0.674545 1.728000 84 64 75
-0.828813 0.677570 1.728000 85 65 70
-1.261143 0.711414 2.639000 97 72 79
-1.251585 0.710607 2.619000 95 69 80
-1.242027 0.709730 2.599000 94 71 79
-1.242027 0.714279 2.599000 96 72 79
-1.232947 0.713574 2.580000 99 71 78
-1.223390 0.712524 2.560000 103 73 77
-1.205708 0.706642 2.523000 107 71 77
-1.205708 0.711058 2.523000 103 73 78
-1.188504 0.705266 2.487000 100 72 80
-1.179902 0.704484 2.469000 99 71 82
-1.171300 0.703638 2.451000 99 68 82
-1.155052 0.698108 2.417000 95 64 83
-1.155052 0.702339 2.417000 92 67 90
-1.146928 0.701601 2.400000 86 69 98
-1.139282 0.701096 2.384000 80 66 90
-1.131157 0.700240 2.367000 86 68 83
-1.065687 0.690940 2.230000 93 73 78
-1.058519 0.690170 2.215000 93 68 79
-1.051828 0.689660 2.201000 94 67 80
-1.001172 0.689452 2.095000 93 62 82
-0.994960 0.688818 2.082000 93 59 80
-0.994960 0.692463 2.082000 93 60 80
-0.988747 0.691761 2.069000 92 59 79
-0.983013 0.691350 2.057000 91 64 77
-0.971543 0.686842 2.033000 91 67 75
-0.965809 0.686326 2.021000 91 63 75
-0.949083 0.677916 1.986000 89 60 75
-0.943826 0.677619 1.975000 87 65 74
-0.938569 0.677283 1.964000 91 67 73
-0.932835 0.676561 1.952000 95 64 77
-0.927578 0.676147 1.941000 95 62 82
-0.927578 0.679544 1.941000 95 63 77
-0.922799 0.679423 1.931000 97 65 73
-0.917542 0.678914 1.920000 99 60 77
-0.912285 0.678366 1.909000 93 56 82
-0.907506 0.678137 1.899000 88 58 73
-0.902250 0.677514 1.888000 82 58 65
-0.902250 0.680819 1.888000 77 61 71
-0.897471 0.680500 1.878000 87 63 77
-0.897471 0.683788 1.878000 97 62 76
-0.892692 0.683416 1.868000 95 64 75
-0.878355 0.675658 1.838000 93 63 73
-0.873577 0.675182 1.828000 94 64 71
-0.869276 0.675042 1.819000 96 60 72
-0.864497 0.674497 1.809000 93 55 74
-0.860196 0.674293 1.800000 90 56 73
-0.860196 0.677444 1.800000 91 58 72
-0.855417 0.676813 1.790000 93 60 76
-0.842514 0.669691 1.763000 93 60 81
-0.833912 0.665908 1.745000 93 59 71
-0.833912 0.668962 1.745000 93 58 61
-0.833912 0.672017 1.745000 94 59 66
-0.829611 0.671590 1.736000 91 65 71
-0.829611 0.674629 1.736000 89 64 74
-0.825788 0.674545 1.728000 87 64 77
-0.825788 0.677570 1.728000 86 65 68
-1.256523 0.711414 2.639000 102 76 77
-1.247000 0.710607 2.619000 97 73 76
-1.237478 0.709730 2.599000 92 76 77
-1.237478 0.714279 2.599000 96 73 79
-1.228431 0.713574 2.580000 99 72 78
-1.228431 0.718090 2.580000 102 70 78
-1.210338 0.711963 2.542000 105 67 83
-1.210338 0.716413 2.542000 103 71 89
-1.184150 0.705266 2.487000 102 72 86
-1.167009 0.699348 2.451000 102 71 83
-1.175580 0.708806 2.469000 103 73 81
-1.158915 0.703018 2.434000 99 69 79
-1.158915 0.707279 2.434000 96 69 80
-1.150821 0.706570 2.417000 93 68 82
-1.135108 0.701096 2.384000 91 61 81
-1.127014 0.700240 2.367000 93 63 80
-1.082733 0.696612 2.274000 94 74 77
-1.068449 0.691350 2.244000 95 75 78
-1.068449 0.695278 2.244000 94 72 80
-1.054641 0.690170 2.215000 94 70 81
-1.054641 0.694047 2.215000 94 69 83
-0.993220 0.690142 2.086000 92 62 83
-0.991315 0.692463 2.082000 92 63 83
-0.985125 0.691761 2.069000 92 63 84
-0.985125 0.695383 2.069000 93 67 79
-0.962271 0.682788 2.021000 91 66 74
-0.956557 0.682250 2.009000 90 64 75
-0.950844 0.681671 1.997000 86 65 76
-0.940369 0.677619 1.975000 82 68 76
-0.935131 0.677283 1.964000 90 66 76
-0.929418 0.676561 1.952000 98 65 83
-0.924180 0.676147 1.941000 96 63 90
-0.919419 0.676043 1.931000 93 62 83
-0.914181 0.675553 1.920000 94 62 76
-0.914181 0.678914 1.920000 95 61 75
-0.904182 0.674813 1.899000 92 59 75
-0.898945 0.674209 1.888000 89 58 65
-0.894184 0.673925 1.878000 86 60 55
-0.894184 0.677213 1.878000 84 62 66
-0.894184 0.680500 1.878000 90 61 77
-0.894184 0.683788 1.878000 96 60 79
-0.884661 0.679758 1.858000 94 61 82
-0.879899 0.679334 1.848000 93 62 77
-0.870377 0.675182 1.828000 93 63 73
-0.866091 0.675042 1.819000 92 62 74
-0.861330 0.674497 1.809000 90 58 76
-0.857045 0.674293 1.800000 88 57 74
-0.857045 0.677444 1.800000 89 59 73
-0.847998 0.673410 1.781000 91 62 75
-0.835143 0.666272 1.754000 91 61 78
-0.832762 0.667434 1.749000 92 64 76
-0.835143 0.672413 1.754000 92 60 74
-0.830857 0.672017 1.745000 93 59 74
-0.826572 0.671590 1.736000 92 62 74
-0.826572 0.674629 1.736000 91 63 76
-0.822763 0.674545 1.728000 89 64 79
-0.822763 0.677570 1.728000 87 67 67
-1.223915 0.709058 2.580000 95 74 81
-1.223915 0.713574 2.580000 100 71 80
-1.214427 0.712524 2.560000 101 69 79
-1.205888 0.711963 2.542000 103 69 82
-1.188336 0.705986 2.505000 103 72 86
-1.179797 0.705266 2.487000 104 71 84
-1.162719 0.699348 2.451000 105 71 83
-1.162719 0.703638 2.451000 107 72 80
-1.154654 0.703018 2.434000 103 72 78
-1.154654 0.707279 2.434000 100 72 78
-1.146590 0.706570 2.417000 101 74 78
-1.138525 0.705802 2.400000 103 67 76
-1.126666 0.702607 2.375000 100 64 75
-1.085869 0.697200 2.289000 96 70 80
-1.078753 0.696612 2.274000 96 78 81
-1.064521 0.691350 2.244000 96 75 80
-1.064521 0.695278 2.244000 95 71 80
-1.057880 0.694844 2.230000 95 69 80
-1.057880 0.698747 2.230000 94 66 80
-0.991466 0.691465 2.090000 91 63 81
-0.987671 0.692463 2.082000 91 64 80
-0.981504 0.691761 2.069000 93 64 80
-0.981504 0.695383 2.069000 96 65 78
-0.964426 0.686842 2.033000 92 66 75
-0.958733 0.686326 2.021000 89 67 75
-0.953041 0.685767 2.009000 83 68 75
-0.942130 0.681393 1.986000 78 67 74
-0.936912 0.681076 1.975000 90 66 73
-0.926001 0.676561 1.952000 102 65 78
-0.920782 0.676147 1.941000 97 65 83
-0.916039 0.676043 1.931000 92 62 77
-0.916039 0.679423 1.931000 92 60 72
-0.910820 0.678914 1.920000 92 61 72
-0.900858 0.674813 1.899000 91 63 73
-0.895640 0.674209 1.888000 91 61 67
-0.895640 0.677514 1.888000 91 62 62
-0.895640 0.680819 1.888000 91 61 69
-0.895640 0.684124 1.888000 93 59 77
-0.890896 0.683788 1.878000 95 59 78
-0.881408 0.679758 1.858000 94 59 79
-0.871921 0.675658 1.838000 94 62 77
-0.867177 0.675182 1.828000 91 65 75
-0.862907 0.675042 1.819000 89 62 76
-0.858164 0.674497 1.809000 87 60 77
-0.853894 0.674293 1.800000 86 58 71
-0.853894 0.677444 1.800000 88 59 65
-0.849150 0.676813 1.790000 90 60 71
-0.844881 0.676528 1.781000 90 60 77
-0.832072 0.669342 1.754000 91 61 76
-0.836342 0.675863 1.763000 92 59 75
-0.827803 0.672017 1.745000 93 59 75
-0.823533 0.671590 1.736000 93 62 75
-0.823533 0.674629 1.736000 94 62 76
-0.819738 0.674545 1.728000 91 63 77
-0.815469 0.674041 1.719000 89 66 71
-1.166936 0.700162 2.469000 101 70 83
-1.158428 0.699348 2.451000 102 72 84
-1.150394 0.698758 2.434000 104 74 80
-1.150394 0.703018 2.434000 100 74 77
-1.150394 0.707279 2.434000 97 74 75
-1.142359 0.706570 2.417000 98 72 74
-1.134324 0.705802 2.400000 99 71 72
-1.126762 0.705270 2.384000 96 67 71
-1.096513 0.698520 2.320000 86 60 68
-1.088951 0.697735 2.304000 90 64 81
-1.081861 0.697200 2.289000 95 71 83
-1.074772 0.696612 2.274000 96 75 85
-1.067683 0.695971 2.259000 97 77 83
-1.060593 0.695278 2.244000 96 72 81
-1.053976 0.694844 2.230000 96 71 79
-1.046887 0.694047 2.215000 95 67 78
-0.990170 0.693119 2.095000 89 68 79
-0.984026 0.692463 2.082000 87 68 78
-0.977882 0.691761 2.069000 94 66 77
-0.977882 0.695383 2.069000 101 65 77
-0.960867 0.686842 2.033000 95 68 77
-0.955195 0.686326 2.021000 90 72 75
-0.949524 0.685767 2.009000 86 70 74
-0.938653 0.681393 1.986000 83 66 72
-0.933454 0.681076 1.975000 89 67 70
-0.928255 0.680721 1.964000 96 65 73
-0.917385 0.676147 1.941000 93 65 77
-0.912658 0.676043 1.931000 90 64 72
-0.907459 0.675553 1.920000 93 61 68
-0.907459 0.678914 1.920000 95 60 70
-0.902260 0.678366 1.909000 98 62 72
-0.892335 0.674209 1.888000 102 62 70
-0.892335 0.677514 1.888000 97 64 69
-0.892335 0.680819 1.888000 93 64 73
-0.892335 0.684124 1.888000 94 60 78
-0.887609 0.683788 1.878000 95 59 77
-0.873430 0.676099 1.848000 95 62 76
-0.868703 0.675658 1.838000 96 64 76
-0.863977 0.675182 1.828000 93 63 77
-0.859723 0.675042 1.819000 90 61 77
-0.854997 0.674497 1.809000 88 58 78
-0.854997 0.677664 1.809000 87 58 68
-0.850743 0.677444 1.800000 88 59 58
-0.850743 0.680595 1.800000 90 60 67
-0.841763 0.676528 1.781000 88 62 77
-0.829002 0.669342 1.754000 86 63 77
-0.833256 0.675863 1.763000 89 60 77
-0.824748 0.672017 1.745000 92 59 76
-0.820494 0.671590 1.736000 94 61 76
-0.816713 0.671520 1.728000 96 63 76
-0.816713 0.674545 1.728000 92 62 76
-0.812460 0.674041 1.719000 89 65 75
-1.154138 0.695057 2.451000 98 74 85
-1.154138 0.699348 2.451000 99 74 86
-1.154138 0.703638 2.451000 101 74 82
-1.146133 0.703018 2.434000 98 76 78
-1.146133 0.707279 2.434000 95 74 77
-1.138128 0.706570 2.417000 95 71 76
-1.130123 0.705802 2.400000 95 73 75
-1.122589 0.705270 2.384000 93 72 73
-1.114584 0.704384 2.367000 91 64 67
-1.107050 0.703738 2.351000 86 58 61
-1.092452 0.698520 2.320000 82 61 71
-1.084918 0.697735 2.304000 88 65 82
-1.077855 0.697200 2.289000 94 71 85
-1.070792 0.696612 2.274000 96 77 88
-1.070792 0.700592 2.274000 98 73 84
-1.063728 0.699925 2.259000 97 69 81
-1.056665 0.699206 2.244000 97 67 76
-1.050073 0.698747 2.230000 97 66 72
-0.986503 0.689452 2.095000 92 70 79
-0.980382 0.688818 2.082000 88 67 80
-0.980382 0.692463 2.082000 84 66 75
-0.974260 0.691761 2.069000 95 67 69
-0.968610 0.691350 2.057000 106 68 73
-0.957308 0.686842 2.033000 99 70 77
-0.951658 0.686326 2.021000 92 71 75
-0.946007 0.685767 2.009000 90 76 73
-0.940356 0.685167 1.997000 88 72 68
-0.935177 0.684869 1.986000 89 73 63
-0.924817 0.680721 1.964000 91 70 69
-0.919167 0.679978 1.952000 90 69 75
-0.913987 0.679544 1.941000 89 66 73
-0.909278 0.679423 1.931000 94 63 72
-0.904098 0.678914 1.920000 99 63 75
-0.898919 0.678366 1.909000 106 65 79
-0.894210 0.678137 1.899000 113 65 76
-0.889030 0.677514 1.888000 104 70 72
-0.889030 0.680819 1.888000 95 64 75
-0.889030 0.684124 1.888000 95 60 77
-0.884321 0.683788 1.878000 96 62 77
-0.870195 0.676099 1.848000 97 68 77
-0.865486 0.675658 1.838000 98 66 77
-0.860777 0.675182 1.828000 95 62 77
-0.856539 0.675042 1.819000 92 59 79
-0.851830 0.674497 1.809000 90 56 81
-0.851830 0.677664 1.809000 88 58 78
-0.847592 0.677444 1.800000 89 59 75
-0.847592 0.680595 1.800000 91 62 77
-0.838645 0.676528 1.781000 86 66 79
-0.825931 0.669342 1.754000 82 62 78
-0.825931 0.672413 1.754000 86 62 78
-0.823577 0.673558 1.749000 91 60 76
-0.821694 0.675072 1.745000 95 60 74
-0.817456 0.674629 1.736000 99 60 76
-0.817456 0.677668 1.736000 94 60 78
-0.813689 0.677570 1.728000 89 64 76
-1.149848 0.699348 2.451000 99 73 89
-1.141872 0.698758 2.434000 99 74 84
-1.141872 0.703018 2.434000 94 76 80
-1.133897 0.702339 2.417000 90 77 79
-1.125922 0.701601 2.400000 91 75 79
-1.125922 0.705802 2.400000 93 78 77
-1.118415 0.705270 2.384000 91 71 76
-1.110440 0.704384 2.367000 90 63 72
-1.102934 0.703738 2.351000 88 61 68
-1.095428 0.703036 2.335000 86 62 75
-1.088391 0.702581 2.320000 91 67 83
-1.073848 0.697200 2.289000 95 73 87
-1.066811 0.696612 2.274000 99 71 92
-1.059774 0.695971 2.259000 102 70 86
-1.052737 0.695278 2.244000 98 68 81
-1.046169 0.694844 2.230000 95 63 74
-1.039132 0.694047 2.215000 96 65 67
-1.032564 0.693513 2.201000 97 68 71
-1.025996 0.692930 2.187000 96 69 76
-1.025996 0.696759 2.187000 96 71 75
-1.019897 0.696423 2.174000 101 66 75
-1.007231 0.691532 2.147000 106 65 77
-1.000663 0.690756 2.133000 103 69 79
-0.994564 0.690257 2.120000 100 73 78
-0.982836 0.689452 2.095000 93 67 80
-0.976737 0.688818 2.082000 90 66 82
-0.976737 0.692463 2.082000 88 65 72
-0.970638 0.691761 2.069000 94 69 62
-0.959379 0.687316 2.045000 101 72 69
-0.953749 0.686842 2.033000 97 69 77
-0.953749 0.690401 2.033000 92 67 75
-0.942490 0.685767 2.009000 90 71 73
-0.942490 0.689284 2.009000 87 74 65
-0.926540 0.681076 1.975000 89 74 57
-0.921379 0.680721 1.964000 91 73 65
-0.915750 0.679978 1.952000 90 71 73
-0.910589 0.679544 1.941000 90 70 74
-0.905898 0.679423 1.931000 94 66 76
-0.900737 0.678914 1.920000 98 64 81
-0.895577 0.678366 1.909000 101 64 87
-0.895577 0.681708 1.909000 104 64 81
-0.890886 0.681461 1.899000 96 65 76
-0.885725 0.680819 1.888000 89 65 76
-0.885725 0.684124 1.888000 91 62 77
-0.871651 0.676505 1.858000 94 63 77
-0.866960 0.676099 1.848000 94 68 78
-0.862268 0.675658 1.838000 94 72 77
-0.862268 0.678876 1.838000 91 65 77
-0.853355 0.675042 1.819000 89 60 80
-0.848663 0.674497 1.809000 87 60 84
-0.848663 0.677664 1.809000 85 60 88
-0.844441 0.677444 1.800000 92 60 93
-0.844441 0.680595 1.800000 99 63 87
-0.831305 0.673109 1.772000 93 59 81
-0.831305 0.676211 1.772000 87 57 80
-0.822861 0.672413 1.754000 89 59 80
-0.822861 0.675483 1.754000 92 61 76
-0.818639 0.675072 1.745000 94 58 72
-0.814417 0.674629 1.736000 97 57 76
-0.814417 0.677668 1.736000 92 61 81
-0.810664 0.677570 1.728000 88 64 77
-1.145557 0.699348 2.451000 99 72 86
-1.137612 0.698758 2.434000 97 75 83
-1.137612 0.703018 2.434000 91 77 79
-1.129666 0.702339 2.417000 85 75 80
-1.121721 0.701601 2.400000 88 77 81
-1.121721 0.705802 2.400000 92 75 80
-1.114242 0.705270 2.384000 90 73 78
-1.106297 0.704384 2.367000 89 64 74
-1.098819 0.703738 2.351000 90 63 70
-1.091341 0.703036 2.335000 91 65 75
-1.084330 0.702581 2.320000 94 69 81
-1.069841 0.697200 2.289000 97 69 82
-1.069841 0.701207 2.289000 102 64 83
-1.062830 0.700592 2.274000 107 68 81
-1.048809 0.695278 2.244000 100 70 79
-1.042265 0.694844 2.230000 93 66 75
-1.035255 0.694047 2.215000 95 64 71
-1.022168 0.689102 2.187000 98 66 75
-1.022168 0.692930 2.187000 95 66 79
-1.016092 0.692617 2.174000 93 68 77
-1.016092 0.696423 2.174000 97 63 76
-1.003473 0.691532 2.147000 101 66 77
-0.996929 0.690756 2.133000 101 69 79
-0.984777 0.686025 2.107000 102 71 79
-0.979169 0.685785 2.095000 98 72 79
-0.973093 0.685174 2.082000 94 70 79
-0.973093 0.688818 2.082000 93 66 79
-0.967017 0.688139 2.069000 92 69 74
-0.961408 0.687749 2.057000 94 72 69
-0.955799 0.687316 2.045000 97 71 77
-0.950191 0.686842 2.033000 95 67 85
-0.944582 0.686326 2.021000 93 66 81
-0.938974 0.685767 2.009000 90 69 77
-0.938974 0.689284 2.009000 87 72 73
-0.928224 0.684869 1.986000 89 76 68
-0.917941 0.680721 1.964000 91 73 74
-0.912333 0.679978 1.952000 91 72 80
-0.907192 0.679544 1.941000 92 69 79
-0.902518 0.679423 1.931000 94 67 78
-0.897376 0.678914 1.920000 97 63 80
-0.892235 0.678366 1.909000 96 63 82
-0.892235 0.681708 1.909000 95 63 78
-0.887561 0.681461 1.899000 89 61 73
-0.882420 0.680819 1.888000 83 63 75
-0.882420 0.684124 1.888000 87 62 78
-0.868399 0.676505 1.858000 92 66 78
-0.863725 0.676099 1.848000 91 72 78
-0.859051 0.675658 1.838000 90 72 76
-0.859051 0.678876 1.838000 88 67 74
-0.850171 0.675042 1.819000 87 64 76
-0.845497 0.674497 1.809000 84 64 78
-0.845497 0.677664 1.809000 82 62 82
-0.841290 0.677444 1.800000 94 58 86
-0.836617 0.676813 1.790000 107 57 84
-0.832410 0.676528 1.781000 100 52 82
-0.828204 0.676211 1.772000 93 55 82
-0.823997 0.675863 1.763000 93 58 82
-0.819791 0.675483 1.754000 93 58 79
-0.817454 0.676619 1.749000 94 55 76
-0.815584 0.678126 1.745000 95 57 79
-0.811378 0.677668 1.736000 91 64 83
-0.811378 0.680707 1.736000 87 64 75
-1.141267 0.699348 2.451000 98 74 84
-1.133351 0.698758 2.434000 100 78 81
-1.133351 0.703018 2.434000 98 75 79
-1.125435 0.702339 2.417000 97 72 81
-1.117519 0.701601 2.400000 95 73 84
-1.117519 0.705802 2.400000 93 72 82
-1.110069 0.705270 2.384000 86 66 81
-1.102153 0.704384 2.367000 80 57 76
-1.094703 0.703738 2.351000 87 62 72
-1.080269 0.698520 2.320000 93 68 76
-1.080269 0.702581 2.320000 95 70 80
-1.065834 0.697200 2.289000 97 72 77
-1.065834 0.701207 2.289000 100 69 74
-1.051865 0.695971 2.259000 103 68 76
-1.044881 0.695278 2.244000 99 68 78
-1.038362 0.694844 2.230000 95 69 77
-1.031377 0.694047 2.215000 96 67 76
-1.024858 0.693513 2.201000 97 68 79
-1.018340 0.692930 2.187000 93 69 82
-1.012286 0.692617 2.174000 90 73 79
-1.012286 0.696423 2.174000 94 69 77
-0.993195 0.687022 2.133000 99 67 78
-0.987142 0.686546 2.120000 101 69 79
-0.981089 0.686025 2.107000 103 72 79
-0.975501 0.685785 2.095000 102 73 80
-0.969448 0.685174 2.082000 101 75 78
-0.969448 0.688818 2.082000 98 71 76
-0.963395 0.688139 2.069000 94 73 76
-0.957807 0.687749 2.057000 96 73 76
-0.952220 0.687316 2.045000 97 75 85
-0.946632 0.686842 2.033000 95 68 94
-0.941044 0.686326 2.021000 93 64 88
-0.935457 0.685767 2.009000 92 68 82
-0.935457 0.689284 2.009000 91 72 81
-0.924747 0.684869 1.986000 94 73 80
-0.914503 0.680721 1.964000 97 74 83
-0.908916 0.679978 1.952000 95 69 87
-0.903794 0.679544 1.941000 94 67 83
-0.899137 0.679423 1.931000 95 62 80
-0.894015 0.678914 1.920000 97 58 79
-0.894015 0.682275 1.920000 96 63 78
-0.888894 0.681708 1.909000 95 67 74
-0.884237 0.681461 1.899000 90 64 71
-0.884237 0.684785 1.899000 85 64 75
-0.879115 0.684124 1.888000 88 65 79
-0.865146 0.676505 1.858000 91 69 78
-0.865146 0.679758 1.858000 90 73 78
-0.860490 0.679334 1.848000 89 77 74
-0.855834 0.678876 1.838000 89 70 71
-0.851177 0.678382 1.828000 89 67 71
-0.846987 0.678226 1.819000 88 65 72
-0.842330 0.677664 1.809000 87 67 75
-0.838140 0.677444 1.800000 93 60 79
-0.833483 0.676813 1.790000 99 55 81
-0.829293 0.676528 1.781000 96 55 83
-0.825102 0.676211 1.772000 93 56 83
-0.820911 0.675863 1.763000 94 60 84
-0.820911 0.678949 1.763000 94 59 82
-0.816720 0.678553 1.754000 95 55 80
-0.808339 0.674629 1.736000 96 53 83
-0.808339 0.677668 1.736000 96 61 86
-0.804614 0.677570 1.728000 95 68 72
-1.136976 0.699348 2.451000 98 75 84
-1.129090 0.698758 2.434000 103 74 79
-1.129090 0.703018 2.434000 106 75 75
-1.121204 0.702339 2.417000 109 72 79
-1.113318 0.701601 2.400000 101 71 83
-1.113318 0.705802 2.400000 94 70 83
-1.098010 0.700240 2.367000 83 65 82
-1.098010 0.704384 2.367000 72 60 74
-1.090588 0.703738 2.351000 84 60 66
-1.090588 0.707853 2.351000 96 66 73
-1.083166 0.707123 2.335000 97 72 80
-1.068785 0.701769 2.304000 98 73 79
-1.061827 0.701207 2.289000 99 75 78
-1.047911 0.695971 2.259000 100 70 80
-1.040952 0.695278 2.244000 99 68 83
-1.034458 0.694844 2.230000 98 68 75
-1.027500 0.694047 2.215000 97 68 68
-1.014511 0.689102 2.187000 96 69 73
-1.008481 0.688811 2.174000 91 71 79
-1.008481 0.692617 2.174000 87 72 75
-1.001986 0.691938 2.160000 92 73 72
-0.989461 0.687022 2.133000 98 71 77
-0.983431 0.686546 2.120000 101 71 83
-0.977400 0.686025 2.107000 105 72 82
-0.971834 0.685785 2.095000 107 73 82
-0.965803 0.685174 2.082000 109 72 79
-0.965803 0.688818 2.082000 103 71 77
-0.959773 0.688139 2.069000 97 73 76
-0.954206 0.687749 2.057000 97 74 75
-0.948640 0.687316 2.045000 98 72 76
-0.943073 0.686842 2.033000 96 69 78
-0.937507 0.686326 2.021000 94 67 78
-0.931940 0.685767 2.009000 94 68 79
-0.931940 0.689284 2.009000 95 70 80
-0.921271 0.684869 1.986000 99 71 82
-0.916168 0.684533 1.975000 104 69 83
-0.905499 0.679978 1.952000 100 66 84
-0.900396 0.679544 1.941000 96 64 82
-0.895757 0.679423 1.931000 96 59 80
-0.890654 0.678914 1.920000 97 61 79
-0.890654 0.682275 1.920000 96 65 78
-0.885552 0.681708 1.909000 95 65 73
-0.885552 0.685049 1.909000 91 65 68
-0.880913 0.684785 1.899000 88 64 77
-0.875810 0.684124 1.888000 89 67 87
-0.861894 0.676505 1.858000 91 70 83
-0.861894 0.679758 1.858000 89 74 79
-0.857255 0.679334 1.848000 88 74 74
-0.852616 0.678876 1.838000 90 71 70
-0.847977 0.678382 1.828000 92 67 68
-0.843802 0.678226 1.819000 92 65 66
-0.834988 0.674293 1.800000 92 65 74
-0.834988 0.677444 1.800000 91 62 82
-0.826175 0.673410 1.781000 91 60 82
-0.826175 0.676528 1.781000 92 60 81
-0.822000 0.676211 1.772000 94 62 81
-0.817825 0.675863 1.763000 95 69 81
-0.817825 0.678949 1.763000 96 61 80
-0.813650 0.678553 1.754000 97 56 79
-0.809475 0.678126 1.745000 98 56 81
-0.805300 0.677668 1.736000 101 59 84
-0.801589 0.677570 1.728000 104 63 76
-1.124829 0.694497 2.434000 101 73 84
-1.116973 0.693877 2.417000 103 70 77
-1.116973 0.698108 2.417000 104 72 71
-1.116973 0.702339 2.417000 105 72 77
-1.109117 0.701601 2.400000 101 70 83
-1.109117 0.705802 2.400000 97 72 83
-1.101723 0.705270 2.384000 89 66 84
-1.093867 0.704384 2.367000 82 60 72
-1.086473 0.703738 2.351000 89 63 61
-1.086473 0.707853 2.351000 97 66 71
-1.079078 0.707123 2.335000 98 70 81
-1.072146 0.706642 2.320000 100 73 81
-1.064752 0.705802 2.304000 102 71 82
-1.057820 0.705214 2.289000 105 70 85
-1.043956 0.699925 2.259000 102 68 88
-1.030554 0.694844 2.230000 100 70 74
-1.023623 0.694047 2.215000 98 68 61
-1.010683 0.689102 2.187000 96 69 68
-1.004675 0.688811 2.174000 92 72 76
-0.998205 0.688157 2.160000 89 73 71
-0.992198 0.687773 2.147000 94 72 67
-0.985728 0.687022 2.133000 100 74 77
-0.985728 0.690756 2.133000 101 72 87
-0.979720 0.690257 2.120000 102 73 86
-0.973712 0.689713 2.107000 103 71 85
-0.962159 0.685174 2.082000 104 70 81
-0.962159 0.688818 2.082000 100 72 78
-0.956151 0.688139 2.069000 97 74 76
-0.950606 0.687749 2.057000 99 73 75
-0.950606 0.691350 2.057000 100 72 68
-0.945060 0.690896 2.045000 98 69 62
-0.939514 0.690401 2.033000 95 68 69
-0.928423 0.685767 2.009000 96 68 77
-0.928423 0.689284 2.009000 96 69 80
-0.917794 0.684869 1.986000 98 69 84
-0.912711 0.684533 1.975000 101 67 82
-0.902082 0.679978 1.952000 98 66 81
-0.902082 0.683395 1.952000 96 67 80
-0.896998 0.682942 1.941000 95 64 80
-0.892377 0.682804 1.931000 95 64 79
-0.887294 0.682275 1.920000 96 64 78
-0.887294 0.685636 1.920000 98 65 71
-0.882210 0.685049 1.909000 94 65 65
-0.877589 0.684785 1.899000 91 63 80
-0.872505 0.684124 1.888000 91 68 95
-0.863263 0.680146 1.868000 92 70 87
-0.858641 0.679758 1.858000 91 71 80
-0.854020 0.679334 1.848000 90 75 74
-0.849399 0.678876 1.838000 91 70 69
-0.840618 0.675042 1.819000 93 67 64
-0.840618 0.678226 1.819000 93 67 60
-0.831838 0.674293 1.800000 93 69 73
-0.831838 0.677444 1.800000 88 64 86
-0.823057 0.673410 1.781000 84 63 83
-0.818898 0.673109 1.772000 89 63 80
-0.818898 0.676211 1.772000 94 63 79
-0.814739 0.675863 1.763000 95 64 79
-0.810580 0.675483 1.754000 96 63 78
-0.810580 0.678553 1.754000 96 59 78
-0.806420 0.678126 1.745000 96 56 80
-0.798564 0.674545 1.728000 97 59 82
-0.794405 0.674041 1.719000 99 65 80
-1.115044 0.695313 2.422000 104 74 79
-1.112742 0.698108 2.417000 103 74 74
-1.104916 0.697399 2.400000 102 72 79
-1.104916 0.701601 2.400000 101 68 84
-1.097549 0.701096 2.384000 100 69 84
-1.089723 0.700240 2.367000 96 68 85
-1.082357 0.699623 2.351000 92 64 77
-1.082357 0.703738 2.351000 95 68 70
-1.082357 0.707853 2.351000 99 69 79
-1.074991 0.707123 2.335000 100 72 89
-1.068085 0.706642 2.320000 102 71 85
-1.060719 0.705802 2.304000 106 68 82
-1.053813 0.705214 2.289000 110 69 83
-1.040002 0.699925 2.259000 106 67 83
-1.026651 0.694844 2.230000 102 69 77
-1.006854 0.685274 2.187000 99 68 70
-1.006854 0.689102 2.187000 96 71 74
-0.994424 0.684376 2.160000 94 77 77
-0.988439 0.684015 2.147000 92 73 74
-0.981994 0.683289 2.133000 97 69 71
-0.981994 0.687022 2.133000 102 71 77
-0.976009 0.686546 2.120000 101 73 84
-0.970024 0.686025 2.107000 100 72 84
-0.964499 0.685785 2.095000 99 71 84
-0.958514 0.685174 2.082000 99 70 82
-0.958514 0.688818 2.082000 98 73 81
-0.952529 0.688139 2.069000 98 72 79
-0.947005 0.687749 2.057000 100 72 78
-0.941480 0.687316 2.045000 103 71 73
-0.935956 0.686842 2.033000 100 70 69
-0.930431 0.686326 2.021000 97 68 74
-0.924906 0.685767 2.009000 97 68 80
-0.919842 0.685510 1.998000 98 68 82
-0.914318 0.684869 1.986000 98 69 84
-0.904189 0.680721 1.964000 98 69 82
-0.898665 0.679978 1.952000 97 67 81
-0.898665 0.683395 1.952000 96 68 79
-0.893601 0.682942 1.941000 94 69 77
-0.888997 0.682804 1.931000 93 66 78
-0.888997 0.686184 1.931000 97 65 79
-0.883932 0.685636 1.920000 102 65 75
-0.883932 0.688997 1.920000 98 68 70
-0.874264 0.684785 1.899000 94 68 78
-0.864597 0.680500 1.878000 94 72 87
-0.859993 0.680146 1.868000 94 70 83
-0.855389 0.679758 1.858000 93 68 79
-0.850785 0.679334 1.848000 93 70 76
-0.850785 0.682569 1.848000 93 68 73
-0.837434 0.675042 1.819000 94 67 70
-0.832830 0.674497 1.809000 94 68 68
-0.824083 0.670547 1.790000 94 66 76
-0.824083 0.673680 1.790000 86 65 83
-0.819939 0.673410 1.781000 78 65 81
-0.815796 0.673109 1.772000 86 68 79
-0.815796 0.676211 1.772000 95 64 78
-0.811653 0.675863 1.763000 95 62 78
-0.811653 0.678949 1.763000 96 63 80
-0.807509 0.678553 1.754000 95 62 83
-0.803366 0.678126 1.745000 94 59 82
-0.799222 0.677668 1.736000 94 58 81
-0.791396 0.674041 1.719000 95 62 81
-1.113556 0.697035 2.428000 109 77 81
-1.108511 0.698108 2.417000 105 75 78
-1.108511 0.702339 2.417000 102 74 82
-1.100714 0.701601 2.400000 100 71 86
-1.100714 0.705802 2.400000 97 71 86
-1.085580 0.700240 2.367000 94 65 86
-1.078242 0.699623 2.351000 91 60 83
-1.078242 0.703738 2.351000 95 66 80
-1.070904 0.703036 2.335000 98 71 88
-1.064024 0.702581 2.320000 100 71 97
-1.056686 0.701769 2.304000 102 73 90
-1.049806 0.701207 2.289000 105 72 83
-1.042927 0.700592 2.274000 108 74 81
-1.029168 0.695278 2.244000 105 71 79
-1.003026 0.681445 2.187000 102 73 79
-1.003026 0.685274 2.187000 99 71 80
-1.003026 0.689102 2.187000 97 73 79
-0.984681 0.680257 2.147000 95 74 79
-0.984681 0.684015 2.147000 94 76 77
-0.978260 0.683289 2.133000 102 72 76
-0.978260 0.687022 2.133000 110 71 78
-0.972298 0.686546 2.120000 105 73 81
-0.966336 0.686025 2.107000 101 73 82
-0.960832 0.685785 2.095000 99 71 83
-0.954870 0.685174 2.082000 97 69 83
-0.948908 0.684517 2.069000 95 71 84
-0.948908 0.688139 2.069000 94 71 82
-0.943404 0.687749 2.057000 97 70 81
-0.937900 0.687316 2.045000 101 73 79
-0.932397 0.686842 2.033000 99 71 77
-0.926893 0.686326 2.021000 98 69 80
-0.916345 0.682012 1.998000 98 66 83
-0.916345 0.685510 1.998000 98 67 83
-0.905796 0.681076 1.975000 98 68 84
-0.900751 0.680721 1.964000 98 73 82
-0.895248 0.679978 1.952000 97 70 81
-0.895248 0.683395 1.952000 96 72 77
-0.890203 0.682942 1.941000 95 70 74
-0.885617 0.682804 1.931000 94 68 77
-0.885617 0.686184 1.931000 97 66 81
-0.880572 0.685636 1.920000 99 62 78
-0.875527 0.685049 1.909000 97 66 76
-0.870940 0.684785 1.899000 95 72 77
-0.861309 0.680500 1.878000 95 72 79
-0.856723 0.680146 1.868000 96 70 78
-0.852136 0.679758 1.858000 97 70 78
-0.847550 0.679334 1.848000 98 72 77
-0.847550 0.682569 1.848000 97 68 77
-0.842964 0.682093 1.838000 95 68 77
-0.825536 0.671142 1.800000 97 68 77
-0.825536 0.674293 1.800000 99 64 79
-0.820950 0.673680 1.790000 92 65 81
-0.812694 0.670007 1.772000 85 67 79
-0.812694 0.673109 1.772000 92 66 78
-0.808567 0.672777 1.763000 100 66 77
-0.808567 0.675863 1.763000 98 65 77
-0.808567 0.678949 1.763000 96 67 83
-0.808567 0.682035 1.763000 93 63 89
-0.796183 0.674629 1.736000 90 62 85
-0.792514 0.674545 1.728000 92 59 81
-0.788387 0.674041 1.719000 93 60 83
-1.112047 0.698758 2.434000 114 75 78
-1.112047 0.703018 2.434000 108 75 77
-1.104280 0.702339 2.417000 103 75 79
-1.104280 0.706570 2.417000 99 74 82
-1.096513 0.705802 2.400000 95 70 82
-1.089203 0.705270 2.384000 93 63 82
-1.074126 0.699623 2.351000 91 59 76
-1.074126 0.703738 2.351000 94 65 71
-1.066816 0.703036 2.335000 98 70 81
-1.059963 0.702581 2.320000 100 69 90
-1.052653 0.701769 2.304000 103 72 85
-1.045800 0.701207 2.289000 105 75 81
-1.038947 0.700592 2.274000 107 73 78
-1.025240 0.695278 2.244000 105 72 76
-0.999198 0.681445 2.187000 103 72 78
-0.999198 0.685274 2.187000 100 73 81
-0.999198 0.689102 2.187000 98 71 80
-0.980923 0.680257 2.147000 97 70 79
-0.980923 0.684015 2.147000 97 72 78
-0.974526 0.683289 2.133000 107 74 78
-0.968587 0.682835 2.120000 118 72 75
-0.968587 0.686546 2.120000 110 76 72
-0.962647 0.686025 2.107000 102 74 77
-0.962647 0.689713 2.107000 98 73 83
-0.951225 0.685174 2.082000 95 71 85
-0.945286 0.684517 2.069000 92 71 87
-0.945286 0.688139 2.069000 90 70 84
-0.939803 0.687749 2.057000 94 67 82
-0.934321 0.687316 2.045000 99 71 77
-0.928838 0.686842 2.033000 99 74 73
-0.923356 0.686326 2.021000 100 68 78
-0.912847 0.682012 1.998000 99 63 84
-0.907365 0.681393 1.986000 98 64 84
-0.902339 0.681076 1.975000 98 65 84
-0.897313 0.680721 1.964000 99 69 84
-0.891831 0.679978 1.952000 97 71 83
-0.891831 0.683395 1.952000 96 70 80
-0.886805 0.682942 1.941000 96 72 76
-0.886805 0.686340 1.941000 96 70 77
-0.882236 0.686184 1.931000 96 71 79
-0.877211 0.685636 1.920000 97 66 78
-0.872185 0.685049 1.909000 97 65 77
-0.862591 0.680819 1.888000 97 70 79
-0.858022 0.680500 1.878000 97 75 81
-0.853453 0.680146 1.868000 98 72 78
-0.848884 0.679758 1.858000 101 71 75
-0.844315 0.679334 1.848000 104 69 71
-0.844315 0.682569 1.848000 100 65 67
-0.839746 0.682093 1.838000 97 67 73
-0.835178 0.681582 1.828000 101 74 79
-0.822385 0.674293 1.800000 105 68 83
-0.817816 0.673680 1.790000 99 67 87
-0.813704 0.673410 1.781000 93 65 83
-0.809592 0.673109 1.772000 99 65 79
-0.809592 0.676211 1.772000 105 66 77
-0.805480 0.675863 1.763000 101 67 75
-0.801368 0.675483 1.754000 97 66 73
-0.801368 0.678553 1.754000 92 64 72
-0.797257 0.678126 1.745000 87 61 74
-0.793145 0.677668 1.736000 89 59 76
-0.789490 0.677570 1.728000 92 59 80
-1.107786 0.698758 2.434000 109 73 75
-1.107786 0.703018 2.434000 105 76 76
-1.100049 0.702339 2.417000 102 78 77
-1.100049 0.706570 2.417000 98 75 79
-1.092312 0.705802 2.400000 95 75 78
-1.085030 0.705270 2.384000 90 63 78
-1.070011 0.699623 2.351000 86 51 70
-1.062729 0.698949 2.335000 91 60 63
-1.055902 0.698520 2.320000 97 76 73
-1.055902 0.702581 2.320000 100 74 84
-1.048620 0.701769 2.304000 103 73 81
-1.034966 0.696612 2.274000 104 75 79
-1.034966 0.700592 2.274000 106 74 76
-1.021312 0.695278 2.244000 104 72 74
-1.004927 0.687989 2.208000 103 71 78
-0.995369 0.685274 2.187000 100 70 82
-0.995369 0.689102 2.187000 98 70 81
-0.989453 0.688811 2.174000 96 69 80
-0.977164 0.684015 2.147000 94 68 80
-0.977164 0.687773 2.147000 102 70 80
-0.970792 0.687022 2.133000 111 68 71
-0.964876 0.686546 2.120000 106 72 63
-0.958959 0.686025 2.107000 101 74 73
-0.958959 0.689713 2.107000 98 73 83
-0.947581 0.685174 2.082000 96 73 86
-0.947581 0.688818 2.082000 95 72 90
-0.941664 0.688139 2.069000 94 74 87
-0.936203 0.687749 2.057000 97 71 84
-0.936203 0.691350 2.057000 101 70 76
-0.930741 0.690896 2.045000 100 71 69
-0.919818 0.686326 2.021000 99 69 77
-0.909350 0.682012 1.998000 96 66 86
-0.898882 0.677619 1.975000 93 64 85
-0.893875 0.677283 1.964000 96 66 85
-0.893875 0.680721 1.964000 99 67 85
-0.888414 0.679978 1.952000 98 67 86
-0.888414 0.683395 1.952000 97 66 82
-0.883407 0.682942 1.941000 96 67 79
-0.883407 0.686340 1.941000 96 69 78
-0.878856 0.686184 1.931000 95 68 77
-0.873850 0.685636 1.920000 95 67 78
-0.864292 0.681461 1.899000 96 68 79
-0.854734 0.677213 1.878000 96 71 81
-0.854734 0.680500 1.878000 96 71 84
-0.850183 0.680146 1.868000 96 72 78
-0.845632 0.679758 1.858000 97 71 72
-0.845632 0.683010 1.858000 98 68 64
-0.836529 0.678876 1.838000 97 66 57
-0.831978 0.678382 1.828000 96 64 69
-0.827882 0.678226 1.819000 98 67 81
-0.823330 0.677664 1.809000 100 67 87
-0.814683 0.673680 1.790000 96 66 93
-0.810587 0.673410 1.781000 93 62 86
-0.806490 0.673109 1.772000 97 64 80
-0.806490 0.676211 1.772000 101 67 76
-0.802394 0.675863 1.763000 98 66 73
-0.798298 0.675483 1.754000 96 67 64
-0.794202 0.675072 1.745000 93 64 55
-0.790106 0.674629 1.736000 91 59 63
-0.786465 0.674545 1.728000 95 59 72
-1.103526 0.694497 2.434000 105 78 77
-1.103526 0.698758 2.434000 105 76 77
-1.103526 0.703018 2.434000 103 78 77
-1.095818 0.702339 2.417000 101 77 78
-1.095818 0.706570 2.417000 98 76 79
-1.095818 0.710801 2.417000 96 73 78
-1.080857 0.705270 2.384000 88 66 78
-1.065895 0.699623 2.351000 81 56 75
-1.058641 0.698949 2.335000 89 50 71
-1.051841 0.698520 2.320000 97 71 81
-1.044587 0.697735 2.304000 100 81 91
-1.044587 0.701769 2.304000 103 77 86
-1.030985 0.696612 2.274000 104 78 80
-1.030985 0.700592 2.274000 105 75 78
-1.017384 0.695278 2.244000 104 73 76
-1.011036 0.694844 2.230000 103 71 80
-0.997888 0.689660 2.201000 101 69 84
-0.991541 0.689102 2.187000 99 69 83
-0.985647 0.688811 2.174000 95 69 82
-0.979300 0.688157 2.160000 92 69 82
-0.979300 0.691938 2.160000 98 70 83
-0.967059 0.687022 2.133000 104 71 81
-0.967059 0.690756 2.133000 102 73 78
-0.961165 0.690257 2.120000 100 73 80
-0.955271 0.689713 2.107000 99 74 83
-0.949830 0.689452 2.095000 98 74 84
-0.943936 0.688818 2.082000 98 71 85
-0.938042 0.688139 2.069000 98 73 83
-0.932602 0.687749 2.057000 100 73 82
-0.932602 0.691350 2.057000 103 72 79
-0.927161 0.690896 2.045000 101 72 76
-0.916280 0.686326 2.021000 99 70 83
-0.905852 0.682012 1.998000 94 69 91
-0.900412 0.681393 1.986000 89 68 85
-0.895425 0.681076 1.975000 94 69 80
-0.890437 0.680721 1.964000 100 68 85
-0.884997 0.679978 1.952000 99 67 90
-0.884997 0.683395 1.952000 98 66 85
-0.880010 0.682942 1.941000 97 64 80
-0.880010 0.686340 1.941000 96 65 80
-0.875476 0.686184 1.931000 95 67 80
-0.870489 0.685636 1.920000 94 68 79
-0.865502 0.685049 1.909000 95 72 78
-0.851447 0.677213 1.878000 96 70 74
-0.846913 0.676876 1.868000 95 68 70
-0.842379 0.676505 1.858000 94 73 70
-0.837845 0.676099 1.848000 93 75 69
-0.833312 0.675658 1.838000 92 71 67
-0.833312 0.678876 1.838000 93 69 64
-0.828778 0.678382 1.828000 95 66 71
-0.824697 0.678226 1.819000 95 66 79
-0.820164 0.677664 1.809000 96 68 83
-0.811549 0.673680 1.790000 94 68 88
-0.807469 0.673410 1.781000 93 64 82
-0.803389 0.673109 1.772000 95 62 76
-0.803389 0.676211 1.772000 97 65 75
-0.799308 0.675863 1.763000 96 64 74
-0.795228 0.675483 1.754000 96 66 69
-0.791147 0.675072 1.745000 95 67 64
-0.787067 0.674629 1.736000 95 63 69
-0.783440 0.674545 1.728000 101 65 75
-1.099265 0.698758 2.434000 104 77 79
-1.099265 0.703018 2.434000 105 77 78
-1.091587 0.702339 2.417000 106 79 78
-1.091587 0.706570 2.417000 102 76 79
-1.091587 0.710801 2.417000 98 76 79
-1.076684 0.705270 2.384000 92 65 79
-1.047779 0.690397 2.320000 87 58 79
-1.047779 0.694459 2.320000 93 63 80
-1.047779 0.698520 2.320000 99 78 89
-1.040553 0.697735 2.304000 104 79 99
-1.040553 0.701769 2.304000 108 78 90
-1.027004 0.696612 2.274000 106 77 82
-1.020230 0.695971 2.259000 105 77 80
-1.013456 0.695278 2.244000 104 74 79
-1.007133 0.694844 2.230000 104 74 82
-0.994036 0.689660 2.201000 104 69 86
-0.994036 0.693513 2.201000 105 69 85
-0.987713 0.692930 2.187000 96 71 84
-0.981841 0.692617 2.174000 87 72 85
-0.975519 0.691938 2.160000 96 72 87
-0.969648 0.691532 2.147000 106 73 90
-0.963325 0.690756 2.133000 103 71 94
-0.957454 0.690257 2.120000 101 71 88
-0.951582 0.689713 2.107000 101 74 83
-0.946163 0.689452 2.095000 102 78 81
-0.940292 0.688818 2.082000 101 74 80
-0.934420 0.688139 2.069000 100 74 80
-0.929001 0.687749 2.057000 105 71 80
-0.929001 0.691350 2.057000 110 73 81
-0.923581 0.690896 2.045000 105 72 83
-0.912742 0.686326 2.021000 100 72 89
-0.902355 0.682012 1.998000 97 71 96
-0.896935 0.681393 1.986000 94 71 86
-0.891967 0.681076 1.975000 101 69 76
-0.891967 0.684533 1.975000 107 71 85
-0.881580 0.679978 1.952000 103 69 94
-0.881580 0.683395 1.952000 99 68 88
-0.881580 0.686812 1.952000 101 65 82
-0.876612 0.686340 1.941000 103 63 83
