ply
format ascii 1.0
element vertex 1289
property float x
property float y
property float z
property uchar red
property uchar green
property uchar blue
end_header
-0.560608 -0.838896 2.304000 45 18 5
-0.560608 -0.834863 2.304000 45 17 8
-0.560608 -0.830829 2.304000 45 18 14
-0.560608 -0.826796 2.304000 44 21 20
-0.560608 -0.822763 2.304000 43 22 13
-0.560608 -0.818730 2.304000 43 26 6
-0.560608 -0.814697 2.304000 44 23 9
-0.560608 -0.810664 2.304000 45 22 13
-0.560608 -0.806630 2.304000 46 22 9
-0.560608 -0.802597 2.304000 44 26 5
-0.560608 -0.798564 2.304000 43 26 7
-0.560608 -0.794531 2.304000 43 26 10
-0.560608 -0.790498 2.304000 43 23 11
-0.560608 -0.786465 2.304000 45 23 13
-0.560608 -0.782432 2.304000 47 23 8
-0.560608 -0.778398 2.304000 47 23 4
-0.560608 -0.774365 2.304000 47 24 4
-0.560608 -0.770332 2.304000 46 26 4
-0.560608 -0.766299 2.304000 45 24 7
-0.560608 -0.762266 2.304000 50 26 11
-0.560608 -0.758233 2.304000 56 22 10
-0.560608 -0.754200 2.304000 53 23 8
-0.560608 -0.750166 2.304000 50 24 13
-0.560608 -0.746133 2.304000 50 22 17
-0.560608 -0.742100 2.304000 50 21 13
-0.564501 -0.743192 2.320000 49 25 8
-0.564501 -0.739131 2.320000 49 24 11
-0.560608 -0.730001 2.304000 49 26 13
-0.560608 -0.725967 2.304000 50 25 18
-0.560608 -0.721934 2.304000 49 23 23
-0.560608 -0.717901 2.304000 49 25 16
-0.564501 -0.718825 2.320000 51 27 10
-0.564501 -0.714764 2.320000 53 25 12
-0.560608 -0.705802 2.304000 53 24 14
-0.560608 -0.701769 2.304000 53 25 12
-0.560608 -0.697735 2.304000 51 26 11
-0.560608 -0.693702 2.304000 49 25 11
-0.560608 -0.689669 2.304000 49 28 11
-0.560608 -0.685636 2.304000 50 27 15
-0.560608 -0.681603 2.304000 49 29 18
-0.560608 -0.677570 2.304000 49 28 13
-0.560608 -0.673536 2.304000 50 30 7
-0.560608 -0.669503 2.304000 51 28 8
-0.560608 -0.665470 2.304000 52 33 9
-0.560608 -0.661437 2.304000 53 29 19
-0.560608 -0.657404 2.304000 53 26 30
-0.560608 -0.653371 2.304000 53 23 23
-0.560608 -0.649338 2.304000 47 26 17
-0.560608 -0.645304 2.304000 41 28 17
-0.560608 -0.641271 2.304000 46 30 17
-0.560608 -0.637238 2.304000 51 27 14
-0.560608 -0.633205 2.304000 52 24 11
-0.560608 -0.629172 2.304000 53 25 20
-0.560608 -0.625139 2.304000 57 28 30
-0.560608 -0.621105 2.304000 61 28 22
-0.564501 -0.621358 2.320000 57 29 14
-0.560608 -0.613039 2.304000 54 28 13
-0.560608 -0.609006 2.304000 55 30 12
-0.560608 -0.604973 2.304000 57 29 11
-0.560608 -0.600940 2.304000 53 27 11
-0.560608 -0.596907 2.304000 50 26 18
-0.560608 -0.592873 2.304000 48 26 25
-0.560608 -0.588840 2.304000 47 28 22
-0.560608 -0.584807 2.304000 48 31 19
-0.560608 -0.580774 2.304000 49 29 16
-0.560608 -0.576741 2.304000 50 29 14
-0.560608 -0.572708 2.304000 51 29 18
-0.560608 -0.568674 2.304000 51 29 23
-0.560608 -0.564641 2.304000 51 28 27
-0.560608 -0.560608 2.304000 51 29 31
-0.560608 -0.556575 2.304000 51 27 24
-0.560608 -0.552542 2.304000 52 28 18
-0.560608 -0.548509 2.304000 54 29 22
-0.560608 -0.544476 2.304000 54 30 26
-0.560608 -0.540442 2.304000 54 30 22
-0.560608 -0.536409 2.304000 54 30 19
-0.560608 -0.532376 2.304000 54 32 22
-0.560608 -0.528343 2.304000 56 33 24
-0.560608 -0.524310 2.304000 58 32 23
-0.560608 -0.520277 2.304000 56 32 21
-0.560608 -0.516243 2.304000 54 30 20
-0.560608 -0.512210 2.304000 54 31 19
-0.560608 -0.508177 2.304000 54 32 17
-0.560608 -0.504144 2.304000 54 32 15
-0.560608 -0.500111 2.304000 55 34 16
-0.560608 -0.496078 2.304000 58 36 17
-0.560608 -0.492045 2.304000 62 33 19
-0.560608 -0.488011 2.304000 58 31 20
-0.560608 -0.483978 2.304000 54 31 23
-0.560608 -0.479945 2.304000 54 30 27
-0.560608 -0.475912 2.304000 55 34 24
-0.560608 -0.471879 2.304000 53 36 21
-0.560608 -0.467846 2.304000 51 36 26
-0.560608 -0.463813 2.304000 52 37 32
-0.560608 -0.459779 2.304000 53 37 24
-0.560608 -0.455746 2.304000 53 38 16
-0.560608 -0.451713 2.304000 53 38 15
-0.560608 -0.447680 2.304000 55 39 13
-0.560608 -0.443647 2.304000 58 37 18
-0.560608 -0.439614 2.304000 57 35 22
-0.564501 -0.438605 2.320000 56 34 25
-0.560608 -0.431547 2.304000 59 35 29
-0.560608 -0.427514 2.304000 62 34 29
-0.560608 -0.423481 2.304000 59 35 29
-0.560608 -0.419448 2.304000 56 36 33
-0.560608 -0.415415 2.304000 57 35 37
-0.560608 -0.411382 2.304000 59 33 32
-0.560608 -0.407348 2.304000 61 30 28
-0.560608 -0.403315 2.304000 63 32 31
-0.560608 -0.399282 2.304000 60 32 35
-0.560608 -0.395249 2.304000 58 36 31
-0.560608 -0.391216 2.304000 58 39 26
-0.556958 -0.384662 2.289000 58 39 26
-0.556958 -0.380655 2.289000 58 39 26
-0.556958 -0.376648 2.289000 58 38 25
-0.556958 -0.372641 2.289000 58 38 24
-0.553309 -0.366219 2.274000 58 35 27
-0.553309 -0.362238 2.274000 59 34 30
-0.553309 -0.358257 2.274000 60 33 35
-0.553309 -0.354277 2.274000 60 36 40
-0.553309 -0.350296 2.274000 60 34 35
-0.556958 -0.348600 2.289000 59 32 30
-0.556958 -0.344593 2.289000 58 37 23
-0.556958 -0.340586 2.289000 56 40 15
-0.556958 -0.336579 2.289000 55 39 21
-0.556958 -0.332572 2.289000 55 39 28
-0.556958 -0.328565 2.289000 55 40 27
-0.556958 -0.324558 2.289000 56 41 26
-0.556958 -0.320552 2.289000 58 37 30
-0.556958 -0.316545 2.289000 56 39 34
-0.556958 -0.312538 2.289000 54 38 31
-0.556958 -0.308531 2.289000 54 39 29
-0.556958 -0.304524 2.289000 54 37 25
-0.556958 -0.300517 2.289000 55 34 22
-0.556958 -0.296510 2.289000 56 37 21
-0.560608 -0.294420 2.304000 56 40 20
-0.560608 -0.290387 2.304000 56 38 23
-0.560608 -0.286354 2.304000 60 36 26
-0.560608 -0.282321 2.304000 64 36 22
-0.560608 -0.278287 2.304000 61 36 17
-0.560608 -0.274254 2.304000 58 36 24
-0.560608 -0.270221 2.304000 54 36 32
-0.560608 -0.266188 2.304000 51 37 28
-0.560608 -0.262155 2.304000 53 38 25
-0.560608 -0.258122 2.304000 56 34 25
-0.560608 -0.254089 2.304000 57 31 25
-0.556958 -0.248427 2.289000 59 33 22
-0.556958 -0.244421 2.289000 63 36 18
-0.556958 -0.240414 2.289000 67 35 23
-0.556958 -0.236407 2.289000 64 34 28
-0.556958 -0.232400 2.289000 61 34 28
-0.556958 -0.228393 2.289000 62 36 27
-0.556958 -0.224386 2.289000 63 36 24
-0.556958 -0.220379 2.289000 60 36 21
-0.556958 -0.216372 2.289000 58 36 28
-0.556958 -0.212365 2.289000 57 34 35
-0.556958 -0.208358 2.289000 56 35 33
-0.556958 -0.204352 2.289000 53 36 31
-0.556958 -0.200345 2.289000 51 32 26
-0.553309 -0.195051 2.274000 52 29 21
-0.553309 -0.191071 2.274000 54 31 27
-0.553309 -0.187090 2.274000 52 31 33
-0.553309 -0.183109 2.274000 51 32 29
-0.553309 -0.179129 2.274000 52 32 26
-0.553309 -0.175148 2.274000 54 31 22
-0.553309 -0.171167 2.274000 54 31 18
-0.553309 -0.167187 2.274000 54 31 22
-0.553309 -0.163206 2.274000 53 29 26
-0.556958 -0.160276 2.289000 53 30 24
-0.553309 -0.155245 2.274000 53 30 22
-0.556958 -0.152262 2.289000 53 32 26
-0.556958 -0.148255 2.289000 50 35 30
-0.556958 -0.144248 2.289000 48 35 23
-0.556958 -0.140241 2.289000 49 37 17
-0.553309 -0.135342 2.274000 51 34 17
-0.553309 -0.131361 2.274000 51 34 17
-0.553309 -0.127380 2.274000 51 30 17
-0.553309 -0.123400 2.274000 50 28 17
-0.553309 -0.119419 2.274000 50 31 18
-0.549659 -0.114677 2.259000 50 33 19
-0.553309 -0.111458 2.274000 50 33 26
-0.553309 -0.107477 2.274000 50 30 32
-0.553309 -0.103497 2.274000 51 29 23
-0.553309 -0.099516 2.274000 52 29 15
-0.553309 -0.095535 2.274000 53 30 23
-0.556958 -0.092159 2.289000 53 28 31
-0.556958 -0.088152 2.289000 53 30 28
-0.556958 -0.084145 2.289000 56 33 25
-0.556958 -0.080138 2.289000 60 31 22
-0.556958 -0.076131 2.289000 57 32 20
-0.556958 -0.072124 2.289000 55 31 17
-0.556958 -0.068117 2.289000 58 31 15
-0.556958 -0.064110 2.289000 62 29 13
-0.553309 -0.059710 2.274000 57 29 12
-0.553309 -0.055729 2.274000 53 27 16
-0.549659 -0.051407 2.259000 54 26 20
-0.549659 -0.047453 2.259000 56 27 24
-0.549659 -0.043498 2.259000 51 31 27
-0.549659 -0.039544 2.259000 47 28 22
-0.553309 -0.035826 2.274000 52 26 17
-0.553309 -0.031845 2.274000 58 26 16
-0.553309 -0.027864 2.274000 54 26 15
-0.553309 -0.023884 2.274000 51 29 19
-0.553309 -0.019903 2.274000 47 30 23
-0.553309 -0.015922 2.274000 44 26 18
-0.553309 -0.011942 2.274000 47 23 14
-0.549659 -0.007909 2.259000 51 25 17
-0.549659 -0.003954 2.259000 46 27 21
-0.549659 -0.000000 2.259000 42 28 27
-0.549659 0.003954 2.259000 44 29 33
-0.549659 0.007909 2.259000 47 28 23
-0.549659 0.011863 2.259000 46 30 14
-0.549659 0.015818 2.259000 46 27 17
-0.549659 0.019772 2.259000 50 24 21
-0.549659 0.023726 2.259000 54 26 16
-0.549659 0.027681 2.259000 52 28 12
-0.549659 0.031635 2.259000 50 27 16
-0.549659 0.035589 2.259000 52 26 20
-0.549659 0.039544 2.259000 54 25 16
-0.549659 0.043498 2.259000 51 26 12
-0.549659 0.047453 2.259000 49 26 9
-0.549659 0.051407 2.259000 51 29 7
-0.549659 0.055361 2.259000 54 26 7
-0.549659 0.059316 2.259000 49 24 7
-0.549659 0.063270 2.259000 45 25 7
-0.549659 0.067225 2.259000 42 29 8
-0.549659 0.071179 2.259000 40 27 13
-0.549659 0.075133 2.259000 43 26 18
-0.549659 0.079088 2.259000 46 24 12
-0.553309 0.083593 2.274000 46 24 6
-0.553309 0.087574 2.274000 47 23 7
-0.553309 0.091555 2.274000 47 22 8
-0.549659 0.094905 2.259000 47 24 9
-0.549659 0.098860 2.259000 48 26 11
-0.549659 0.102814 2.259000 49 26 10
-0.549659 0.106768 2.259000 49 26 9
-0.553309 0.111458 2.274000 49 23 7
-0.549659 0.114677 2.259000 46 21 6
-0.549659 0.118631 2.259000 44 23 16
-0.549659 0.122586 2.259000 44 25 26
-0.549659 0.126540 2.259000 44 24 18
-0.549659 0.130495 2.259000 44 25 11
-0.549659 0.134449 2.259000 45 26 15
-0.549659 0.138403 2.259000 43 28 20
-0.549659 0.142358 2.259000 41 26 15
-0.549659 0.146312 2.259000 41 22 11
-0.549659 0.150267 2.259000 41 24 9
-0.549659 0.154221 2.259000 43 26 8
-0.549659 0.158175 2.259000 46 22 9
-0.549659 0.162130 2.259000 48 21 10
-0.549659 0.166084 2.259000 50 25 9
-0.549659 0.170038 2.259000 52 27 8
-0.549659 0.173993 2.259000 54 26 11
-0.553309 0.179129 2.274000 50 24 14
-0.553309 0.183109 2.274000 47 22 14
-0.553309 0.187090 2.274000 47 22 14
-0.553309 0.191071 2.274000 47 23 12
-0.549659 0.193765 2.259000 46 21 11
-0.553309 0.199032 2.274000 46 22 11
-0.553309 0.203013 2.274000 44 21 11
-0.549659 0.205628 2.259000 42 22 10
-0.549659 0.209582 2.259000 44 25 10
-0.549659 0.213537 2.259000 47 23 7
-0.549659 0.217491 2.259000 48 24 5
-0.549659 0.221445 2.259000 49 23 11
-0.549659 0.225400 2.259000 51 21 18
-0.549659 0.229354 2.259000 54 23 14
-0.549659 0.233308 2.259000 49 25 10
-0.549659 0.237263 2.259000 45 25 13
-0.549659 0.241217 2.259000 44 24 17
-0.549659 0.245172 2.259000 44 21 13
-0.549659 0.249126 2.259000 44 21 10
-0.549659 0.253080 2.259000 44 23 14
-0.549659 0.257035 2.259000 46 26 19
-0.549659 0.260989 2.259000 49 24 14
-0.549659 0.264943 2.259000 46 25 10
-0.553309 0.270683 2.274000 44 22 10
-0.553309 0.274664 2.274000 47 23 10
-0.553309 0.278645 2.274000 51 21 10
-0.553309 0.282625 2.274000 46 21 10
-0.553309 0.286606 2.274000 42 23 11
-0.556958 0.292503 2.289000 43 24 13
-0.556958 0.296510 2.289000 44 24 12
-0.556958 0.300517 2.289000 45 23 11
-0.556958 0.304524 2.289000 47 23 12
-0.553309 0.306509 2.274000 48 25 14
-0.556958 0.312538 2.289000 49 22 10
-0.553309 0.314470 2.274000 52 21 6
-0.553309 0.318451 2.274000 56 22 4
-0.553309 0.322432 2.274000 51 22 2
-0.553309 0.326412 2.274000 47 23 6
-0.553309 0.330393 2.274000 48 25 11
-0.553309 0.334374 2.274000 49 22 8
-0.549659 0.336122 2.259000 48 23 5
-0.549659 0.340077 2.259000 47 23 3
-0.549659 0.344031 2.259000 48 22 2
-0.549659 0.347986 2.259000 49 21 4
-0.549659 0.351940 2.259000 48 21 6
-0.549659 0.355894 2.259000 47 22 4
-0.549659 0.359849 2.259000 52 19 2
-0.549659 0.363803 2.259000 58 18 8
-0.549659 0.367757 2.259000 52 19 15
-0.549659 0.371712 2.259000 46 20 12
-0.549659 0.375666 2.259000 48 21 10
-0.553309 0.382141 2.274000 50 19 10
-0.553309 0.386122 2.274000 48 17 11
-0.553309 0.390103 2.274000 46 19 13
-0.553309 0.394083 2.274000 44 21 16
-0.553309 0.398064 2.274000 43 21 13
-0.553309 0.402044 2.274000 42 23 11
-0.553309 0.406025 2.274000 42 23 9
-0.553309 0.410006 2.274000 42 24 8
-0.553309 0.413986 2.274000 42 23 7
-0.553309 0.417967 2.274000 43 22 7
-0.553309 0.421948 2.274000 45 21 6
-0.553309 0.425928 2.274000 44 22 5
-0.553309 0.429909 2.274000 44 21 6
-0.553309 0.433890 2.274000 45 21 7
-0.549659 0.434982 2.259000 47 20 12
-0.549659 0.438936 2.259000 50 19 17
-0.549659 0.442891 2.259000 54 17 13
-0.549659 0.446845 2.259000 51 18 9
-0.549659 0.450799 2.259000 49 19 5
-0.549659 0.454754 2.259000 51 18 2
-0.549659 0.458708 2.259000 54 17 5
-0.549659 0.462663 2.259000 49 18 8
-0.549659 0.466617 2.259000 45 17 5
-0.549659 0.470571 2.259000 45 17 3
-0.549659 0.474526 2.259000 45 17 4
-0.549659 0.478480 2.259000 43 19 5
-0.549659 0.482434 2.259000 41 20 7
-0.549659 0.486389 2.259000 43 22 10
-0.549659 0.490343 2.259000 46 20 12
-0.549659 0.494298 2.259000 43 21 15
-0.549659 0.498252 2.259000 41 20 11
-0.549659 0.502206 2.259000 43 19 7
-0.549659 0.506161 2.259000 46 15 10
-0.549659 0.510115 2.259000 42 17 13
-0.549659 0.514069 2.259000 38 16 9
-0.549659 0.518024 2.259000 39 17 6
-0.549659 0.521978 2.259000 40 18 8
-0.549659 0.525933 2.259000 44 17 11
-0.549659 0.529887 2.259000 49 17 6
-0.549659 0.533841 2.259000 45 17 1
-0.549659 0.537796 2.259000 41 16 1
-0.549659 0.541750 2.259000 39 16 2
-0.553309 0.549328 2.274000 37 16 5
-0.549659 0.549659 2.259000 37 17 9
-0.549659 0.553613 2.259000 38 18 8
-0.553309 0.561270 2.274000 38 18 7
-0.549659 0.561522 2.259000 39 17 5
-0.553309 0.569231 2.274000 35 17 4
-0.553309 0.573212 2.274000 32 15 3
-0.549659 0.573385 2.259000 19 10 3
-0.553309 0.581173 2.274000 7 4 3
-0.553309 0.585154 2.274000 7 3 3
-0.556958 0.593021 2.289000 7 3 2
-0.556958 0.597027 2.289000 8 3 2
-0.556958 0.601034 2.289000 10 2 1
-0.560608 0.609006 2.304000 7 3 1
-0.560608 0.613039 2.304000 5 2 3
-0.560608 0.617072 2.304000 5 2 5
-0.560608 0.621106 2.304000 5 2 4
-0.560608 0.625139 2.304000 5 2 4
-0.560608 0.629172 2.304000 6 2 4
-0.560608 0.633205 2.304000 6 3 4
-0.553309 0.628941 2.274000 6 2 2
-0.553309 0.632921 2.274000 4 3 1
-0.549659 0.632701 2.259000 3 3 2
-0.549659 0.636655 2.259000 2 3 3
-0.553309 0.644863 2.274000 2 2 4
-0.553309 0.648844 2.274000 2 2 5
-0.553309 0.652825 2.274000 2 2 3
-0.556958 0.661138 2.289000 2 2 1
-0.556958 0.665145 2.289000 2 3 2
-0.556958 0.669152 2.289000 2 4 3
-0.556958 0.673158 2.289000 3 3 2
-0.556958 0.677165 2.289000 2 2 1
-0.556958 0.681172 2.289000 2 2 2
-0.556958 0.685179 2.289000 2 3 2
-0.549659 0.680153 2.259000 2 3 1
-0.546009 0.679565 2.244000 2 3 1
-0.542603 0.679229 2.230000 2 2 1
-0.538953 0.678538 2.215000 2 3 1
-0.474960 0.659477 1.952000 52 12 44
-0.474960 0.662893 1.952000 99 71 68
-0.472283 0.662556 1.941000 100 93 92
-0.472283 0.665953 1.941000 101 93 90
-0.469850 0.665903 1.931000 102 94 87
-0.467174 0.665470 1.920000 104 95 88
-0.462064 0.661516 1.899000 104 97 90
-0.459387 0.660989 1.888000 104 95 89
-0.456954 0.660775 1.878000 104 95 89
-0.454521 0.660527 1.868000 105 95 86
-0.454521 0.663797 1.868000 106 96 84
-0.454521 0.667067 1.868000 107 95 86
-0.452088 0.666748 1.858000 111 96 89
-0.449655 0.666394 1.848000 116 96 89
-0.444788 0.662382 1.828000 114 97 88
-0.442598 0.662305 1.819000 113 97 88
-0.442598 0.665489 1.819000 117 98 87
-0.437975 0.661689 1.800000 121 99 93
-0.437975 0.664840 1.800000 118 101 99
-0.435542 0.664280 1.790000 116 99 97
-0.428972 0.657346 1.763000 114 97 95
-0.426782 0.657061 1.754000 113 94 92
-0.426782 0.660131 1.754000 114 94 89
-0.424593 0.659799 1.745000 116 97 92
-0.422403 0.659435 1.736000 116 101 96
-0.420456 0.659420 1.728000 117 101 97
-0.418266 0.658995 1.719000 118 102 97
-0.416320 0.658923 1.711000 120 101 96
-0.414130 0.658437 1.702000 122 100 95
-0.412183 0.658307 1.694000 124 100 98
-0.545704 -0.873918 2.259000 27 18 11
-0.549328 -0.875740 2.274000 27 17 7
-0.552951 -0.877510 2.289000 18 13 4
-0.549328 -0.867779 2.274000 9 11 4
-0.552951 -0.869496 2.289000 13 8 5
-0.556575 -0.871161 2.304000 17 7 6
-0.556575 -0.867128 2.304000 21 8 7
-0.556575 -0.863095 2.304000 26 9 6
-0.556575 -0.859061 2.304000 31 10 5
-0.556575 -0.855028 2.304000 35 12 4
-0.560440 -0.856905 2.320000 41 13 4
-0.556575 -0.846962 2.304000 46 13 3
-0.556575 -0.842929 2.304000 45 16 3
-0.556575 -0.838896 2.304000 45 21 5
-0.556575 -0.834863 2.304000 47 18 8
-0.560440 -0.836599 2.320000 49 17 19
-0.560440 -0.832538 2.320000 45 20 31
-0.556575 -0.822763 2.304000 41 21 20
-0.560440 -0.824416 2.320000 43 22 9
-0.560440 -0.820354 2.320000 45 23 10
-0.560440 -0.816293 2.320000 46 20 12
-0.560440 -0.812232 2.320000 48 20 8
-0.560440 -0.808171 2.320000 45 23 5
-0.556575 -0.798564 2.304000 42 26 7
-0.556575 -0.794531 2.304000 43 23 10
-0.556575 -0.790498 2.304000 43 18 9
-0.556575 -0.786465 2.304000 45 21 8
-0.556575 -0.782432 2.304000 48 23 5
-0.556575 -0.778398 2.304000 47 23 3
-0.556575 -0.774365 2.304000 46 24 4
-0.556575 -0.770332 2.304000 45 23 5
-0.556575 -0.766299 2.304000 45 22 11
-0.556575 -0.762266 2.304000 47 22 17
-0.556575 -0.758233 2.304000 50 19 11
-0.560440 -0.759437 2.320000 48 22 5
-0.560440 -0.755376 2.320000 47 26 3
-0.560440 -0.751315 2.320000 48 22 1
-0.560440 -0.747254 2.320000 48 17 3
-0.556575 -0.738067 2.304000 50 20 6
-0.560440 -0.739131 2.320000 52 20 9
-0.560440 -0.735070 2.320000 52 23 13
-0.556575 -0.725967 2.304000 51 26 20
-0.556575 -0.721934 2.304000 50 24 28
-0.556575 -0.717901 2.304000 49 25 18
-0.560440 -0.718825 2.320000 50 25 9
-0.560440 -0.714764 2.320000 51 24 11
-0.560440 -0.710703 2.320000 52 24 14
-0.556575 -0.701769 2.304000 53 26 11
-0.560440 -0.702581 2.320000 53 26 9
-0.556575 -0.693702 2.304000 53 26 9
-0.560440 -0.694458 2.320000 50 26 9
-0.556575 -0.685636 2.304000 48 27 7
-0.556575 -0.681603 2.304000 49 27 5
-0.556575 -0.677570 2.304000 49 24 5
-0.556575 -0.673536 2.304000 49 26 5
-0.556575 -0.669503 2.304000 49 29 3
-0.556575 -0.665470 2.304000 50 30 1
-0.560440 -0.666030 2.320000 52 30 9
-0.556575 -0.657404 2.304000 52 24 18
-0.556575 -0.653371 2.304000 52 22 15
-0.556575 -0.649338 2.304000 48 25 13
-0.560440 -0.649786 2.320000 45 29 17
-0.560440 -0.645725 2.320000 50 27 21
-0.556575 -0.637238 2.304000 55 25 21
-0.556575 -0.633205 2.304000 54 24 21
-0.560440 -0.633541 2.320000 53 24 21
-0.556575 -0.625139 2.304000 54 25 21
-0.560440 -0.625419 2.320000 56 28 16
-0.560440 -0.621358 2.320000 55 27 12
-0.560440 -0.617296 2.320000 53 25 13
-0.560440 -0.613235 2.320000 55 27 15
-0.560440 -0.609174 2.320000 56 31 14
-0.560440 -0.605113 2.320000 53 28 13
-0.560440 -0.601052 2.320000 50 26 21
-0.560440 -0.596991 2.320000 49 26 29
-0.556575 -0.588840 2.304000 49 29 23
-0.556575 -0.584807 2.304000 52 30 17
-0.556575 -0.580774 2.304000 55 30 12
-0.556575 -0.576741 2.304000 53 30 7
-0.556575 -0.572708 2.304000 52 29 11
-0.556575 -0.568674 2.304000 53 29 16
-0.556575 -0.564641 2.304000 53 27 20
-0.556575 -0.560608 2.304000 54 28 24
-0.556575 -0.556575 2.304000 55 26 23
-0.556575 -0.552542 2.304000 55 27 22
-0.560440 -0.552318 2.320000 55 28 24
-0.556575 -0.544476 2.304000 57 29 26
-0.560440 -0.544195 2.320000 59 30 23
-0.556575 -0.536409 2.304000 57 31 20
-0.556575 -0.532376 2.304000 55 35 25
-0.556575 -0.528343 2.304000 55 34 30
-0.556575 -0.524310 2.304000 56 32 25
-0.556575 -0.520277 2.304000 55 32 21
-0.556575 -0.516243 2.304000 54 32 17
-0.556575 -0.512210 2.304000 54 32 14
-0.556575 -0.508177 2.304000 54 34 13
-0.556575 -0.504144 2.304000 54 32 12
-0.556575 -0.500111 2.304000 54 34 13
-0.556575 -0.496078 2.304000 56 33 14
-0.556575 -0.492045 2.304000 59 32 17
-0.556575 -0.488011 2.304000 55 31 21
-0.556575 -0.483978 2.304000 52 33 27
-0.556575 -0.479945 2.304000 53 32 33
-0.556575 -0.475912 2.304000 55 33 27
-0.556575 -0.471879 2.304000 54 35 21
-0.556575 -0.467846 2.304000 53 36 24
-0.556575 -0.463813 2.304000 54 35 27
-0.556575 -0.459779 2.304000 54 36 21
-0.556575 -0.455746 2.304000 54 36 16
-0.556575 -0.451713 2.304000 54 36 13
-0.556575 -0.447680 2.304000 56 37 10
-0.556575 -0.443647 2.304000 58 40 16
-0.560440 -0.442667 2.320000 55 36 23
-0.560440 -0.438605 2.320000 53 34 26
-0.556575 -0.431547 2.304000 56 34 29
-0.556575 -0.427514 2.304000 60 32 29
-0.556575 -0.423481 2.304000 58 35 30
-0.556575 -0.419448 2.304000 57 37 37
-0.556575 -0.415415 2.304000 58 38 44
-0.556575 -0.411382 2.304000 59 37 40
-0.556575 -0.407348 2.304000 60 32 36
-0.556575 -0.403315 2.304000 61 32 40
-0.556575 -0.399282 2.304000 60 34 45
-0.556575 -0.395249 2.304000 58 37 36
-0.556575 -0.391216 2.304000 58 38 27
-0.552951 -0.384662 2.289000 58 39 26
-0.552951 -0.380655 2.289000 58 39 26
-0.552951 -0.376648 2.289000 58 39 26
-0.552951 -0.372641 2.289000 58 38 26
-0.549328 -0.366219 2.274000 58 37 29
-0.549328 -0.362238 2.274000 60 34 32
-0.549328 -0.358257 2.274000 62 34 38
-0.549328 -0.354277 2.274000 61 35 45
-0.549328 -0.350296 2.274000 59 36 38
-0.552951 -0.348600 2.289000 58 36 31
-0.552951 -0.344593 2.289000 58 38 20
-0.552951 -0.340586 2.289000 57 37 10
-0.556575 -0.338785 2.304000 57 39 18
-0.552951 -0.332572 2.289000 57 39 26
-0.556575 -0.330718 2.304000 56 41 28
-0.556575 -0.326685 2.304000 57 37 30
-0.552951 -0.320552 2.289000 58 36 36
-0.552951 -0.316545 2.289000 56 37 42
-0.552951 -0.312538 2.289000 55 36 37
-0.552951 -0.308531 2.289000 54 38 32
-0.552951 -0.304524 2.289000 54 41 20
-0.552951 -0.300517 2.289000 56 38 9
-0.552951 -0.296510 2.289000 59 41 14
-0.556575 -0.294420 2.304000 58 39 20
-0.556575 -0.290387 2.304000 57 38 21
-0.556575 -0.286354 2.304000 59 37 23
-0.556575 -0.282321 2.304000 61 39 16
-0.556575 -0.278287 2.304000 60 37 9
-0.556575 -0.274254 2.304000 60 36 16
-0.556575 -0.270221 2.304000 58 36 23
-0.556575 -0.266188 2.304000 57 36 22
-0.556575 -0.262155 2.304000 56 37 21
-0.556575 -0.258122 2.304000 56 35 21
-0.556575 -0.254089 2.304000 56 32 21
-0.556575 -0.250055 2.304000 57 32 16
-0.556575 -0.246022 2.304000 59 35 11
-0.556575 -0.241989 2.304000 61 36 16
-0.556575 -0.237956 2.304000 59 33 22
-0.552951 -0.232400 2.289000 57 32 25
-0.556575 -0.229890 2.304000 59 34 29
-0.552951 -0.224386 2.289000 60 38 23
-0.552951 -0.220379 2.289000 58 37 18
-0.552951 -0.216372 2.289000 55 38 22
-0.552951 -0.212365 2.289000 55 34 27
-0.552951 -0.208358 2.289000 55 35 30
-0.552951 -0.204352 2.289000 54 33 34
-0.552951 -0.200345 2.289000 53 32 25
-0.552951 -0.196338 2.289000 54 30 17
-0.552951 -0.192331 2.289000 54 31 29
-0.549328 -0.187090 2.274000 52 32 41
-0.552951 -0.184317 2.289000 51 34 34
-0.549328 -0.179129 2.274000 51 33 27
-0.552951 -0.176303 2.289000 52 34 26
-0.549328 -0.171167 2.274000 52 32 26
-0.549328 -0.167187 2.274000 52 34 28
-0.549328 -0.163206 2.274000 52 30 31
-0.552951 -0.160276 2.289000 53 30 25
-0.549328 -0.155245 2.274000 53 30 20
-0.552951 -0.152262 2.289000 53 30 29
-0.552951 -0.148255 2.289000 51 32 39
-0.552951 -0.144248 2.289000 48 33 32
-0.549328 -0.139322 2.274000 48 34 26
-0.549328 -0.135342 2.274000 47 34 22
-0.549328 -0.131361 2.274000 48 33 18
-0.549328 -0.127380 2.274000 50 31 21
-0.549328 -0.123400 2.274000 50 31 24
-0.549328 -0.119419 2.274000 50 34 22
-0.545704 -0.114677 2.259000 50 33 20
-0.545704 -0.110723 2.259000 50 34 22
-0.549328 -0.107477 2.274000 51 30 24
-0.549328 -0.103497 2.274000 53 29 18
-0.549328 -0.099516 2.274000 53 29 12
-0.549328 -0.095535 2.274000 53 30 25
-0.549328 -0.091555 2.274000 52 28 39
-0.552951 -0.088152 2.289000 52 29 34
-0.552951 -0.084145 2.289000 54 30 29
-0.552951 -0.080138 2.289000 56 31 19
-0.552951 -0.076131 2.289000 54 31 9
-0.552951 -0.072124 2.289000 52 31 13
-0.552951 -0.068117 2.289000 54 30 18
-0.552951 -0.064110 2.289000 57 30 14
-0.549328 -0.059710 2.274000 54 28 10
-0.549328 -0.055729 2.274000 51 28 15
-0.545704 -0.051407 2.259000 51 25 20
-0.545704 -0.047453 2.259000 52 25 20
-0.545704 -0.043498 2.259000 49 27 21
-0.545704 -0.039544 2.259000 47 27 17
-0.549328 -0.035826 2.274000 50 27 14
-0.549328 -0.031845 2.274000 54 28 14
-0.552951 -0.028048 2.289000 52 27 15
-0.552951 -0.024041 2.289000 51 29 15
-0.552951 -0.020034 2.289000 48 27 16
-0.549328 -0.015922 2.274000 46 26 15
-0.549328 -0.011942 2.274000 48 26 14
-0.545704 -0.007909 2.259000 51 26 17
-0.545704 -0.003954 2.259000 48 26 21
-0.545704 -0.000000 2.259000 46 27 21
-0.545704 0.003954 2.259000 47 27 22
-0.545704 0.007909 2.259000 49 26 21
-0.545704 0.011863 2.259000 48 26 21
-0.545704 0.015818 2.259000 48 26 20
-0.545704 0.019772 2.259000 50 25 20
-0.549328 0.023884 2.274000 52 24 17
-0.545704 0.027681 2.259000 50 26 14
-0.545704 0.031635 2.259000 48 26 13
-0.549328 0.035826 2.274000 50 26 13
-0.545704 0.039544 2.259000 52 26 12
-0.545704 0.043498 2.259000 50 25 12
-0.545704 0.047453 2.259000 48 23 8
-0.545704 0.051407 2.259000 50 25 5
-0.545704 0.055361 2.259000 52 24 3
-0.549328 0.059710 2.274000 49 24 2
-0.545704 0.063270 2.259000 47 23 4
-0.549328 0.067671 2.274000 47 25 7
-0.549328 0.071652 2.274000 47 26 8
-0.549328 0.075632 2.274000 47 24 10
-0.549328 0.079613 2.274000 48 23 6
-0.549328 0.083593 2.274000 47 23 2
-0.549328 0.087574 2.274000 47 23 3
-0.549328 0.091555 2.274000 47 23 5
-0.545704 0.094905 2.259000 47 24 3
-0.545704 0.098860 2.259000 47 25 1
-0.545704 0.102814 2.259000 48 26 3
-0.545704 0.106768 2.259000 47 24 5
-0.549328 0.111458 2.274000 47 22 3
-0.549328 0.115439 2.274000 46 21 1
-0.545704 0.118631 2.259000 45 24 6
-0.545704 0.122586 2.259000 45 24 11
-0.545704 0.126540 2.259000 45 24 11
-0.545704 0.130495 2.259000 46 24 11
-0.545704 0.134449 2.259000 47 24 19
-0.545704 0.138403 2.259000 45 25 27
-0.545704 0.142358 2.259000 43 26 21
-0.545704 0.146312 2.259000 42 24 16
-0.545704 0.150267 2.259000 42 23 11
-0.545704 0.154221 2.259000 44 24 6
-0.545704 0.158175 2.259000 46 23 8
-0.545704 0.162130 2.259000 47 23 11
-0.545704 0.166084 2.259000 48 26 9
-0.545704 0.170038 2.259000 49 25 8
-0.549328 0.175148 2.274000 50 26 9
-0.549328 0.179129 2.274000 48 23 11
-0.549328 0.183109 2.274000 47 21 14
-0.549328 0.187090 2.274000 46 22 17
-0.549328 0.191071 2.274000 45 24 17
-0.549328 0.195051 2.274000 45 22 17
-0.549328 0.199032 2.274000 45 22 15
-0.549328 0.203013 2.274000 44 20 14
-0.549328 0.206993 2.274000 43 20 12
-0.549328 0.210974 2.274000 46 21 10
-0.549328 0.214954 2.274000 48 21 8
-0.549328 0.218935 2.274000 48 23 7
-0.556575 0.225857 2.304000 49 25 16
-0.545704 0.225400 2.259000 49 22 26
-0.545704 0.229354 2.259000 50 21 18
-0.545704 0.233308 2.259000 47 24 11
-0.545704 0.237263 2.259000 44 27 18
-0.545704 0.241217 2.259000 44 23 25
-0.545704 0.245172 2.259000 45 20 17
-0.545704 0.249126 2.259000 45 21 10
-0.545704 0.253080 2.259000 45 23 15
-0.545704 0.257035 2.259000 46 22 21
-0.545704 0.260989 2.259000 48 22 15
-0.545704 0.264943 2.259000 46 21 10
-0.549328 0.270683 2.274000 44 20 10
-0.549328 0.274664 2.274000 46 21 10
-0.549328 0.278645 2.274000 48 20 10
-0.552951 0.284490 2.289000 45 21 10
-0.552951 0.288496 2.289000 42 24 5
-0.552951 0.292503 2.289000 43 22 1
-0.552951 0.296510 2.289000 45 21 3
-0.552951 0.300517 2.289000 44 24 6
-0.552951 0.304524 2.289000 43 26 6
-0.552951 0.308531 2.289000 45 24 6
-0.552951 0.312538 2.289000 48 24 4
-0.549328 0.314470 2.274000 49 24 3
-0.549328 0.318451 2.274000 50 27 2
-0.549328 0.322432 2.274000 46 25 1
-0.549328 0.326412 2.274000 42 26 3
-0.549328 0.330393 2.274000 44 23 5
-0.549328 0.334374 2.274000 47 21 4
-0.549328 0.338354 2.274000 46 21 4
-0.549328 0.342335 2.274000 46 24 3
-0.549328 0.346316 2.274000 46 22 2
-0.545704 0.347986 2.259000 47 21 3
-0.545704 0.351940 2.259000 46 22 4
-0.545704 0.355894 2.259000 46 28 2
-0.545704 0.359849 2.259000 49 20 1
-0.545704 0.363803 2.259000 51 16 11
-0.549328 0.370199 2.274000 48 19 21
-0.549328 0.374180 2.274000 46 21 15
-0.549328 0.378161 2.274000 47 21 10
-0.549328 0.382141 2.274000 48 22 9
-0.549328 0.386122 2.274000 46 20 9
-0.549328 0.390103 2.274000 45 21 9
-0.549328 0.394083 2.274000 44 21 10
-0.549328 0.398064 2.274000 44 21 9
-0.549328 0.402044 2.274000 43 21 8
-0.549328 0.406025 2.274000 43 22 8
-0.549328 0.410006 2.274000 43 21 8
-0.549328 0.413986 2.274000 43 22 8
-0.549328 0.417967 2.274000 45 21 9
-0.552951 0.424731 2.289000 47 21 7
-0.552951 0.428738 2.289000 46 22 5
-0.549328 0.429909 2.274000 45 23 5
-0.549328 0.433890 2.274000 46 21 5
-0.549328 0.437870 2.274000 46 21 9
-0.549328 0.441851 2.274000 49 18 13
-0.545704 0.442891 2.259000 51 16 10
-0.545704 0.446845 2.259000 49 19 8
-0.545704 0.450799 2.259000 47 21 4
-0.545704 0.454754 2.259000 49 18 1
-0.545704 0.458708 2.259000 50 17 3
-0.545704 0.462663 2.259000 47 16 5
-0.545704 0.466617 2.259000 45 16 4
-0.545704 0.470571 2.259000 44 16 4
-0.545704 0.474526 2.259000 44 17 4
-0.545704 0.478480 2.259000 41 16 5
-0.545704 0.482434 2.259000 39 16 8
-0.545704 0.486389 2.259000 41 18 11
-0.545704 0.490343 2.259000 44 17 9
-0.545704 0.494298 2.259000 42 19 7
-0.545704 0.498252 2.259000 40 21 5
-0.545704 0.502206 2.259000 42 18 3
-0.545704 0.506161 2.259000 44 14 2
-0.545704 0.510115 2.259000 40 15 1
-0.545704 0.514069 2.259000 37 15 1
-0.545704 0.518024 2.259000 38 17 2
-0.545704 0.521978 2.259000 39 19 4
-0.545704 0.525933 2.259000 42 19 6
-0.545704 0.529887 2.259000 45 17 4
-0.545704 0.533841 2.259000 41 16 2
-0.545704 0.537796 2.259000 38 17 2
-0.545704 0.541750 2.259000 38 17 2
-0.549328 0.549328 2.274000 38 17 4
-0.549328 0.553309 2.274000 39 17 6
-0.549328 0.557289 2.274000 40 18 5
-0.549328 0.561270 2.274000 42 16 5
-0.549328 0.565251 2.274000 44 17 4
-0.549328 0.569231 2.274000 37 14 4
-0.549328 0.573212 2.274000 30 15 3
-0.549328 0.577192 2.274000 18 8 3
-0.549328 0.581173 2.274000 7 3 4
-0.549328 0.585154 2.274000 6 2 6
-0.552951 0.593021 2.289000 6 3 4
-0.552951 0.597027 2.289000 6 2 3
-0.552951 0.601034 2.289000 7 2 2
-0.556575 0.609006 2.304000 6 2 1
-0.556575 0.613039 2.304000 5 3 2
-0.556575 0.617072 2.304000 5 2 3
-0.556575 0.621106 2.304000 5 3 2
-0.556575 0.625139 2.304000 5 1 2
-0.556575 0.629172 2.304000 5 1 1
-0.556575 0.633205 2.304000 5 2 1
-0.552951 0.633089 2.289000 5 3 1
-0.549328 0.632921 2.274000 4 3 1
-0.549328 0.636902 2.274000 3 4 2
-0.549328 0.640883 2.274000 3 2 3
-0.552951 0.649117 2.289000 3 2 3
-0.552951 0.653124 2.289000 2 2 3
-0.552951 0.657131 2.289000 2 2 2
-0.556575 0.665470 2.304000 2 2 1
-0.556575 0.669503 2.304000 2 3 2
-0.556575 0.673537 2.304000 2 3 4
-0.556575 0.677570 2.304000 2 3 3
-0.556575 0.681603 2.304000 2 2 2
-0.556575 0.685636 2.304000 2 2 2
-0.552951 0.685179 2.289000 2 2 2
-0.545704 0.680153 2.259000 2 3 1
-0.542081 0.679565 2.244000 2 2 1
-0.538699 0.679229 2.230000 2 2 1
-0.531693 0.674249 2.201000 2 2 1
-0.471543 0.659477 1.952000 59 45 67
-0.471543 0.662893 1.952000 104 99 78
-0.468885 0.662556 1.941000 103 95 90
-0.468885 0.665953 1.941000 102 91 89
-0.466470 0.665903 1.931000 103 93 89
-0.461155 0.661658 1.909000 104 95 90
-0.458740 0.661516 1.899000 105 95 92
-0.456082 0.660989 1.888000 106 95 89
-0.453667 0.660775 1.878000 105 94 86
-0.451251 0.660527 1.868000 105 94 82
-0.451251 0.663797 1.868000 106 95 78
-0.451251 0.667067 1.868000 107 97 83
-0.448835 0.666748 1.858000 110 96 88
-0.446420 0.666394 1.848000 113 96 86
-0.441588 0.662382 1.828000 112 97 84
-0.441588 0.665582 1.828000 111 99 81
-0.439414 0.665489 1.819000 114 99 78
-0.436998 0.664998 1.809000 117 99 84
-0.436998 0.668164 1.809000 116 100 91
-0.432409 0.664280 1.790000 115 100 95
-0.425886 0.657346 1.763000 115 97 99
-0.423712 0.657061 1.754000 114 95 97
-0.423712 0.660131 1.754000 116 95 95
-0.421538 0.659799 1.745000 118 98 96
-0.421538 0.662853 1.745000 117 99 97
-0.417431 0.659420 1.728000 115 102 98
-0.415257 0.658995 1.719000 117 101 100
-0.413325 0.658923 1.711000 118 101 99
-0.411150 0.658437 1.702000 118 99 98
-0.409218 0.658307 1.694000 118 98 98
-0.541750 -0.873918 2.259000 31 32 18
-0.541750 -0.869964 2.259000 30 25 12
-0.541750 -0.866009 2.259000 17 19 7
-0.545347 -0.867779 2.274000 5 16 7
-0.552542 -0.875194 2.304000 9 10 6
-0.552542 -0.871161 2.304000 14 8 6
-0.552542 -0.867128 2.304000 20 8 6
-0.552542 -0.863095 2.304000 26 8 5
-0.552542 -0.859061 2.304000 29 10 5
-0.556379 -0.860966 2.320000 32 11 4
-0.556379 -0.856905 2.320000 37 14 3
-0.556379 -0.852844 2.320000 42 14 3
-0.556379 -0.848783 2.320000 43 15 3
-0.556379 -0.844721 2.320000 45 17 6
-0.556379 -0.840660 2.320000 49 17 9
-0.556379 -0.836599 2.320000 54 17 15
-0.556379 -0.832538 2.320000 47 21 22
-0.556379 -0.828477 2.320000 40 21 13
-0.556379 -0.824416 2.320000 43 20 5
-0.556379 -0.820354 2.320000 46 20 11
-0.556379 -0.816293 2.320000 48 17 16
-0.556379 -0.812232 2.320000 50 19 13
-0.556379 -0.808171 2.320000 46 22 9
-0.556379 -0.804110 2.320000 42 23 10
-0.552542 -0.794531 2.304000 43 23 12
-0.552542 -0.790498 2.304000 44 20 10
-0.552542 -0.786465 2.304000 46 20 8
-0.552542 -0.782432 2.304000 49 20 6
-0.552542 -0.778398 2.304000 47 22 4
-0.552542 -0.774365 2.304000 45 22 5
-0.552542 -0.770332 2.304000 45 23 7
-0.552542 -0.766299 2.304000 46 22 11
-0.552542 -0.762266 2.304000 45 21 14
-0.552542 -0.758233 2.304000 44 21 11
-0.556379 -0.759437 2.320000 44 23 9
-0.556379 -0.755376 2.320000 45 24 7
-0.556379 -0.751315 2.320000 46 23 6
-0.556379 -0.747254 2.320000 47 20 7
-0.552542 -0.738067 2.304000 51 21 9
-0.556379 -0.739131 2.320000 56 21 11
-0.556379 -0.735070 2.320000 54 23 13
-0.556379 -0.731009 2.320000 53 24 17
-0.552542 -0.721934 2.304000 51 25 22
-0.552542 -0.717901 2.304000 49 24 16
-0.552542 -0.713868 2.304000 49 25 11
-0.556379 -0.714764 2.320000 49 24 12
-0.556379 -0.710703 2.320000 51 23 13
-0.556379 -0.706642 2.320000 53 25 11
-0.556379 -0.702581 2.320000 55 26 9
-0.556379 -0.698520 2.320000 57 25 8
-0.556379 -0.694458 2.320000 52 23 8
-0.556379 -0.690397 2.320000 47 25 6
-0.556379 -0.686336 2.320000 48 28 5
-0.556379 -0.682275 2.320000 50 26 7
-0.552542 -0.673536 2.304000 48 24 9
-0.552542 -0.669503 2.304000 47 27 7
-0.552542 -0.665470 2.304000 49 29 6
-0.556379 -0.666030 2.320000 51 27 10
-0.556379 -0.661969 2.320000 51 21 14
-0.556379 -0.657908 2.320000 51 24 12
-0.552542 -0.649338 2.304000 50 26 11
-0.556379 -0.649786 2.320000 50 26 16
-0.556379 -0.645725 2.320000 55 26 21
-0.556379 -0.641663 2.320000 60 25 21
-0.556379 -0.637602 2.320000 56 24 21
-0.556379 -0.633541 2.320000 53 23 21
-0.556379 -0.629480 2.320000 52 23 21
-0.556379 -0.625419 2.320000 52 25 17
-0.556379 -0.621358 2.320000 52 26 13
-0.556379 -0.617296 2.320000 53 25 13
-0.552542 -0.609006 2.304000 54 24 14
-0.556379 -0.609174 2.320000 56 27 15
-0.556379 -0.605113 2.320000 53 30 15
-0.556379 -0.601052 2.320000 51 27 24
-0.556379 -0.596991 2.320000 51 26 33
-0.552542 -0.588840 2.304000 51 28 25
-0.552542 -0.584807 2.304000 56 31 17
-0.552542 -0.580774 2.304000 61 30 12
-0.552542 -0.576741 2.304000 57 32 7
-0.552542 -0.572708 2.304000 54 31 10
-0.552542 -0.568674 2.304000 55 32 14
-0.552542 -0.564641 2.304000 56 31 18
-0.552542 -0.560608 2.304000 58 31 21
-0.556379 -0.560440 2.320000 60 27 21
-0.556379 -0.556379 2.320000 58 26 22
-0.556379 -0.552318 2.320000 57 28 26
-0.556379 -0.548257 2.320000 60 30 30
-0.556379 -0.544195 2.320000 64 30 24
-0.552542 -0.536409 2.304000 60 30 18
-0.552542 -0.532376 2.304000 56 32 23
-0.552542 -0.528343 2.304000 55 36 28
-0.552542 -0.524310 2.304000 55 34 24
-0.552542 -0.520277 2.304000 55 34 21
-0.552542 -0.516243 2.304000 55 33 20
-0.552542 -0.512210 2.304000 54 33 20
-0.552542 -0.508177 2.304000 54 32 19
-0.552542 -0.504144 2.304000 53 31 19
-0.552542 -0.500111 2.304000 53 31 19
-0.552542 -0.496078 2.304000 54 31 19
-0.552542 -0.492045 2.304000 56 30 21
-0.552542 -0.488011 2.304000 53 30 23
-0.552542 -0.483978 2.304000 50 32 31
-0.552542 -0.479945 2.304000 52 34 39
-0.552542 -0.475912 2.304000 55 33 27
-0.552542 -0.471879 2.304000 55 35 15
-0.552542 -0.467846 2.304000 56 36 20
-0.552542 -0.463813 2.304000 56 34 24
-0.552542 -0.459779 2.304000 56 34 22
-0.552542 -0.455746 2.304000 56 36 19
-0.552542 -0.451713 2.304000 56 36 17
-0.552542 -0.447680 2.304000 57 36 16
-0.552542 -0.443647 2.304000 58 36 19
-0.556379 -0.442667 2.320000 54 36 23
-0.556379 -0.438605 2.320000 51 35 26
-0.552542 -0.431547 2.304000 54 37 29
-0.552542 -0.427514 2.304000 58 36 30
-0.552542 -0.423481 2.304000 58 36 30
-0.552542 -0.419448 2.304000 58 38 32
-0.552542 -0.415415 2.304000 58 44 34
-0.552542 -0.411382 2.304000 59 37 33
-0.552542 -0.407348 2.304000 59 32 32
-0.552542 -0.403315 2.304000 60 32 33
-0.552542 -0.399282 2.304000 59 35 35
-0.552542 -0.395249 2.304000 59 37 29
-0.552542 -0.391216 2.304000 58 40 24
-0.552542 -0.387183 2.304000 58 39 24
-0.552542 -0.383149 2.304000 58 39 25
-0.552542 -0.379116 2.304000 58 39 25
-0.548945 -0.372641 2.289000 58 39 26
-0.548945 -0.368634 2.289000 58 36 28
-0.548945 -0.364627 2.289000 61 34 31
-0.548945 -0.360620 2.289000 65 34 29
-0.548945 -0.356614 2.289000 62 34 27
-0.548945 -0.352607 2.289000 59 37 26
-0.548945 -0.348600 2.289000 58 41 25
-0.548945 -0.344593 2.289000 58 37 21
-0.552542 -0.342818 2.304000 59 33 18
-0.552542 -0.338785 2.304000 60 36 22
-0.552542 -0.334752 2.304000 59 39 26
-0.552542 -0.330718 2.304000 58 38 27
-0.552542 -0.326685 2.304000 58 33 29
-0.552542 -0.322652 2.304000 58 35 31
-0.548945 -0.316545 2.289000 57 38 32
-0.548945 -0.312538 2.289000 56 35 31
-0.548945 -0.308531 2.289000 55 37 30
-0.548945 -0.304524 2.289000 54 38 25
-0.548945 -0.300517 2.289000 58 37 20
-0.548945 -0.296510 2.289000 63 38 21
-0.548945 -0.292503 2.289000 60 40 23
-0.552542 -0.290387 2.304000 58 38 23
-0.552542 -0.286354 2.304000 58 36 24
-0.552542 -0.282321 2.304000 58 36 19
-0.552542 -0.278287 2.304000 60 37 15
-0.552542 -0.274254 2.304000 62 37 20
-0.552542 -0.270221 2.304000 62 39 24
-0.552542 -0.266188 2.304000 63 38 22
-0.552542 -0.262155 2.304000 59 39 20
-0.552542 -0.258122 2.304000 56 35 22
-0.552542 -0.254089 2.304000 56 33 25
-0.552542 -0.250055 2.304000 56 33 23
-0.552542 -0.246022 2.304000 56 36 21
-0.552542 -0.241989 2.304000 56 34 25
-0.552542 -0.237956 2.304000 55 31 30
-0.552542 -0.233923 2.304000 54 31 29
-0.552542 -0.229890 2.304000 56 33 28
-0.552542 -0.225856 2.304000 58 34 24
-0.552542 -0.221823 2.304000 55 36 19
-0.552542 -0.217790 2.304000 53 35 23
-0.548945 -0.212365 2.289000 54 32 27
-0.548945 -0.208358 2.289000 55 32 35
-0.548945 -0.204352 2.289000 55 30 43
-0.548945 -0.200345 2.289000 56 30 34
-0.548945 -0.196338 2.289000 55 31 25
-0.548945 -0.192331 2.289000 55 32 30
-0.548945 -0.188324 2.289000 53 34 36
-0.548945 -0.184317 2.289000 51 34 31
-0.548945 -0.180310 2.289000 50 34 26
-0.548945 -0.176303 2.289000 50 32 25
-0.548945 -0.172296 2.289000 50 30 25
-0.548945 -0.168290 2.289000 51 31 26
-0.548945 -0.164283 2.289000 52 30 27
-0.548945 -0.160276 2.289000 53 30 23
-0.548945 -0.156269 2.289000 53 33 20
-0.548945 -0.152262 2.289000 54 30 27
-0.548945 -0.148255 2.289000 51 30 34
-0.548945 -0.144248 2.289000 49 31 30
-0.548945 -0.140241 2.289000 46 33 26
-0.545347 -0.135342 2.274000 44 32 22
-0.545347 -0.131361 2.274000 46 33 18
-0.545347 -0.127380 2.274000 49 32 20
-0.545347 -0.123400 2.274000 49 33 22
-0.541750 -0.118631 2.259000 50 34 22
-0.541750 -0.114677 2.259000 50 34 23
-0.541750 -0.110723 2.259000 50 32 22
-0.545347 -0.107477 2.274000 52 30 21
-0.545347 -0.103497 2.274000 55 29 19
-0.545347 -0.099516 2.274000 54 29 17
-0.548945 -0.096165 2.289000 53 28 25
-0.548945 -0.092159 2.289000 52 28 34
-0.548945 -0.088152 2.289000 51 28 30
-0.548945 -0.084145 2.289000 52 29 26
-0.548945 -0.080138 2.289000 53 30 20
-0.548945 -0.076131 2.289000 51 30 14
-0.548945 -0.072124 2.289000 49 31 16
-0.552542 -0.068564 2.304000 51 31 18
-0.548945 -0.064110 2.289000 53 28 12
-0.548945 -0.060103 2.289000 51 26 6
-0.545347 -0.055729 2.274000 49 25 13
-0.545347 -0.051748 2.274000 49 24 20
-0.545347 -0.047768 2.274000 49 25 21
-0.545347 -0.043787 2.274000 48 26 22
-0.545347 -0.039806 2.274000 47 28 19
-0.545347 -0.035826 2.274000 48 29 16
-0.545347 -0.031845 2.274000 50 26 17
-0.548945 -0.028048 2.289000 50 26 18
-0.548945 -0.024041 2.289000 51 26 18
-0.548945 -0.020034 2.289000 50 26 18
-0.548945 -0.016028 2.289000 49 26 15
-0.545347 -0.011942 2.274000 50 29 12
-0.545347 -0.007961 2.274000 51 27 16
-0.545347 -0.003981 2.274000 50 26 21
-0.545347 -0.000000 2.274000 50 26 21
-0.545347 0.003981 2.274000 50 26 21
-0.545347 0.007961 2.274000 51 25 25
-0.545347 0.011942 2.274000 51 25 29
-0.545347 0.015923 2.274000 51 26 26
-0.545347 0.019903 2.274000 51 29 23
-0.545347 0.023884 2.274000 51 26 22
-0.545347 0.027864 2.274000 48 26 21
-0.545347 0.031845 2.274000 46 26 15
-0.545347 0.035826 2.274000 48 26 9
-0.545347 0.039806 2.274000 50 26 9
-0.545347 0.043787 2.274000 48 26 10
-0.541750 0.047453 2.259000 47 25 9
-0.545347 0.051748 2.274000 48 26 8
-0.545347 0.055729 2.274000 50 26 6
-0.545347 0.059710 2.274000 49 28 5
-0.545347 0.063690 2.274000 49 24 6
-0.545347 0.067671 2.274000 51 24 7
-0.545347 0.071652 2.274000 54 23 8
-0.545347 0.075632 2.274000 52 21 10
-0.545347 0.079613 2.274000 50 22 8
-0.545347 0.083593 2.274000 48 22 6
-0.545347 0.087574 2.274000 47 22 7
-0.545347 0.091555 2.274000 47 23 9
-0.545347 0.095535 2.274000 47 24 6
-0.545347 0.099516 2.274000 47 27 3
-0.545347 0.103497 2.274000 47 25 5
-0.541750 0.106768 2.259000 46 24 8
-0.548945 0.112193 2.289000 46 22 6
-0.548945 0.116200 2.289000 46 19 5
-0.541750 0.118631 2.259000 47 22 8
-0.541750 0.122586 2.259000 46 26 11
-0.545347 0.127381 2.274000 46 26 11
-0.545347 0.131361 2.274000 48 26 12
-0.545347 0.135342 2.274000 50 25 17
-0.541750 0.138403 2.259000 47 22 23
-0.541750 0.142358 2.259000 45 24 19
-0.541750 0.146312 2.259000 44 26 15
-0.541750 0.150267 2.259000 44 24 10
-0.541750 0.154221 2.259000 45 26 6
-0.541750 0.158175 2.259000 46 23 7
-0.541750 0.162130 2.259000 46 23 8
-0.541750 0.166084 2.259000 47 24 8
-0.541750 0.170038 2.259000 47 23 9
-0.545347 0.175148 2.274000 47 24 11
-0.545347 0.179129 2.274000 47 21 13
-0.545347 0.183109 2.274000 47 21 14
-0.545347 0.187090 2.274000 45 21 16
-0.545347 0.191071 2.274000 44 22 16
-0.545347 0.195051 2.274000 44 21 16
-0.545347 0.199032 2.274000 44 21 20
-0.545347 0.203013 2.274000 44 20 24
-0.545347 0.206993 2.274000 45 19 17
-0.545347 0.210974 2.274000 47 21 10
-0.548945 0.216372 2.289000 50 21 8
-0.548945 0.220379 2.289000 49 24 6
-0.552542 0.225857 2.304000 49 24 12
-0.552542 0.229890 2.304000 48 21 18
-0.552542 0.233923 2.304000 47 22 12
-0.545347 0.234858 2.274000 45 23 6
-0.545347 0.238838 2.274000 44 23 12
-0.541750 0.241217 2.259000 45 23 18
-0.541750 0.245172 2.259000 46 20 11
-0.541750 0.249126 2.259000 46 20 5
-0.541750 0.253080 2.259000 47 21 14
-0.541750 0.257035 2.259000 47 18 23
-0.541750 0.260989 2.259000 47 20 15
-0.545347 0.266703 2.274000 45 19 6
-0.545347 0.270683 2.274000 44 19 8
-0.545347 0.274664 2.274000 45 21 10
-0.548945 0.280483 2.289000 46 21 11
-0.548945 0.284490 2.289000 44 22 13
-0.548945 0.288496 2.289000 43 22 9
-0.548945 0.292503 2.289000 44 21 5
-0.548945 0.296510 2.289000 46 22 6
-0.548945 0.300517 2.289000 42 26 6
-0.548945 0.304524 2.289000 39 25 5
-0.548945 0.308531 2.289000 43 24 5
-0.548945 0.312538 2.289000 47 24 5
-0.545347 0.314470 2.274000 45 24 6
-0.545347 0.318451 2.274000 44 25 7
-0.545347 0.322432 2.274000 40 25 8
-0.545347 0.326412 2.274000 37 25 7
-0.548945 0.332572 2.289000 41 23 7
-0.545347 0.334374 2.274000 46 19 6
-0.545347 0.338354 2.274000 45 16 5
-0.545347 0.342335 2.274000 45 21 3
-0.548945 0.348600 2.289000 45 24 2
-0.545347 0.350296 2.274000 45 22 5
-0.545347 0.354277 2.274000 45 21 9
-0.545347 0.358258 2.274000 46 22 7
-0.545347 0.362238 2.274000 45 19 5
-0.545347 0.366219 2.274000 45 19 9
-0.545347 0.370199 2.274000 45 20 14
-0.545347 0.374180 2.274000 46 21 11
-0.545347 0.378161 2.274000 46 21 7
-0.545347 0.382141 2.274000 46 22 6
-0.548945 0.388669 2.289000 45 21 5
-0.545347 0.390103 2.274000 45 21 5
-0.545347 0.394083 2.274000 45 22 6
-0.545347 0.398064 2.274000 45 21 5
-0.545347 0.402044 2.274000 45 21 4
-0.545347 0.406025 2.274000 45 20 5
-0.545347 0.410006 2.274000 45 17 6
-0.545347 0.413986 2.274000 45 19 7
-0.545347 0.417967 2.274000 47 19 8
-0.545347 0.421948 2.274000 49 20 6
-0.548945 0.428738 2.289000 48 22 4
-0.545347 0.429909 2.274000 47 22 4
-0.545347 0.433890 2.274000 46 21 4
-0.545347 0.437870 2.274000 46 19 12
-0.545347 0.441851 2.274000 47 17 20
-0.545347 0.445831 2.274000 49 17 14
-0.545347 0.449812 2.274000 47 21 9
-0.541750 0.450799 2.259000 46 21 6
-0.541750 0.454754 2.259000 46 19 4
-0.541750 0.458708 2.259000 47 16 11
-0.541750 0.462663 2.259000 46 14 19
-0.541750 0.466617 2.259000 45 14 12
-0.545347 0.473696 2.274000 44 14 6
-0.545347 0.477677 2.274000 43 15 6
-0.545347 0.481657 2.274000 40 15 7
-0.545347 0.485638 2.274000 37 15 8
-0.545347 0.489618 2.274000 40 19 10
-0.545347 0.493599 2.274000 43 17 7
-0.545347 0.497580 2.274000 41 19 4
-0.545347 0.501560 2.274000 40 19 6
-0.541750 0.502206 2.259000 41 19 8
-0.541750 0.506161 2.259000 42 17 5
-0.545347 0.513502 2.274000 39 17 2
-0.545347 0.517483 2.274000 37 17 3
-0.545347 0.521464 2.274000 37 18 4
-0.545347 0.525444 2.274000 38 20 6
-0.545347 0.529425 2.274000 39 23 8
-0.545347 0.533405 2.274000 41 19 5
-0.545347 0.537386 2.274000 38 16 3
-0.545347 0.541367 2.274000 36 17 2
-0.545347 0.545347 2.274000 37 18 1
-0.545347 0.549328 2.274000 39 18 7
-0.545347 0.553309 2.274000 40 19 13
-0.545347 0.557289 2.274000 42 16 10
-0.545347 0.561270 2.274000 46 14 7
-0.545347 0.565251 2.274000 50 13 11
-0.545347 0.569231 2.274000 39 9 15
-0.545347 0.573212 2.274000 29 10 9
-0.545347 0.577192 2.274000 18 6 3
-0.545347 0.581173 2.274000 7 3 4
-0.545347 0.585154 2.274000 6 2 6
-0.545347 0.589134 2.274000 6 2 4
-0.548945 0.597027 2.289000 5 2 2
-0.548945 0.601034 2.289000 4 2 1
-0.552542 0.609006 2.304000 4 3 1
-0.552542 0.613039 2.304000 5 3 2
-0.552542 0.617072 2.304000 5 3 3
-0.552542 0.621106 2.304000 6 2 4
-0.552542 0.625139 2.304000 5 1 6
-0.552542 0.629172 2.304000 4 2 3
-0.552542 0.633205 2.304000 4 3 1
-0.548945 0.633089 2.289000 5 2 1
-0.548945 0.637096 2.289000 4 3 1
-0.548945 0.641103 2.289000 3 3 2
-0.548945 0.645110 2.289000 3 2 3
-0.552542 0.653371 2.304000 4 1 2
-0.552542 0.657404 2.304000 3 2 2
-0.552542 0.661437 2.304000 2 2 1
-0.552542 0.665470 2.304000 2 2 1
-0.552542 0.669503 2.304000 2 2 2
-0.556379 0.678214 2.320000 2 3 2
-0.552542 0.677570 2.304000 2 2 2
-0.552542 0.681603 2.304000 2 2 2
-0.552542 0.685636 2.304000 2 2 2
-0.548945 0.685179 2.289000 2 2 3
-0.541750 0.680153 2.259000 2 2 2
-0.538153 0.679565 2.244000 2 2 1
-0.534795 0.679229 2.230000 2 2 2
-0.468126 0.659477 1.952000 66 57 79
-0.468126 0.662893 1.952000 109 86 81
-0.465488 0.662556 1.941000 106 97 83
-0.465488 0.665953 1.941000 104 93 86
-0.463090 0.665903 1.931000 104 94 89
-0.457814 0.661658 1.909000 105 93 91
-0.455415 0.661516 1.899000 107 93 94
-0.455415 0.664840 1.899000 109 95 90
-0.452777 0.664294 1.888000 107 95 86
-0.447981 0.660527 1.868000 105 94 84
-0.447981 0.663797 1.868000 106 93 82
-0.445583 0.663496 1.858000 108 95 84
-0.445583 0.666748 1.858000 109 96 87
-0.440786 0.662788 1.838000 110 96 87
-0.438388 0.662382 1.828000 110 97 87
-0.438388 0.665582 1.828000 110 98 86
-0.436230 0.665489 1.819000 112 100 85
-0.436230 0.668674 1.819000 114 99 90
-0.431673 0.664840 1.800000 114 100 95
-0.429275 0.664280 1.790000 115 99 102
-0.422800 0.657346 1.763000 115 97 109
-0.420642 0.657061 1.754000 116 96 103
-0.420642 0.660131 1.754000 118 96 97
-0.418483 0.659799 1.745000 121 97 97
-0.418483 0.662853 1.745000 117 98 97
-0.416325 0.662473 1.736000 114 100 102
-0.412248 0.658995 1.719000 115 100 107
-0.410330 0.658923 1.711000 117 100 103
-0.408171 0.658437 1.702000 114 99 99
-0.406253 0.658307 1.694000 112 97 98
-0.537796 -0.873918 2.259000 37 33 25
-0.541367 -0.875740 2.274000 37 33 18
-0.541367 -0.871760 2.274000 28 27 11
-0.541367 -0.867779 2.274000 20 27 9
-0.548509 -0.875194 2.304000 18 16 8
-0.552318 -0.877211 2.320000 17 9 6
-0.552318 -0.873150 2.320000 21 6 5
-0.552318 -0.869088 2.320000 25 6 5
-0.552318 -0.865027 2.320000 28 9 5
-0.552318 -0.860966 2.320000 31 11 4
-0.552318 -0.856905 2.320000 35 13 3
-0.552318 -0.852844 2.320000 38 14 3
-0.552318 -0.848783 2.320000 41 14 4
-0.552318 -0.844721 2.320000 43 15 7
-0.552318 -0.840660 2.320000 45 15 10
-0.552318 -0.836599 2.320000 48 14 11
-0.552318 -0.832538 2.320000 45 19 13
-0.552318 -0.828477 2.320000 43 25 7
-0.552318 -0.824416 2.320000 44 22 2
-0.552318 -0.820354 2.320000 46 21 11
-0.552318 -0.816293 2.320000 47 19 21
-0.552318 -0.812232 2.320000 47 18 17
