ply
format ascii 1.0
element vertex 1260
property float x
property float y
property float z
property uchar red
property uchar green
property uchar blue
end_header
0.148549 0.638211 3.143000 14 8 9
0.149920 0.649653 3.172000 13 10 7
0.149920 0.655205 3.172000 13 8 5
0.149920 0.660758 3.172000 11 7 4
0.148549 0.660219 3.143000 9 7 4
0.149920 0.671863 3.172000 7 9 4
0.149920 0.677416 3.172000 5 6 5
0.151290 0.689212 3.201000 7 3 7
0.151290 0.694816 3.201000 9 3 5
0.126666 0.708392 2.680000 154 137 125
0.125674 0.707496 2.659000 154 138 125
0.124728 0.706794 2.639000 154 141 126
0.122838 0.700631 2.599000 155 141 132
0.121940 0.700025 2.580000 156 142 139
0.121940 0.704541 2.580000 158 141 146
0.120995 0.703561 2.560000 160 142 153
0.120144 0.703064 2.542000 163 142 148
0.119246 0.702226 2.523000 162 144 143
0.118395 0.701601 2.505000 161 144 141
0.117544 0.700913 2.487000 160 144 138
0.116694 0.700162 2.469000 159 145 145
0.115039 0.694497 2.434000 162 144 152
0.115039 0.698758 2.434000 166 142 146
0.114236 0.698108 2.417000 161 143 140
0.113432 0.697399 2.400000 157 144 146
0.113432 0.701601 2.400000 160 146 153
0.111873 0.696097 2.367000 163 147 150
0.111116 0.695507 2.351000 164 150 148
0.109651 0.690397 2.320000 166 147 150
0.108895 0.689669 2.304000 166 144 152
0.108895 0.693702 2.304000 167 148 153
0.108186 0.693193 2.289000 166 149 153
0.107477 0.692631 2.274000 165 147 151
0.106059 0.687422 2.244000 168 146 149
0.104689 0.682415 2.215000 172 146 149
0.104689 0.686292 2.215000 168 150 150
0.104027 0.685808 2.201000 165 149 150
0.103365 0.685274 2.187000 162 148 150
0.102751 0.685006 2.174000 160 142 138
0.102089 0.684376 2.160000 148 139 125
0.101475 0.684015 2.147000 136 128 125
0.100813 0.683289 2.133000 133 124 126
0.100813 0.687022 2.133000 131 117 123
0.100199 0.686546 2.120000 128 110 121
0.099017 0.682117 2.095000 126 108 118
0.098403 0.681529 2.082000 124 107 116
0.097221 0.676947 2.057000 122 106 111
0.096654 0.676577 2.045000 121 104 106
0.096654 0.680157 2.045000 121 105 109
0.096087 0.679725 2.033000 121 105 112
0.096087 0.683283 2.033000 121 105 116
0.095519 0.682788 2.021000 119 104 121
0.094432 0.678515 1.998000 118 103 116
0.093865 0.677916 1.986000 118 105 111
0.093345 0.677619 1.975000 118 104 108
0.092825 0.677283 1.964000 115 101 105
0.092258 0.676561 1.952000 113 103 107
0.091738 0.676147 1.941000 117 106 109
0.090746 0.672192 1.920000 121 106 105
0.090746 0.675553 1.920000 121 105 101
0.090226 0.675024 1.909000 121 106 106
0.089233 0.670904 1.888000 121 106 111
0.088761 0.670638 1.878000 121 104 115
0.087816 0.666748 1.858000 118 103 119
0.087343 0.666394 1.848000 115 103 110
0.086870 0.666006 1.838000 117 103 102
0.086398 0.665582 1.828000 120 103 106
0.085972 0.665489 1.819000 119 103 110
0.085972 0.668674 1.819000 118 104 110
0.085500 0.668164 1.809000 116 106 111
0.085074 0.667991 1.800000 115 104 105
0.084602 0.667413 1.790000 117 104 99
0.084176 0.667175 1.781000 119 103 103
0.083751 0.666906 1.772000 120 100 108
0.083326 0.666605 1.763000 122 101 114
0.082475 0.662853 1.745000 119 101 121
0.082049 0.662473 1.736000 116 102 119
0.081671 0.662445 1.728000 117 102 117
0.081246 0.662004 1.719000 119 102 115
0.080868 0.661918 1.711000 119 104 114
0.155472 -1.227122 3.172000 39 17 33
0.156894 -1.232737 3.201000 38 18 31
0.155472 -1.216016 3.172000 33 19 30
0.155472 -1.210464 3.172000 28 21 30
0.155472 -1.204911 3.172000 35 24 30
0.155472 -1.199359 3.172000 42 23 31
0.155472 -1.193806 3.172000 41 22 32
0.155472 -1.188254 3.172000 39 23 29
0.155472 -1.182701 3.172000 35 24 27
0.155472 -1.177148 3.172000 30 25 28
0.155472 -1.171596 3.172000 37 25 29
0.155472 -1.166043 3.172000 44 27 31
0.155472 -1.160491 3.172000 45 23 34
0.154051 -1.144379 3.143000 46 26 35
0.155472 -1.149385 3.172000 43 31 36
0.154051 -1.133375 3.143000 41 37 41
0.154051 -1.127873 3.143000 34 26 47
0.154051 -1.122372 3.143000 27 21 47
0.155472 -1.127175 3.172000 33 28 47
0.155472 -1.121622 3.172000 39 38 42
0.154051 -1.105866 3.143000 40 32 38
0.154051 -1.100364 3.143000 42 39 33
0.154051 -1.094863 3.143000 39 33 29
0.155472 -1.099412 3.172000 36 41 33
0.155472 -1.093860 3.172000 38 33 38
0.154051 -1.078357 3.143000 40 40 39
0.154051 -1.072855 3.143000 38 32 41
0.154051 -1.067353 3.143000 36 36 31
0.154051 -1.061852 3.143000 39 36 21
0.154051 -1.056350 3.143000 42 46 24
0.154051 -1.050848 3.143000 41 34 28
0.154051 -1.045346 3.143000 40 42 35
0.154051 -1.039844 3.143000 41 35 42
0.154051 -1.034343 3.143000 42 45 41
0.155472 -1.038334 3.172000 44 40 41
0.155472 -1.032781 3.172000 46 55 36
0.155472 -1.027228 3.172000 43 43 32
0.154051 -1.012335 3.143000 41 53 35
0.155472 -1.016123 3.172000 41 42 39
0.155472 -1.010571 3.172000 42 54 36
0.155472 -1.005018 3.172000 41 44 34
0.155472 -0.999466 3.172000 40 58 37
0.155472 -0.993913 3.172000 40 46 41
0.155472 -0.988360 3.172000 41 58 40
0.155472 -0.982808 3.172000 40 46 39
0.155472 -0.977255 3.172000 40 60 36
0.155472 -0.971703 3.172000 44 46 33
0.155472 -0.966150 3.172000 48 60 33
0.155472 -0.960597 3.172000 47 46 34
0.155472 -0.955045 3.172000 47 60 34
0.155472 -0.949492 3.172000 48 49 34
0.155472 -0.943940 3.172000 49 62 36
0.155472 -0.938387 3.172000 48 46 39
0.154051 -0.924306 3.143000 47 56 39
0.155472 -0.927282 3.172000 48 44 39
0.155472 -0.921729 3.172000 49 60 32
0.156894 -0.924553 3.201000 48 44 26
0.155472 -0.910624 3.172000 48 55 31
0.155472 -0.905072 3.172000 50 45 37
0.155472 -0.899519 3.172000 51 60 38
0.156894 -0.902140 3.201000 52 46 39
0.156894 -0.896536 3.201000 52 57 36
0.156894 -0.890933 3.201000 53 45 34
0.155472 -0.877309 3.172000 55 56 34
0.155472 -0.871756 3.172000 56 44 34
0.155472 -0.866203 3.172000 58 58 32
0.154051 -0.852782 3.143000 57 47 30
0.154051 -0.847281 3.143000 56 64 21
0.154051 -0.841779 3.143000 47 37 13
0.155472 -0.843993 3.172000 38 12 16
0.154051 -0.830775 3.143000 44 17 20
0.155472 -0.832888 3.172000 50 20 11
0.156894 -0.834899 3.201000 56 25 2
0.156894 -0.829296 3.201000 62 31 11
0.158364 -0.831412 3.231000 65 34 21
0.158364 -0.825756 3.231000 68 37 23
0.158364 -0.820101 3.231000 69 40 26
0.158364 -0.814445 3.231000 71 41 23
0.158364 -0.808789 3.231000 73 41 21
0.158364 -0.803133 3.231000 75 39 17
0.158364 -0.797477 3.231000 74 41 14
0.158364 -0.791821 3.231000 73 45 31
0.158364 -0.786165 3.231000 71 42 49
0.156894 -0.773262 3.201000 69 41 40
0.156894 -0.767659 3.201000 72 43 32
0.156894 -0.762056 3.201000 76 44 33
0.156894 -0.756452 3.201000 74 39 34
0.156894 -0.750849 3.201000 73 38 34
0.158364 -0.752230 3.231000 72 40 34
0.158364 -0.746574 3.231000 71 45 41
0.158364 -0.740919 3.231000 70 42 49
0.158364 -0.735263 3.231000 70 40 44
0.158364 -0.729607 3.231000 69 41 39
0.158364 -0.723951 3.231000 69 43 36
0.158364 -0.718295 3.231000 69 41 34
0.158364 -0.712639 3.231000 70 41 30
0.158364 -0.706983 3.231000 72 40 27
0.158364 -0.701327 3.231000 75 44 27
0.158364 -0.695672 3.231000 73 42 28
0.158364 -0.690016 3.231000 71 41 31
0.156894 -0.678005 3.201000 70 42 34
0.158364 -0.678704 3.231000 69 42 25
0.158364 -0.673048 3.231000 72 42 17
0.158364 -0.667392 3.231000 75 39 24
0.158364 -0.661736 3.231000 74 42 31
0.158364 -0.656080 3.231000 74 44 34
0.158364 -0.650425 3.231000 70 44 37
0.158364 -0.644769 3.231000 67 46 34
0.158364 -0.639113 3.231000 70 46 32
0.158364 -0.633457 3.231000 72 46 31
0.158364 -0.627801 3.231000 73 44 31
0.158364 -0.622145 3.231000 75 44 31
0.158364 -0.616489 3.231000 75 43 31
0.158364 -0.610834 3.231000 76 44 28
0.158364 -0.605178 3.231000 76 44 25
0.158364 -0.599522 3.231000 75 43 28
0.158364 -0.593866 3.231000 75 43 31
0.158364 -0.588210 3.231000 76 43 33
0.158364 -0.582554 3.231000 76 42 35
0.156894 -0.571542 3.201000 77 43 28
0.156894 -0.565938 3.201000 72 46 21
0.158364 -0.565587 3.231000 68 49 23
0.158364 -0.559931 3.231000 70 46 26
0.158364 -0.554275 3.231000 73 44 27
0.156894 -0.543525 3.201000 75 41 28
0.158364 -0.542963 3.231000 76 39 31
0.158364 -0.537307 3.231000 75 40 34
0.158364 -0.531651 3.231000 73 42 24
0.158364 -0.525996 3.231000 70 43 15
0.158364 -0.520340 3.231000 68 44 22
0.158364 -0.514684 3.231000 70 44 29
0.158364 -0.509028 3.231000 73 45 27
0.158364 -0.503372 3.231000 74 45 25
0.158364 -0.497716 3.231000 74 44 25
0.158364 -0.492060 3.231000 74 44 26
0.158364 -0.486404 3.231000 74 44 35
0.158364 -0.480749 3.231000 74 43 44
0.158364 -0.475093 3.231000 75 43 35
0.158364 -0.469437 3.231000 76 45 27
0.158364 -0.463781 3.231000 78 45 20
0.156894 -0.453871 3.201000 78 43 14
0.156894 -0.448268 3.201000 79 42 20
0.156894 -0.442665 3.201000 75 46 27
0.156894 -0.437061 3.201000 70 50 30
0.156894 -0.431458 3.201000 71 47 33
0.158364 -0.429846 3.231000 72 45 36
0.158364 -0.424190 3.231000 72 45 39
0.158364 -0.418534 3.231000 73 44 32
0.158364 -0.412878 3.231000 72 44 26
0.156894 -0.403441 3.201000 71 45 26
0.156894 -0.397838 3.201000 72 46 26
0.156894 -0.392235 3.201000 73 47 27
0.156894 -0.386631 3.201000 76 47 29
0.158364 -0.384599 3.231000 79 45 28
0.158364 -0.378943 3.231000 74 41 28
0.158364 -0.373287 3.231000 69 39 30
0.158364 -0.367631 3.231000 71 43 32
0.158364 -0.361975 3.231000 74 45 39
0.158364 -0.356320 3.231000 74 45 47
0.158364 -0.350664 3.231000 75 44 41
0.158364 -0.345008 3.231000 75 45 35
0.158364 -0.339352 3.231000 75 46 32
0.158364 -0.333696 3.231000 74 44 30
0.158364 -0.328040 3.231000 73 46 28
0.158364 -0.322384 3.231000 74 45 26
0.156894 -0.313788 3.201000 76 44 26
0.158364 -0.311073 3.231000 74 43 26
0.158364 -0.305417 3.231000 73 42 31
0.158364 -0.299761 3.231000 75 42 37
0.158364 -0.294105 3.231000 78 42 38
0.158364 -0.288449 3.231000 77 41 39
0.158364 -0.282793 3.231000 77 40 41
0.158364 -0.277137 3.231000 78 40 43
0.156894 -0.268961 3.201000 79 41 35
0.158364 -0.265826 3.231000 79 43 27
0.158364 -0.260170 3.231000 79 44 37
0.158364 -0.254514 3.231000 78 40 47
0.156894 -0.246547 3.201000 77 39 39
0.158364 -0.243202 3.231000 78 40 32
0.156894 -0.235341 3.201000 79 40 31
0.158364 -0.231890 3.231000 77 41 30
0.158364 -0.226235 3.231000 76 43 23
0.158364 -0.220579 3.231000 76 42 17
0.156894 -0.212927 3.201000 76 44 29
0.156894 -0.207324 3.201000 75 43 41
0.156894 -0.201721 3.201000 75 42 49
0.156894 -0.196117 3.201000 76 43 58
0.156894 -0.190514 3.201000 78 45 49
0.156894 -0.184910 3.201000 76 42 40
0.155472 -0.177683 3.172000 75 42 33
0.156894 -0.173704 3.201000 73 43 26
0.155472 -0.166578 3.172000 71 44 22
0.155472 -0.161025 3.172000 73 41 19
0.156894 -0.156894 3.201000 74 41 23
0.155472 -0.149920 3.172000 72 41 28
0.155472 -0.144367 3.172000 71 42 27
0.156894 -0.140084 3.201000 68 42 27
0.155472 -0.133262 3.172000 65 44 29
0.155472 -0.127709 3.172000 70 44 31
0.155472 -0.122157 3.172000 75 42 28
0.155472 -0.116604 3.172000 72 40 26
0.156894 -0.112067 3.201000 69 40 26
0.156894 -0.106464 3.201000 70 40 27
0.155472 -0.099946 3.172000 71 41 26
0.155472 -0.094394 3.172000 71 41 26
0.156894 -0.089654 3.201000 70 42 26
0.156894 -0.084050 3.201000 71 41 27
0.156894 -0.078447 3.201000 71 42 28
0.156894 -0.072843 3.201000 71 43 29
0.156894 -0.067240 3.201000 72 43 24
0.156894 -0.061637 3.201000 73 42 20
0.156894 -0.056033 3.201000 74 41 21
0.155472 -0.049973 3.172000 75 41 22
0.155472 -0.044421 3.172000 76 42 28
0.155472 -0.038868 3.172000 73 41 34
0.155472 -0.033315 3.172000 71 41 40
0.156894 -0.028017 3.201000 72 41 47
0.156894 -0.022413 3.201000 72 43 40
0.156894 -0.016810 3.201000 72 40 34
0.156894 -0.011207 3.201000 73 38 30
0.156894 -0.005603 3.201000 74 40 27
0.156894 -0.000000 3.201000 75 41 24
0.156894 0.005603 3.201000 74 43 22
0.156894 0.011207 3.201000 73 45 22
0.156894 0.016810 3.201000 71 43 22
0.158364 0.022624 3.231000 70 42 21
0.158364 0.028279 3.231000 75 41 21
0.156894 0.033620 3.201000 80 42 23
0.156894 0.039223 3.201000 76 44 26
0.156894 0.044827 3.201000 73 46 23
0.156894 0.050430 3.201000 75 43 20
0.155472 0.055526 3.172000 76 42 16
0.155472 0.061078 3.172000 77 43 12
0.154051 0.066022 3.143000 77 44 19
0.154051 0.071524 3.143000 78 44 26
0.154051 0.077026 3.143000 79 43 18
0.154051 0.082527 3.143000 77 43 10
0.154051 0.088029 3.143000 75 44 14
0.154051 0.093531 3.143000 74 45 18
0.155472 0.099947 3.172000 74 46 18
0.154051 0.104535 3.143000 75 42 19
0.155472 0.111052 3.172000 76 41 28
0.155472 0.116604 3.172000 73 43 37
0.155472 0.122157 3.172000 71 46 34
0.155472 0.127710 3.172000 71 45 31
0.154051 0.132044 3.143000 71 44 26
0.154051 0.137546 3.143000 72 43 22
0.154051 0.143047 3.143000 74 43 24
0.154051 0.148549 3.143000 74 45 26
0.154051 0.154051 3.143000 74 47 24
0.154051 0.159553 3.143000 73 45 22
0.155472 0.166578 3.172000 72 43 27
0.155472 0.172130 3.172000 75 43 32
0.155472 0.177683 3.172000 77 43 40
0.155472 0.183235 3.172000 76 43 48
0.155472 0.188788 3.172000 74 44 37
0.155472 0.194341 3.172000 76 42 26
0.154051 0.198066 3.143000 77 41 24
0.154051 0.203567 3.143000 78 40 22
0.154051 0.209069 3.143000 80 40 19
0.154051 0.214571 3.143000 79 42 17
0.154051 0.220073 3.143000 78 44 31
0.154051 0.225575 3.143000 78 42 46
0.154051 0.231077 3.143000 79 42 35
0.154051 0.236578 3.143000 78 41 25
0.154051 0.242080 3.143000 77 40 19
0.155472 0.249867 3.172000 75 41 14
0.155472 0.255419 3.172000 74 42 20
0.155472 0.260972 3.172000 74 44 27
0.155472 0.266524 3.172000 74 47 22
0.155472 0.272077 3.172000 74 44 17
0.155472 0.277629 3.172000 74 43 19
0.155472 0.283182 3.172000 75 42 21
0.155472 0.288735 3.172000 76 44 15
0.155472 0.294287 3.172000 75 44 10
0.154051 0.297098 3.143000 75 44 16
0.155472 0.305392 3.172000 75 42 22
0.155472 0.310945 3.172000 75 41 22
0.155472 0.316498 3.172000 76 41 22
0.155472 0.322050 3.172000 76 41 24
0.155472 0.327603 3.172000 75 40 26
0.155472 0.333155 3.172000 74 41 36
0.154051 0.335611 3.143000 77 43 47
0.155472 0.344261 3.172000 81 45 34
0.154051 0.346615 3.143000 79 44 21
0.154051 0.352117 3.143000 78 45 34
0.154051 0.357618 3.143000 75 45 47
0.154051 0.363120 3.143000 73 45 28
0.154051 0.368622 3.143000 74 44 9
0.154051 0.374124 3.143000 75 46 25
0.155472 0.383128 3.172000 74 44 42
0.155472 0.388681 3.172000 74 44 33
0.155472 0.394234 3.172000 75 44 25
0.156894 0.403441 3.201000 76 44 27
0.156894 0.409045 3.201000 75 42 29
0.156894 0.414648 3.201000 74 43 33
0.156894 0.420251 3.201000 74 40 37
0.155472 0.421997 3.172000 74 38 37
0.155472 0.427549 3.172000 75 40 37
0.155472 0.433102 3.172000 76 42 42
0.155472 0.438654 3.172000 76 44 48
0.155472 0.444207 3.172000 77 44 36
0.155472 0.449760 3.172000 78 41 25
0.155472 0.455312 3.172000 80 41 24
0.155472 0.460865 3.172000 78 42 24
0.155472 0.466417 3.172000 77 43 24
0.155472 0.471970 3.172000 76 43 24
0.155472 0.477522 3.172000 76 45 21
0.155472 0.483075 3.172000 77 45 19
0.155472 0.488628 3.172000 77 47 22
0.155472 0.494180 3.172000 74 43 25
0.155472 0.499733 3.172000 72 41 27
0.155472 0.505285 3.172000 72 41 29
0.156894 0.515508 3.201000 73 44 34
0.155472 0.516391 3.172000 74 42 40
0.155472 0.521943 3.172000 75 43 30
0.155472 0.527496 3.172000 75 40 21
0.155472 0.533048 3.172000 75 39 29
0.155472 0.538601 3.172000 73 40 38
0.155472 0.544154 3.172000 71 39 31
0.155472 0.549706 3.172000 72 37 25
0.155472 0.555259 3.172000 73 39 32
0.155472 0.560811 3.172000 74 41 39
0.155472 0.566364 3.172000 74 43 30
0.155472 0.571917 3.172000 72 41 21
0.154051 0.572190 3.143000 70 41 34
0.154051 0.577691 3.143000 70 39 47
0.154051 0.583193 3.143000 69 40 36
0.154051 0.588695 3.143000 68 39 26
0.154051 0.594197 3.143000 67 39 21
0.154051 0.599699 3.143000 70 41 16
0.154051 0.605201 3.143000 73 44 17
0.154051 0.610702 3.143000 60 32 19
0.154051 0.616204 3.143000 48 25 18
0.154051 0.621706 3.143000 28 13 17
0.154051 0.627208 3.143000 8 6 15
0.154051 0.632710 3.143000 10 6 14
0.154051 0.638211 3.143000 13 6 9
0.155472 0.649653 3.172000 14 8 5
0.155472 0.655205 3.172000 16 9 4
0.155472 0.660758 3.172000 12 6 4
0.155472 0.666311 3.172000 9 5 4
0.155472 0.671863 3.172000 7 6 4
0.155472 0.677416 3.172000 5 7 4
0.156894 0.689212 3.201000 6 4 5
0.156894 0.694816 3.201000 8 3 5
0.158364 0.706983 3.231000 10 3 5
0.158364 0.712639 3.231000 12 3 13
0.130328 0.702842 2.659000 152 135 125
0.130328 0.707496 2.659000 153 137 125
0.129348 0.706794 2.639000 154 139 126
0.127387 0.700631 2.599000 155 140 132
0.126456 0.700025 2.580000 157 141 138
0.126456 0.704541 2.580000 159 142 150
0.125476 0.703561 2.560000 161 141 162
0.124594 0.703064 2.542000 163 141 153
0.123662 0.702226 2.523000 164 142 145
0.122780 0.701601 2.505000 165 143 144
0.121898 0.700913 2.487000 162 145 143
0.121016 0.700162 2.469000 160 148 151
0.119300 0.694497 2.434000 162 144 159
0.119300 0.698758 2.434000 164 143 146
0.118467 0.698108 2.417000 161 143 134
0.117634 0.697399 2.400000 159 144 141
0.117634 0.701601 2.400000 162 145 149
0.116016 0.696097 2.367000 165 146 149
0.114448 0.690774 2.335000 165 148 149
0.113712 0.690397 2.320000 165 151 150
0.112928 0.689669 2.304000 166 149 152
0.112193 0.689186 2.289000 166 151 151
0.111458 0.688650 2.274000 165 149 151
0.110723 0.688062 2.259000 165 148 150
0.110723 0.692017 2.259000 167 145 149
0.109301 0.687036 2.230000 169 142 155
0.107880 0.681955 2.201000 167 147 161
0.107194 0.681445 2.187000 165 152 157
0.107194 0.685274 2.187000 161 146 154
0.106556 0.685006 2.174000 156 134 139
0.105870 0.684376 2.160000 146 132 125
0.105233 0.684015 2.147000 137 123 124
0.104547 0.683289 2.133000 134 120 124
0.104547 0.687022 2.133000 131 113 124
0.103910 0.686546 2.120000 129 110 124
0.103272 0.686025 2.107000 126 110 120
0.102047 0.681529 2.082000 124 108 117
0.101410 0.680896 2.069000 122 108 112
0.100234 0.676577 2.045000 121 107 107
0.099645 0.676166 2.033000 119 108 110
0.099645 0.679725 2.033000 120 106 113
0.099057 0.679250 2.021000 121 105 119
0.098469 0.678734 2.009000 120 103 125
0.098175 0.680213 2.003000 119 103 119
0.097342 0.677916 1.986000 119 104 113
0.096803 0.677619 1.975000 119 106 111
0.096263 0.677283 1.964000 117 103 109
0.095675 0.676561 1.952000 115 104 108
0.095136 0.676147 1.941000 117 106 107
0.094107 0.672192 1.920000 119 107 100
0.093568 0.671683 1.909000 118 105 94
0.093568 0.675024 1.909000 117 107 102
0.092538 0.670904 1.888000 119 105 111
0.092048 0.670638 1.878000 120 104 118
0.091068 0.666748 1.858000 119 103 126
0.090578 0.666394 1.848000 118 104 112
0.089598 0.662382 1.828000 119 103 98
0.089598 0.665582 1.828000 121 104 105
0.089156 0.665489 1.819000 120 104 112
0.089156 0.668674 1.819000 119 104 113
0.088666 0.668164 1.809000 118 104 114
0.088225 0.667991 1.800000 117 104 112
0.087735 0.667413 1.790000 117 104 111
0.087294 0.667175 1.781000 118 105 109
0.086853 0.666906 1.772000 120 103 108
0.086412 0.666605 1.763000 122 104 112
0.085529 0.662853 1.745000 120 102 116
0.085088 0.662473 1.736000 119 104 116
0.084696 0.662445 1.728000 119 102 116
0.084255 0.662004 1.719000 120 103 117
0.083863 0.661918 1.711000 121 103 119
0.161025 -1.227122 3.172000 51 24 43
0.159553 -1.210401 3.143000 53 34 42
0.159553 -1.204899 3.143000 53 25 41
0.159553 -1.199397 3.143000 54 36 39
0.159553 -1.193895 3.143000 54 38 37
0.159553 -1.188393 3.143000 55 40 38
0.159553 -1.182892 3.143000 53 31 39
0.159553 -1.177390 3.143000 51 39 38
0.159553 -1.171888 3.143000 54 34 38
0.161025 -1.177148 3.172000 58 40 38
0.161025 -1.171596 3.172000 58 34 38
0.161025 -1.166043 3.172000 59 41 38
0.159553 -1.149881 3.143000 67 33 38
0.159553 -1.144379 3.143000 76 44 40
0.159553 -1.138877 3.143000 68 53 42
0.159553 -1.133375 3.143000 60 51 45
0.159553 -1.127873 3.143000 56 45 48
0.159553 -1.122372 3.143000 53 48 49
0.159553 -1.116870 3.143000 54 50 50
0.159553 -1.111368 3.143000 56 50 48
0.159553 -1.105866 3.143000 57 53 46
0.159553 -1.100364 3.143000 58 51 43
0.159553 -1.094863 3.143000 64 53 41
0.159553 -1.089361 3.143000 70 51 45
0.161025 -1.093860 3.172000 65 52 50
0.159553 -1.078357 3.143000 60 50 50
0.159553 -1.072855 3.143000 65 51 51
0.159553 -1.067353 3.143000 71 51 44
0.159553 -1.061852 3.143000 73 60 38
0.161025 -1.066097 3.172000 76 53 38
0.161025 -1.060544 3.172000 76 48 39
0.161025 -1.054991 3.172000 77 52 44
0.161025 -1.049439 3.172000 69 55 49
0.161025 -1.043886 3.172000 61 56 49
0.161025 -1.038334 3.172000 62 61 48
0.161025 -1.032781 3.172000 63 61 48
0.161025 -1.027228 3.172000 68 64 47
0.161025 -1.021676 3.172000 73 59 50
0.159553 -1.006833 3.143000 75 62 52
0.159553 -1.001332 3.143000 77 59 51
0.161025 -1.005018 3.172000 77 63 51
0.159553 -0.990328 3.143000 78 61 51
0.159553 -0.984826 3.143000 77 65 52
0.159553 -0.979324 3.143000 77 63 53
0.161025 -0.982808 3.172000 77 67 54
0.161025 -0.977255 3.172000 77 62 51
0.161025 -0.971703 3.172000 71 63 49
0.161025 -0.966150 3.172000 65 61 49
0.161025 -0.960597 3.172000 71 63 48
0.161025 -0.955045 3.172000 77 61 48
0.159553 -0.940812 3.143000 70 66 48
0.159553 -0.935310 3.143000 64 63 51
0.159553 -0.929808 3.143000 62 65 55
0.159553 -0.924306 3.143000 61 60 53
0.159553 -0.918804 3.143000 62 60 51
0.159553 -0.913302 3.143000 64 59 45
0.159553 -0.907801 3.143000 63 60 40
0.159553 -0.902299 3.143000 63 60 44
0.159553 -0.896797 3.143000 63 62 48
0.161025 -0.899519 3.172000 64 62 48
0.161025 -0.893966 3.172000 65 64 47
0.161025 -0.888414 3.172000 67 61 46
0.161025 -0.882861 3.172000 66 60 44
0.159553 -0.869288 3.143000 65 57 44
0.159553 -0.863786 3.143000 66 59 44
0.159553 -0.858284 3.143000 68 60 43
0.158131 -0.845185 3.115000 66 62 42
0.158131 -0.839732 3.115000 65 62 38
0.159553 -0.841779 3.143000 57 62 35
0.161025 -0.843993 3.172000 50 33 32
0.161025 -0.838440 3.172000 48 13 30
0.162497 -0.840503 3.201000 47 17 20
0.162497 -0.834899 3.201000 54 24 10
0.164020 -0.837068 3.231000 62 29 15
0.164020 -0.831412 3.231000 65 35 21
0.165594 -0.833679 3.262000 68 38 25
0.165594 -0.827969 3.262000 69 41 29
0.165594 -0.822259 3.262000 71 41 26
0.165594 -0.816549 3.262000 71 44 22
0.164020 -0.803133 3.231000 72 41 21
0.164020 -0.797477 3.231000 72 41 21
0.164020 -0.791821 3.231000 73 42 31
0.164020 -0.786165 3.231000 70 42 41
0.164020 -0.780510 3.231000 67 41 36
0.164020 -0.774854 3.231000 70 45 31
0.164020 -0.769198 3.231000 73 42 34
0.164020 -0.763542 3.231000 73 40 38
0.164020 -0.757886 3.231000 74 39 30
0.164020 -0.752230 3.231000 74 38 23
0.164020 -0.746574 3.231000 74 40 33
0.164020 -0.740919 3.231000 72 40 43
0.164020 -0.735263 3.231000 71 40 41
0.164020 -0.729607 3.231000 71 41 39
0.164020 -0.723951 3.231000 71 40 38
0.164020 -0.718295 3.231000 70 39 38
0.164020 -0.712639 3.231000 69 39 37
0.164020 -0.706983 3.231000 71 37 35
0.164020 -0.701327 3.231000 73 40 30
0.164020 -0.695672 3.231000 71 42 24
0.164020 -0.690016 3.231000 69 42 29
0.164020 -0.684360 3.231000 66 44 34
0.164020 -0.678704 3.231000 64 44 27
0.164020 -0.673048 3.231000 68 46 20
0.164020 -0.667392 3.231000 73 43 26
0.164020 -0.661736 3.231000 72 44 31
0.164020 -0.656080 3.231000 72 43 37
0.164020 -0.650425 3.231000 68 45 42
0.164020 -0.644769 3.231000 64 45 31
0.164020 -0.639113 3.231000 68 45 19
0.164020 -0.633457 3.231000 73 44 23
0.164020 -0.627801 3.231000 75 44 27
0.164020 -0.622145 3.231000 77 43 32
0.164020 -0.616489 3.231000 78 42 37
0.164020 -0.610834 3.231000 79 42 25
0.164020 -0.605178 3.231000 78 44 14
0.164020 -0.599522 3.231000 78 43 21
0.164020 -0.593866 3.231000 77 43 28
0.164020 -0.588210 3.231000 76 43 29
0.164020 -0.582554 3.231000 76 44 31
0.164020 -0.576898 3.231000 77 45 29
0.164020 -0.571242 3.231000 72 48 27
0.164020 -0.565587 3.231000 67 48 23
0.164020 -0.559931 3.231000 70 49 19
0.164020 -0.554275 3.231000 74 44 24
0.164020 -0.548619 3.231000 76 40 29
0.164020 -0.542963 3.231000 78 40 31
0.164020 -0.537307 3.231000 77 40 34
0.164020 -0.531651 3.231000 76 41 28
0.164020 -0.525996 3.231000 74 45 23
0.164020 -0.520340 3.231000 73 44 30
0.164020 -0.514684 3.231000 73 43 36
0.164020 -0.509028 3.231000 73 44 29
0.164020 -0.503372 3.231000 75 46 21
0.164020 -0.497716 3.231000 77 44 24
0.164020 -0.492060 3.231000 76 42 28
0.164020 -0.486404 3.231000 75 42 32
0.164020 -0.480749 3.231000 74 41 37
0.164020 -0.475093 3.231000 73 43 35
0.164020 -0.469437 3.231000 75 45 33
0.164020 -0.463781 3.231000 78 43 26
0.164020 -0.458125 3.231000 80 41 20
0.164020 -0.452469 3.231000 82 42 21
0.162497 -0.442665 3.201000 78 46 22
0.164020 -0.441158 3.231000 75 47 24
0.164020 -0.435502 3.231000 74 46 25
0.164020 -0.429846 3.231000 74 45 28
0.164020 -0.424190 3.231000 73 46 32
0.164020 -0.418534 3.231000 72 44 28
0.164020 -0.412878 3.231000 70 45 25
0.164020 -0.407222 3.231000 69 46 22
0.164020 -0.401566 3.231000 72 49 19
0.162497 -0.392235 3.201000 75 47 24
0.164020 -0.390255 3.231000 79 48 28
0.164020 -0.384599 3.231000 84 43 29
0.164020 -0.378943 3.231000 77 39 31
0.164020 -0.373287 3.231000 71 40 31
0.164020 -0.367631 3.231000 71 44 32
0.164020 -0.361975 3.231000 71 45 37
0.164020 -0.356320 3.231000 71 47 42
0.164020 -0.350664 3.231000 71 44 38
0.164020 -0.345008 3.231000 72 46 34
0.164020 -0.339352 3.231000 74 45 27
0.164020 -0.333696 3.231000 72 43 20
0.164020 -0.328040 3.231000 71 45 23
0.164020 -0.322384 3.231000 72 45 26
0.164020 -0.316728 3.231000 74 44 26
0.164020 -0.311073 3.231000 72 44 26
0.164020 -0.305417 3.231000 70 43 30
0.164020 -0.299761 3.231000 73 42 34
0.164020 -0.294105 3.231000 77 42 34
0.164020 -0.288449 3.231000 77 42 35
0.164020 -0.282793 3.231000 77 40 37
0.164020 -0.277137 3.231000 78 40 40
0.164020 -0.271481 3.231000 79 40 33
0.164020 -0.265826 3.231000 78 44 26
0.164020 -0.260170 3.231000 78 42 33
0.164020 -0.254514 3.231000 77 41 40
0.164020 -0.248858 3.231000 76 40 37
0.164020 -0.243202 3.231000 79 41 34
0.164020 -0.237546 3.231000 82 40 35
0.164020 -0.231890 3.231000 79 39 37
0.164020 -0.226235 3.231000 77 41 29
0.162497 -0.218531 3.201000 76 42 22
0.162497 -0.212927 3.201000 76 42 28
0.162497 -0.207324 3.201000 74 42 35
0.162497 -0.201721 3.201000 73 41 35
0.162497 -0.196117 3.201000 75 44 35
0.162497 -0.190514 3.201000 77 44 35
0.161025 -0.183235 3.172000 76 45 35
0.162497 -0.179307 3.201000 76 42 31
0.162497 -0.173704 3.201000 74 42 27
0.162497 -0.168100 3.201000 72 42 25
0.162497 -0.162497 3.201000 73 42 24
0.162497 -0.156894 3.201000 75 42 29
0.162497 -0.151290 3.201000 73 42 34
0.162497 -0.145687 3.201000 72 42 31
0.162497 -0.140084 3.201000 70 41 27
0.162497 -0.134480 3.201000 68 43 27
0.162497 -0.128877 3.201000 70 45 27
0.162497 -0.123274 3.201000 73 42 27
0.162497 -0.117670 3.201000 69 41 26
0.162497 -0.112067 3.201000 66 41 27
0.162497 -0.106464 3.201000 68 42 27
0.162497 -0.100860 3.201000 71 41 22
0.162497 -0.095257 3.201000 70 41 18
0.162497 -0.089654 3.201000 69 40 23
0.162497 -0.084050 3.201000 70 36 28
0.162497 -0.078447 3.201000 71 41 32
0.162497 -0.072843 3.201000 72 46 36
0.162497 -0.067240 3.201000 73 43 26
0.162497 -0.061637 3.201000 73 44 17
0.162497 -0.056033 3.201000 74 41 19
0.162497 -0.050430 3.201000 74 40 21
0.162497 -0.044827 3.201000 75 41 27
0.162497 -0.039223 3.201000 72 42 34
0.162497 -0.033620 3.201000 70 40 37
0.162497 -0.028017 3.201000 71 39 40
0.162497 -0.022413 3.201000 72 40 35
0.162497 -0.016810 3.201000 73 39 31
0.162497 -0.011207 3.201000 74 39 29
0.162497 -0.005603 3.201000 74 40 27
0.162497 -0.000000 3.201000 75 41 23
0.164020 0.005656 3.231000 74 44 19
0.162497 0.011207 3.201000 73 44 19
0.162497 0.016810 3.201000 73 44 19
0.164020 0.022624 3.231000 74 41 18
0.164020 0.028279 3.231000 76 39 16
0.164020 0.033935 3.231000 78 41 25
0.164020 0.039591 3.231000 76 44 34
0.162497 0.044827 3.201000 74 44 29
0.162497 0.050430 3.201000 75 41 24
0.162497 0.056034 3.201000 76 42 26
0.161025 0.061078 3.172000 77 43 28
0.161025 0.066631 3.172000 78 44 29
0.161025 0.072184 3.172000 80 46 30
0.159553 0.077026 3.143000 82 42 25
0.159553 0.082527 3.143000 79 40 21
0.161025 0.088841 3.172000 77 43 23
0.161025 0.094394 3.172000 75 46 26
0.161025 0.099947 3.172000 74 46 24
0.161025 0.105499 3.172000 75 45 22
0.161025 0.111052 3.172000 77 43 28
0.161025 0.116604 3.172000 73 44 34
0.161025 0.122157 3.172000 69 45 35
0.161025 0.127710 3.172000 69 46 37
0.159553 0.132044 3.143000 70 44 31
0.159553 0.137546 3.143000 71 44 25
0.159553 0.143047 3.143000 73 44 28
0.159553 0.148549 3.143000 73 45 31
0.159553 0.154051 3.143000 74 44 28
0.159553 0.159553 3.143000 73 45 25
0.161025 0.166578 3.172000 72 43 28
0.161025 0.172130 3.172000 75 45 31
0.161025 0.177683 3.172000 79 43 33
0.161025 0.183235 3.172000 77 41 34
0.161025 0.188788 3.172000 76 42 28
0.161025 0.194341 3.172000 76 42 21
0.161025 0.199893 3.172000 77 42 24
0.159553 0.203567 3.143000 77 40 27
0.159553 0.209069 3.143000 78 41 19
0.159553 0.214571 3.143000 77 43 12
0.159553 0.220073 3.143000 77 43 23
0.159553 0.225575 3.143000 77 42 35
0.159553 0.231077 3.143000 77 41 29
0.161025 0.238761 3.172000 77 41 23
0.161025 0.244314 3.172000 78 41 17
0.161025 0.249867 3.172000 76 44 11
0.162497 0.257754 3.201000 74 43 15
0.162497 0.263358 3.201000 74 44 20
0.161025 0.266524 3.172000 75 43 19
0.161025 0.272077 3.172000 76 41 19
0.161025 0.277629 3.172000 78 41 25
0.161025 0.283182 3.172000 77 42 31
0.161025 0.288735 3.172000 77 43 23
0.161025 0.294287 3.172000 78 44 16
0.161025 0.299840 3.172000 79 42 18
0.161025 0.305392 3.172000 78 42 21
0.161025 0.310945 3.172000 77 41 21
0.161025 0.316498 3.172000 77 40 21
0.161025 0.322050 3.172000 78 41 24
0.161025 0.327603 3.172000 78 43 27
0.161025 0.333155 3.172000 79 43 33
0.161025 0.338708 3.172000 82 45 39
0.161025 0.344261 3.172000 86 43 28
0.161025 0.349813 3.172000 82 42 18
0.161025 0.355366 3.172000 78 43 27
0.161025 0.360918 3.172000 74 45 36
0.161025 0.366471 3.172000 71 44 27
0.161025 0.372023 3.172000 72 42 18
0.161025 0.377576 3.172000 73 43 27
0.161025 0.383128 3.172000 73 45 35
0.161025 0.388681 3.172000 74 44 27
0.162497 0.397838 3.201000 78 44 19
0.162497 0.403441 3.201000 82 41 23
0.162497 0.409045 3.201000 77 40 28
0.162497 0.414648 3.201000 73 41 35
0.162497 0.420251 3.201000 70 42 42
0.161025 0.421997 3.172000 67 40 37
0.161025 0.427549 3.172000 71 44 32
0.161025 0.433102 3.172000 76 42 33
0.161025 0.438654 3.172000 76 45 35
0.161025 0.444207 3.172000 77 43 25
0.161025 0.449760 3.172000 77 40 16
0.161025 0.455312 3.172000 78 40 17
0.161025 0.460865 3.172000 78 41 19
0.161025 0.466417 3.172000 78 42 23
0.161025 0.471970 3.172000 77 43 27
0.161025 0.477522 3.172000 77 43 26
0.161025 0.483075 3.172000 78 45 25
0.161025 0.488628 3.172000 79 44 26
0.161025 0.494180 3.172000 74 45 28
0.161025 0.499733 3.172000 69 41 26
0.161025 0.505285 3.172000 71 41 25
0.161025 0.510838 3.172000 74 42 28
0.161025 0.516391 3.172000 75 44 31
0.161025 0.521943 3.172000 76 43 21
0.161025 0.527496 3.172000 77 41 12
0.161025 0.533048 3.172000 78 41 20
0.161025 0.538601 3.172000 75 42 28
0.161025 0.544154 3.172000 73 39 26
0.161025 0.549706 3.172000 73 34 25
0.161025 0.555259 3.172000 73 39 27
0.161025 0.560811 3.172000 72 44 30
0.161025 0.566364 3.172000 72 43 26
0.161025 0.571917 3.172000 71 42 23
0.161025 0.577469 3.172000 71 40 31
0.159553 0.577691 3.143000 70 39 39
0.159553 0.583193 3.143000 70 39 31
0.159553 0.588695 3.143000 69 41 24
0.159553 0.594197 3.143000 69 40 21
0.159553 0.599699 3.143000 74 41 19
0.159553 0.605201 3.143000 79 39 16
0.159553 0.610702 3.143000 63 30 13
0.161025 0.621890 3.172000 47 21 13
0.161025 0.627442 3.172000 30 10 14
0.161025 0.632995 3.172000 13 7 11
0.159553 0.632710 3.143000 12 7 8
0.161025 0.644100 3.172000 12 7 5
0.161025 0.649653 3.172000 15 8 3
0.161025 0.655205 3.172000 19 6 3
0.161025 0.660758 3.172000 14 5 4
0.161025 0.666311 3.172000 10 4 5
0.161025 0.671863 3.172000 7 4 7
0.161025 0.677416 3.172000 5 4 5
0.162497 0.689212 3.201000 6 4 3
0.164020 0.701328 3.231000 8 3 4
0.164020 0.706983 3.231000 8 3 4
0.165594 0.719477 3.262000 8 3 9
0.165594 0.725187 3.262000 10 5 14
0.134983 0.702842 2.659000 150 135 126
0.133968 0.702175 2.639000 153 137 127
0.133968 0.706794 2.639000 154 140 127
0.131937 0.700631 2.599000 156 140 131
0.130972 0.700025 2.580000 158 142 134
0.130972 0.704541 2.580000 160 141 143
0.129957 0.703561 2.560000 161 142 151
0.129043 0.703064 2.542000 163 142 147
0.128079 0.702226 2.523000 166 141 144
0.127165 0.701601 2.505000 169 143 141
0.126251 0.700913 2.487000 165 145 138
0.125338 0.700162 2.469000 162 145 146
0.123561 0.694497 2.434000 162 144 153
0.123561 0.698758 2.434000 162 144 146
0.122698 0.698108 2.417000 162 145 139
0.122698 0.702339 2.417000 162 145 144
0.121835 0.701601 2.400000 165 146 148
0.121023 0.701096 2.384000 168 146 147
0.119347 0.695507 2.351000 166 147 146
0.117774 0.690397 2.320000 165 150 150
0.116961 0.689669 2.304000 165 151 154
0.116200 0.689186 2.289000 166 150 154
0.115438 0.688650 2.274000 165 149 154
0.114677 0.688062 2.259000 165 147 148
0.114677 0.692017 2.259000 165 144 142
0.113205 0.687036 2.230000 166 144 149
0.111733 0.681955 2.201000 166 145 157
0.111022 0.681445 2.187000 166 150 153
0.111022 0.685274 2.187000 159 152 150
0.110362 0.685006 2.174000 153 138 138
0.109651 0.684376 2.160000 145 133 126
0.108991 0.684015 2.147000 138 122 126
0.108281 0.683289 2.133000 135 120 125
0.108281 0.687022 2.133000 132 112 124
0.107621 0.686546 2.120000 129 109 123
0.106961 0.686025 2.107000 127 108 119
0.105692 0.681529 2.082000 125 107 116
0.105032 0.680896 2.069000 123 107 110
0.103813 0.676577 2.045000 120 108 105
0.103204 0.676166 2.033000 118 107 107
0.103204 0.679725 2.033000 120 106 110
0.102595 0.679250 2.021000 122 104 114
0.102595 0.682788 2.021000 121 100 118
0.101986 0.682250 2.009000 121 102 114
0.101427 0.682012 1.998000 121 105 110
0.100260 0.677619 1.975000 121 104 109
0.099701 0.677283 1.964000 119 104 109
0.099092 0.676561 1.952000 118 105 107
0.098534 0.676147 1.941000 118 108 105
0.098026 0.676043 1.931000 118 106 101
0.097468 0.675553 1.920000 116 104 98
0.096909 0.675024 1.909000 114 105 104
0.095843 0.670904 1.888000 117 106 111
0.095336 0.670638 1.878000 120 103 116
0.094320 0.666748 1.858000 121 102 122
0.093813 0.666394 1.848000 122 102 113
0.092798 0.662382 1.828000 122 101 105
0.092341 0.662305 1.819000 122 103 108
0.092341 0.665489 1.819000 121 105 112
0.092341 0.668674 1.819000 121 104 116
0.091833 0.668164 1.809000 120 102 121
0.091376 0.667991 1.800000 119 104 116
0.090868 0.667413 1.790000 118 105 111
0.090412 0.667175 1.781000 118 104 110
0.089955 0.666906 1.772000 120 105 109
0.089498 0.666605 1.763000 123 104 110
0.088584 0.662853 1.745000 122 102 111
0.088127 0.662473 1.736000 122 101 112
0.087721 0.662445 1.728000 122 102 113
0.087264 0.662004 1.719000 122 103 114
0.087264 0.665013 1.719000 124 104 114
0.165055 -1.215903 3.143000 64 56 54
0.165055 -1.210401 3.143000 65 70 53
0.165055 -1.204899 3.143000 65 55 53
0.165055 -1.199397 3.143000 65 60 48
0.165055 -1.193895 3.143000 65 59 44
0.165055 -1.188393 3.143000 66 71 45
0.165055 -1.182892 3.143000 65 61 47
0.165055 -1.177390 3.143000 64 70 48
0.165055 -1.171888 3.143000 65 61 49
0.165055 -1.166386 3.143000 67 70 48
0.165055 -1.160884 3.143000 67 60 47
0.165055 -1.155383 3.143000 68 70 45
0.165055 -1.149881 3.143000 72 59 43
0.165055 -1.144379 3.143000 77 66 46
0.165055 -1.138877 3.143000 73 63 49
0.165055 -1.133375 3.143000 69 69 49
0.163584 -1.117826 3.115000 65 66 49
0.165055 -1.122372 3.143000 62 76 51
0.165055 -1.116870 3.143000 64 64 54
0.165055 -1.111368 3.143000 66 60 54
0.165055 -1.105866 3.143000 67 59 54
0.165055 -1.100364 3.143000 67 60 53
0.165055 -1.094863 3.143000 70 60 53
0.165055 -1.089361 3.143000 73 59 57
0.165055 -1.083859 3.143000 70 58 62
0.165055 -1.078357 3.143000 68 58 61
0.165055 -1.072855 3.143000 71 57 61
0.165055 -1.067353 3.143000 74 58 58
0.165055 -1.061852 3.143000 75 61 55
0.166578 -1.066097 3.172000 77 60 52
0.166578 -1.060544 3.172000 78 60 50
0.166578 -1.054991 3.172000 78 65 53
0.166578 -1.049439 3.172000 74 62 57
0.168101 -1.053430 3.201000 70 63 56
0.166578 -1.038334 3.172000 70 65 56
0.166578 -1.032781 3.172000 71 65 59
0.166578 -1.027228 3.172000 73 63 63
0.166578 -1.021676 3.172000 75 59 64
0.165055 -1.006833 3.143000 77 62 66
0.165055 -1.001332 3.143000 79 60 67
0.165055 -0.995830 3.143000 79 61 68
0.165055 -0.990328 3.143000 79 59 65
0.165055 -0.984826 3.143000 78 63 63
0.165055 -0.979324 3.143000 77 64 66
0.166578 -0.982808 3.172000 78 64 69
0.166578 -0.977255 3.172000 79 59 67
0.166578 -0.971703 3.172000 75 60 66
0.166578 -0.966150 3.172000 71 60 64
0.166578 -0.960597 3.172000 74 61 63
0.165055 -0.946313 3.143000 78 58 62
0.165055 -0.940812 3.143000 74 62 62
0.165055 -0.935310 3.143000 70 62 66
0.165055 -0.929808 3.143000 69 63 71
0.165055 -0.924306 3.143000 69 62 67
0.165055 -0.918804 3.143000 70 61 64
0.165055 -0.913302 3.143000 71 59 59
0.165055 -0.907801 3.143000 70 61 54
0.165055 -0.902299 3.143000 70 63 57
0.165055 -0.896797 3.143000 69 63 60
0.165055 -0.891295 3.143000 69 62 58
0.165055 -0.885793 3.143000 70 64 56
0.165055 -0.880292 3.143000 72 64 55
0.165055 -0.874790 3.143000 71 60 55
0.165055 -0.869288 3.143000 71 54 54
0.165055 -0.863786 3.143000 71 59 54
0.163584 -0.850638 3.115000 72 61 54
0.163584 -0.845185 3.115000 70 61 54
0.163584 -0.839732 3.115000 69 62 55
0.165055 -0.841779 3.143000 61 57 57
0.166578 -0.843993 3.172000 53 47 48
0.166578 -0.838440 3.172000 46 28 40
0.168101 -0.840503 3.201000 40 13 29
0.169676 -0.842724 3.231000 51 21 18
0.169676 -0.837068 3.231000 62 29 19
0.169676 -0.831412 3.231000 65 34 21
0.171304 -0.833679 3.262000 68 39 27
0.171304 -0.827969 3.262000 71 40 33
0.169676 -0.814445 3.231000 73 41 28
0.169676 -0.808789 3.231000 73 42 24
0.169676 -0.803133 3.231000 72 42 26
0.169676 -0.797477 3.231000 72 41 28
0.169676 -0.791821 3.231000 73 41 31
0.169676 -0.786165 3.231000 71 41 34
0.169676 -0.780510 3.231000 69 39 32
0.169676 -0.774854 3.231000 72 41 30
0.169676 -0.769198 3.231000 75 41 36
0.169676 -0.763542 3.231000 74 41 43
0.169676 -0.757886 3.231000 73 43 27
0.169676 -0.752230 3.231000 74 39 12
0.169676 -0.746574 3.231000 75 37 24
0.169676 -0.740919 3.231000 73 40 37
0.169676 -0.735263 3.231000 72 41 38
0.169676 -0.729607 3.231000 70 40 39
0.169676 -0.723951 3.231000 68 38 41
0.169676 -0.718295 3.231000 67 39 43
0.169676 -0.712639 3.231000 66 41 43
0.169676 -0.706983 3.231000 68 39 44
0.169676 -0.701327 3.231000 71 40 32
0.169676 -0.695672 3.231000 70 41 21
0.169676 -0.690016 3.231000 70 41 28
0.169676 -0.684360 3.231000 69 43 35
0.169676 -0.678704 3.231000 68 46 29
0.169676 -0.673048 3.231000 71 44 24
0.169676 -0.667392 3.231000 73 45 28
0.169676 -0.661736 3.231000 72 43 32
0.169676 -0.656080 3.231000 71 42 40
0.169676 -0.650425 3.231000 70 44 48
0.169676 -0.644769 3.231000 69 47 27
0.169676 -0.639113 3.231000 72 44 7
0.169676 -0.633457 3.231000 76 42 15
0.169676 -0.627801 3.231000 75 43 24
0.169676 -0.622145 3.231000 75 43 33
0.169676 -0.616489 3.231000 74 42 43
0.169676 -0.610834 3.231000 74 41 23
0.169676 -0.605178 3.231000 75 42 3
0.169676 -0.599522 3.231000 76 45 14
0.169676 -0.593866 3.231000 76 43 25
0.169676 -0.588210 3.231000 76 42 26
0.169676 -0.582554 3.231000 78 44 27
0.169676 -0.576898 3.231000 79 45 30
0.169676 -0.571242 3.231000 75 47 34
0.169676 -0.565587 3.231000 71 48 23
0.169676 -0.559931 3.231000 73 47 13
0.169676 -0.554275 3.231000 75 46 21
0.169676 -0.548619 3.231000 76 43 30
0.169676 -0.542963 3.231000 77 42 32
0.169676 -0.537307 3.231000 77 40 34
0.169676 -0.531651 3.231000 76 39 33
0.169676 -0.525996 3.231000 74 42 32
0.169676 -0.520340 3.231000 72 44 38
0.169676 -0.514684 3.231000 72 43 44
0.169676 -0.509028 3.231000 73 44 31
0.169676 -0.503372 3.231000 74 44 18
0.169676 -0.497716 3.231000 75 45 24
0.169676 -0.492060 3.231000 73 42 30
0.171304 -0.491071 3.262000 72 42 30
0.169676 -0.480749 3.231000 73 42 30
0.169676 -0.475093 3.231000 75 43 34
0.169676 -0.469437 3.231000 75 44 39
0.169676 -0.463781 3.231000 76 44 32
0.169676 -0.458125 3.231000 77 43 26
0.169676 -0.452469 3.231000 79 42 22
0.169676 -0.446813 3.231000 77 44 18
0.169676 -0.441158 3.231000 75 46 18
0.169676 -0.435502 3.231000 75 45 18
0.169676 -0.429846 3.231000 76 45 21
0.169676 -0.424190 3.231000 75 44 25
0.169676 -0.418534 3.231000 74 44 24
0.169676 -0.412878 3.231000 72 45 24
0.169676 -0.407222 3.231000 71 47 18
0.169676 -0.401566 3.231000 71 47 13
0.169676 -0.395911 3.231000 72 47 20
0.169676 -0.390255 3.231000 75 45 28
0.169676 -0.384599 3.231000 78 42 31
0.169676 -0.378943 3.231000 74 40 34
0.169676 -0.373287 3.231000 70 39 33
0.169676 -0.367631 3.231000 69 42 33
0.169676 -0.361975 3.231000 68 46 35
0.169676 -0.356320 3.231000 70 45 37
0.169676 -0.350664 3.231000 72 41 35
0.169676 -0.345008 3.231000 73 45 33
0.169676 -0.339352 3.231000 75 47 22
0.169676 -0.333696 3.231000 75 46 11
0.169676 -0.328040 3.231000 75 47 18
0.169676 -0.322384 3.231000 74 45 26
0.169676 -0.316728 3.231000 74 43 26
0.169676 -0.311073 3.231000 73 44 26
0.169676 -0.305417 3.231000 71 44 28
0.169676 -0.299761 3.231000 74 43 31
0.169676 -0.294105 3.231000 76 42 31
0.169676 -0.288449 3.231000 77 41 32
0.169676 -0.282793 3.231000 78 41 34
0.169676 -0.277137 3.231000 78 39 37
0.169676 -0.271481 3.231000 78 38 31
0.169676 -0.265826 3.231000 78 41 25
0.169676 -0.260170 3.231000 77 42 29
0.169676 -0.254514 3.231000 76 40 34
0.169676 -0.248858 3.231000 74 39 35
0.169676 -0.243202 3.231000 74 40 37
0.169676 -0.237546 3.231000 74 41 40
0.169676 -0.231890 3.231000 74 41 44
0.169676 -0.226235 3.231000 75 41 36
0.169676 -0.220579 3.231000 74 41 28
0.168101 -0.212927 3.201000 74 41 28
0.168101 -0.207324 3.201000 73 41 29
0.168101 -0.201721 3.201000 72 39 20
0.168101 -0.196117 3.201000 74 42 12
0.168101 -0.190514 3.201000 77 44 21
0.168101 -0.184910 3.201000 76 43 31
0.168101 -0.179307 3.201000 76 42 29
0.168101 -0.173704 3.201000 73 41 28
0.168101 -0.168100 3.201000 71 41 28
0.168101 -0.162497 3.201000 72 42 29
0.168101 -0.156894 3.201000 72 44 35
0.168101 -0.151290 3.201000 70 44 41
0.168101 -0.145687 3.201000 68 44 34
0.168101 -0.140084 3.201000 69 43 28
0.168101 -0.134480 3.201000 70 45 26
0.168101 -0.128877 3.201000 73 43 24
0.168101 -0.123274 3.201000 76 43 25
0.168101 -0.117670 3.201000 72 41 27
0.168101 -0.112067 3.201000 68 41 27
0.168101 -0.106464 3.201000 69 42 28
0.168101 -0.100860 3.201000 71 43 19
0.168101 -0.095257 3.201000 70 41 10
0.168101 -0.089654 3.201000 70 42 19
0.168101 -0.084050 3.201000 70 40 29
0.168101 -0.078447 3.201000 71 42 36
0.169676 -0.073526 3.231000 71 42 44
0.169676 -0.067870 3.231000 71 42 29
0.168101 -0.061637 3.201000 71 43 14
0.168101 -0.056033 3.201000 72 42 17
0.168101 -0.050430 3.201000 73 41 20
0.168101 -0.044827 3.201000 75 43 27
0.168101 -0.039223 3.201000 72 41 34
0.168101 -0.033620 3.201000 70 40 34
0.168101 -0.028017 3.201000 69 40 34
0.168101 -0.022413 3.201000 69 42 31
0.168101 -0.016810 3.201000 71 40 28
0.168101 -0.011207 3.201000 72 39 28
0.168101 -0.005603 3.201000 73 40 28
0.169676 -0.000000 3.231000 75 41 22
0.169676 0.005656 3.231000 75 43 17
0.169676 0.011312 3.231000 76 45 17
0.169676 0.016968 3.231000 75 43 17
0.169676 0.022624 3.231000 75 40 14
0.169676 0.028279 3.231000 76 40 12
0.169676 0.033935 3.231000 78 42 27
0.169676 0.039591 3.231000 74 43 43
0.168101 0.044827 3.201000 70 45 36
0.168101 0.050430 3.201000 72 42 29
0.168101 0.056034 3.201000 75 42 37
0.166578 0.061078 3.172000 75 43 45
0.166578 0.066631 3.172000 76 46 39
0.166578 0.072184 3.172000 77 44 34
0.165055 0.077026 3.143000 79 41 33
0.166578 0.083289 3.172000 78 42 32
0.166578 0.088841 3.172000 77 44 33
0.166578 0.094394 3.172000 73 45 34
0.166578 0.099947 3.172000 69 47 30
0.166578 0.105499 3.172000 72 45 26
0.168101 0.112067 3.201000 75 45 28
0.168101 0.117671 3.201000 72 45 31
0.166578 0.122157 3.172000 69 46 37
0.166578 0.127710 3.172000 70 45 44
0.166578 0.133262 3.172000 70 42 36
0.166578 0.138815 3.172000 71 43 29
0.166578 0.144367 3.172000 73 44 33
0.165055 0.148549 3.143000 74 43 37
0.165055 0.154051 3.143000 75 42 33
0.165055 0.159553 3.143000 72 42 29
0.166578 0.166578 3.172000 69 42 30
0.166578 0.172130 3.172000 72 44 31
0.166578 0.177683 3.172000 75 44 26
0.166578 0.183235 3.172000 73 42 21
0.166578 0.188788 3.172000 72 41 19
0.166578 0.194341 3.172000 74 42 17
0.166578 0.199893 3.172000 76 45 24
0.166578 0.205446 3.172000 76 42 32
0.166578 0.210998 3.172000 77 43 20
0.166578 0.216551 3.172000 76 42 8
0.166578 0.222104 3.172000 76 43 16
0.166578 0.227656 3.172000 75 42 24
0.166578 0.233209 3.172000 75 41 22
0.166578 0.238761 3.172000 75 41 21
0.166578 0.244314 3.172000 76 42 14
0.166578 0.249867 3.172000 73 43 8
0.168101 0.257754 3.201000 69 42 10
0.168101 0.263358 3.201000 72 42 13
0.168101 0.268961 3.201000 75 42 17
0.166578 0.272077 3.172000 77 41 21
0.166578 0.277629 3.172000 80 40 31
0.168101 0.285771 3.201000 78 42 41
0.166578 0.288735 3.172000 77 44 31
0.166578 0.294287 3.172000 77 41 22
0.166578 0.299840 3.172000 78 39 21
0.166578 0.305392 3.172000 77 41 21
0.166578 0.310945 3.172000 76 42 21
0.166578 0.316498 3.172000 76 41 21
0.166578 0.322050 3.172000 76 42 24
0.166578 0.327603 3.172000 76 42 28
0.166578 0.333155 3.172000 76 44 29
0.166578 0.338708 3.172000 79 43 31
0.166578 0.344261 3.172000 81 40 23
0.166578 0.349813 3.172000 79 41 15
0.166578 0.355366 3.172000 76 43 20
0.166578 0.360918 3.172000 75 43 26
0.166578 0.366471 3.172000 73 45 27
0.166578 0.372023 3.172000 74 41 28
0.166578 0.377576 3.172000 75 41 28
0.166578 0.383128 3.172000 75 42 29
0.168101 0.392235 3.201000 74 44 21
0.168101 0.397838 3.201000 77 41 14
0.168101 0.403441 3.201000 79 39 20
0.168101 0.409045 3.201000 76 39 27
0.168101 0.414648 3.201000 73 39 37
0.166578 0.416444 3.172000 72 39 47
0.166578 0.421997 3.172000 71 39 37
0.166578 0.427549 3.172000 75 40 27
0.166578 0.433102 3.172000 79 39 24
0.165055 0.434644 3.143000 77 42 22
0.166578 0.444207 3.172000 74 44 14
0.166578 0.449760 3.172000 75 42 7
0.166578 0.455312 3.172000 75 41 11
0.166578 0.460865 3.172000 76 42 15
0.166578 0.466417 3.172000 77 44 22
0.166578 0.471970 3.172000 75 42 30
0.166578 0.477522 3.172000 73 41 31
0.166578 0.483075 3.172000 75 42 32
0.166578 0.488628 3.172000 77 42 31
0.166578 0.494180 3.172000 74 41 31
0.166578 0.499733 3.172000 71 40 26
0.166578 0.505285 3.172000 73 39 21
0.166578 0.510838 3.172000 74 40 21
0.166578 0.516391 3.172000 75 43 22
0.168101 0.526715 3.201000 76 44 12
0.166578 0.527496 3.172000 76 42 3
0.166578 0.533048 3.172000 76 42 11
0.166578 0.538601 3.172000 72 41 19
0.166578 0.544154 3.172000 68 41 22
0.166578 0.549706 3.172000 70 39 25
0.166578 0.555259 3.172000 71 41 23
0.166578 0.560811 3.172000 70 42 21
0.166578 0.566364 3.172000 68 44 23
0.166578 0.571917 3.172000 69 42 26
0.166578 0.577469 3.172000 71 40 28
0.165055 0.577691 3.143000 71 39 31
0.165055 0.583193 3.143000 71 39 26
0.165055 0.588695 3.143000 69 39 22
0.165055 0.594197 3.143000 67 39 22
0.165055 0.599699 3.143000 70 39 22
0.165055 0.605201 3.143000 73 42 15
0.165055 0.610702 3.143000 58 34 8
0.166578 0.621890 3.172000 43 20 9
0.166578 0.627442 3.172000 27 10 11
0.166578 0.632995 3.172000 10 7 7
0.166578 0.638548 3.172000 11 7 3
0.166578 0.644100 3.172000 12 8 2
0.168101 0.655592 3.201000 14 7 1
0.168101 0.661196 3.201000 15 5 2
0.168101 0.666799 3.201000 12 4 4
