ply
format ascii 1.0
element vertex 1232
property float x
property float y
property float z
property uchar red
property uchar green
property uchar blue
end_header
-0.231891 0.248858 3.231000 87 43 48
-0.234116 0.256956 3.262000 83 46 46
-0.231891 0.260170 3.231000 80 45 49
-0.231891 0.265826 3.231000 83 45 52
-0.231891 0.271482 3.231000 86 39 47
-0.231891 0.277138 3.231000 84 35 43
-0.231891 0.282793 3.231000 82 38 38
-0.231891 0.288449 3.231000 84 39 33
-0.231891 0.294105 3.231000 86 41 38
-0.231891 0.299761 3.231000 84 44 43
-0.231891 0.305417 3.231000 82 44 50
-0.231891 0.311073 3.231000 79 44 57
-0.231891 0.316729 3.231000 77 43 53
-0.231891 0.322384 3.231000 82 41 48
-0.231891 0.328040 3.231000 87 40 48
-0.231891 0.333696 3.231000 84 39 48
-0.231891 0.339352 3.231000 81 41 49
-0.231891 0.345008 3.231000 82 43 50
-0.231891 0.350664 3.231000 84 45 48
-0.231891 0.356320 3.231000 81 49 46
-0.229738 0.358615 3.201000 78 47 48
-0.229738 0.364218 3.201000 77 47 50
-0.229738 0.369821 3.201000 77 45 47
-0.229738 0.375425 3.201000 79 47 44
-0.229738 0.381028 3.201000 81 45 46
-0.229738 0.386631 3.201000 79 42 48
-0.229738 0.392235 3.201000 77 40 53
-0.231891 0.401567 3.231000 75 39 58
-0.229738 0.403441 3.201000 74 43 51
-0.231891 0.412878 3.231000 75 49 44
-0.231891 0.418534 3.231000 76 45 44
-0.231891 0.424190 3.231000 73 44 45
-0.231891 0.429846 3.231000 71 45 39
-0.231891 0.435502 3.231000 72 43 34
-0.231891 0.441158 3.231000 73 42 39
-0.229738 0.442665 3.201000 72 40 44
-0.229738 0.448268 3.201000 72 41 44
-0.229738 0.453872 3.201000 70 41 44
-0.229738 0.459475 3.201000 69 41 39
-0.227656 0.460865 3.172000 71 44 34
-0.227656 0.466417 3.172000 74 44 38
-0.227656 0.471970 3.172000 73 44 43
-0.227656 0.477522 3.172000 72 43 45
-0.227656 0.483075 3.172000 71 41 48
-0.229738 0.493095 3.201000 71 38 45
-0.227656 0.494180 3.172000 69 34 43
-0.229738 0.504302 3.201000 68 33 44
-0.229738 0.509905 3.201000 68 36 45
-0.229738 0.515508 3.201000 69 35 40
-0.229738 0.521112 3.201000 74 37 34
-0.229738 0.526715 3.201000 79 37 32
-0.229738 0.532318 3.201000 74 36 31
-0.229738 0.537922 3.201000 70 33 31
-0.229738 0.543525 3.201000 67 30 32
-0.229738 0.549129 3.201000 65 33 34
-0.229738 0.554732 3.201000 64 37 36
-0.229738 0.560335 3.201000 63 35 39
-0.229738 0.565938 3.201000 57 31 41
-0.229738 0.571542 3.201000 51 31 37
-0.229738 0.577145 3.201000 50 34 32
-0.229738 0.582749 3.201000 50 28 34
-0.229738 0.588352 3.201000 48 26 37
-0.229738 0.593955 3.201000 46 24 33
-0.229738 0.599559 3.201000 46 23 30
-0.227656 0.599679 3.172000 46 24 23
-0.229738 0.610765 3.201000 45 26 16
-0.227656 0.610785 3.172000 45 22 19
-0.227656 0.616337 3.172000 47 21 22
-0.227656 0.621890 3.172000 49 20 22
-0.227656 0.627442 3.172000 49 22 22
-0.227656 0.632995 3.172000 49 19 28
-0.227656 0.638548 3.172000 49 21 35
-0.227656 0.644100 3.172000 50 22 32
-0.227656 0.649653 3.172000 48 22 29
-0.227656 0.655205 3.172000 47 20 20
-0.227656 0.660758 3.172000 46 20 11
-0.227656 0.666311 3.172000 46 18 14
-0.227656 0.671863 3.172000 44 18 17
-0.227656 0.677416 3.172000 42 20 13
-0.225575 0.676724 3.143000 45 23 8
-0.225575 0.682226 3.143000 49 18 9
-0.225575 0.687728 3.143000 55 15 10
-0.225575 0.693230 3.143000 62 17 9
-0.225575 0.698731 3.143000 53 21 8
-0.225575 0.704233 3.143000 45 17 11
-0.225575 0.709735 3.143000 43 12 15
-0.225575 0.715237 3.143000 41 12 11
-0.225575 0.720739 3.143000 33 12 7
-0.225575 0.726241 3.143000 26 10 6
-0.225575 0.731743 3.143000 21 7 5
-0.225575 0.737244 3.143000 16 5 4
-0.225575 0.742746 3.143000 17 4 2
-0.225575 0.748248 3.143000 18 7 3
-0.225575 0.753750 3.143000 21 10 4
-0.227656 0.766257 3.172000 24 8 13
-0.225575 0.764753 3.143000 22 5 22
-0.229738 0.784469 3.201000 21 7 14
-0.182441 0.725313 2.542000 146 113 141
-0.179785 0.719141 2.505000 146 116 141
-0.178493 0.718327 2.487000 149 121 141
-0.178493 0.722680 2.487000 152 122 144
-0.177201 0.721772 2.469000 156 123 148
-0.177201 0.726094 2.469000 161 122 150
-0.175910 0.725091 2.451000 162 122 153
-0.174690 0.724322 2.434000 164 127 155
-0.173469 0.723494 2.417000 166 136 156
-0.172249 0.722606 2.400000 168 135 158
-0.169881 0.716814 2.367000 173 138 161
-0.169881 0.720958 2.367000 179 139 166
-0.168733 0.720200 2.351000 180 142 172
-0.167584 0.719386 2.335000 181 146 177
-0.165359 0.713868 2.304000 186 149 182
-0.164283 0.713227 2.289000 191 148 184
-0.164283 0.717234 2.289000 189 151 186
-0.163206 0.716515 2.274000 188 153 186
-0.162130 0.715743 2.259000 187 159 186
-0.161053 0.714918 2.244000 187 151 185
-0.160048 0.714362 2.230000 187 147 185
-0.158972 0.713434 2.215000 187 149 183
-0.157967 0.712777 2.201000 188 151 181
-0.156029 0.707839 2.174000 190 151 186
-0.155024 0.707062 2.160000 191 153 191
-0.154091 0.706565 2.147000 193 153 194
-0.153087 0.705691 2.133000 193 157 198
-0.152154 0.705102 2.120000 193 156 193
-0.151221 0.704466 2.107000 192 156 188
-0.151221 0.708154 2.107000 191 152 190
-0.150359 0.707789 2.095000 193 151 193
-0.149426 0.707041 2.082000 195 155 195
-0.148493 0.706248 2.069000 194 156 198
-0.147632 0.705753 2.057000 194 158 198
-0.145910 0.701077 2.033000 193 165 198
-0.145048 0.700477 2.021000 192 157 197
-0.144187 0.699834 2.009000 192 153 196
-0.143398 0.699500 1.998000 193 156 197
-0.142536 0.698775 1.986000 195 161 197
-0.141747 0.698362 1.975000 198 159 197
-0.141747 0.701819 1.975000 195 156 196
-0.139307 0.693135 1.941000 192 156 195
-0.138589 0.692944 1.931000 191 155 195
-0.137010 0.688391 1.909000 191 154 193
-0.136292 0.688109 1.899000 194 154 192
-0.136292 0.691434 1.899000 198 154 193
-0.135503 0.690733 1.888000 195 156 194
-0.134785 0.690362 1.878000 192 154 195
-0.134785 0.693650 1.878000 194 159 197
-0.134067 0.693226 1.868000 196 158 196
-0.134067 0.696496 1.868000 193 155 194
-0.132632 0.692274 1.848000 190 156 194
-0.131197 0.687982 1.828000 190 157 194
-0.130551 0.687779 1.819000 190 156 192
-0.129833 0.687164 1.809000 187 156 191
-0.129187 0.686896 1.800000 185 156 191
-0.128469 0.686214 1.790000 190 157 190
-0.127823 0.685881 1.781000 195 156 189
-0.127177 0.685517 1.772000 193 153 188
-0.216152 -0.156710 3.087000 88 34 14
-0.216152 -0.151306 3.087000 80 22 7
-0.216152 -0.145902 3.087000 97 22 1
-0.216152 -0.140499 3.087000 114 56 50
-0.216152 -0.135095 3.087000 116 88 100
-0.214191 -0.128515 3.059000 117 93 71
-0.214191 -0.123160 3.059000 83 56 43
-0.216152 -0.118883 3.087000 49 20 39
-0.216152 0.037827 3.087000 92 42 17
-0.216152 0.043230 3.087000 95 40 18
-0.216152 0.048634 3.087000 91 39 20
-0.216152 0.054038 3.087000 87 39 19
-0.216152 0.059442 3.087000 89 35 18
-0.216152 0.064846 3.087000 91 34 16
-0.216152 0.070249 3.087000 90 36 14
-0.216152 0.075653 3.087000 89 37 13
-0.216152 0.081057 3.087000 89 38 12
-0.216152 0.086461 3.087000 89 39 6
-0.216152 0.091865 3.087000 89 37 1
-0.218112 0.098151 3.115000 90 34 3
-0.218112 0.103603 3.115000 89 32 6
-0.218112 0.109056 3.115000 88 34 5
-0.216152 0.113480 3.087000 86 33 4
-0.216152 0.118884 3.087000 83 34 6
-0.216152 0.124287 3.087000 86 34 9
-0.216152 0.129691 3.087000 89 30 12
-0.216152 0.135095 3.087000 88 32 15
-0.216152 0.140499 3.087000 88 35 13
-0.216152 0.145903 3.087000 88 32 12
-0.216152 0.151306 3.087000 88 32 8
-0.216152 0.156710 3.087000 87 30 5
-0.216152 0.162114 3.087000 87 31 9
-0.216152 0.167518 3.087000 85 29 13
-0.216152 0.172922 3.087000 83 30 13
-0.216152 0.178325 3.087000 86 30 14
-0.216152 0.183729 3.087000 89 30 15
-0.216152 0.189133 3.087000 86 38 17
-0.216152 0.194537 3.087000 83 47 25
-0.216152 0.199940 3.087000 81 48 34
-0.218112 0.207207 3.115000 78 45 37
-0.218112 0.212660 3.115000 76 47 41
-0.218112 0.218112 3.115000 74 51 44
-0.220073 0.225575 3.143000 76 47 48
-0.224134 0.235341 3.201000 78 43 50
-0.226235 0.243202 3.231000 78 42 53
-0.226235 0.248858 3.231000 78 43 51
-0.226235 0.254514 3.231000 78 45 50
-0.226235 0.260170 3.231000 78 45 48
-0.226235 0.265826 3.231000 80 42 46
-0.226235 0.271482 3.231000 82 35 44
-0.226235 0.277138 3.231000 81 37 42
-0.226235 0.282793 3.231000 80 40 35
-0.226235 0.288449 3.231000 82 41 28
-0.226235 0.294105 3.231000 83 42 34
-0.226235 0.299761 3.231000 81 44 41
-0.226235 0.305417 3.231000 80 45 44
-0.226235 0.311073 3.231000 76 45 48
-0.226235 0.316729 3.231000 72 46 48
-0.226235 0.322384 3.231000 78 43 48
-0.226235 0.328040 3.231000 84 40 48
-0.224134 0.330598 3.201000 82 40 49
-0.224134 0.336201 3.201000 81 38 47
-0.224134 0.341804 3.201000 81 42 45
-0.224134 0.347408 3.201000 82 46 45
-0.224134 0.353011 3.201000 80 47 45
-0.224134 0.358615 3.201000 78 49 47
-0.224134 0.364218 3.201000 77 46 49
-0.224134 0.369821 3.201000 77 46 48
-0.224134 0.375425 3.201000 78 44 47
-0.224134 0.381028 3.201000 79 44 48
-0.224134 0.386631 3.201000 78 42 50
-0.224134 0.392235 3.201000 77 40 49
-0.224134 0.397838 3.201000 75 39 49
-0.224134 0.403441 3.201000 74 41 45
-0.224134 0.409045 3.201000 75 45 41
-0.226235 0.418534 3.231000 76 46 40
-0.226235 0.424190 3.231000 74 46 40
-0.226235 0.429846 3.231000 72 46 40
-0.224134 0.431458 3.201000 73 44 40
-0.224134 0.437061 3.201000 74 45 42
-0.224134 0.442665 3.201000 74 42 45
-0.224134 0.448268 3.201000 74 40 44
-0.224134 0.453872 3.201000 73 40 44
-0.222103 0.455312 3.172000 72 38 32
-0.222103 0.460865 3.172000 72 43 21
-0.222103 0.466417 3.172000 73 44 32
-0.222103 0.471970 3.172000 68 44 44
-0.222103 0.477522 3.172000 64 47 47
-0.222103 0.483075 3.172000 67 43 50
-0.222103 0.488628 3.172000 69 42 48
-0.222103 0.494180 3.172000 67 35 47
-0.224134 0.504302 3.201000 64 31 50
-0.224134 0.509905 3.201000 65 33 54
-0.224134 0.515508 3.201000 66 34 44
-0.224134 0.521112 3.201000 66 35 35
-0.224134 0.526715 3.201000 67 38 31
-0.224134 0.532318 3.201000 65 34 28
-0.224134 0.537922 3.201000 64 31 30
-0.224134 0.543525 3.201000 62 30 32
-0.224134 0.549129 3.201000 60 33 35
-0.224134 0.554732 3.201000 66 33 39
-0.222103 0.555259 3.172000 73 34 37
-0.222103 0.560811 3.172000 64 30 36
-0.222103 0.566364 3.172000 55 31 35
-0.222103 0.571917 3.172000 54 30 34
-0.222103 0.577469 3.172000 53 28 40
-0.222103 0.583022 3.172000 50 25 46
-0.222103 0.588574 3.172000 48 26 38
-0.222103 0.594127 3.172000 47 25 31
-0.222103 0.599679 3.172000 46 26 22
-0.222103 0.605232 3.172000 46 24 13
-0.222103 0.610785 3.172000 47 21 18
-0.222103 0.616337 3.172000 48 21 23
-0.222103 0.621890 3.172000 50 22 19
-0.222103 0.627442 3.172000 50 22 15
-0.222103 0.632995 3.172000 50 19 20
-0.222103 0.638548 3.172000 51 22 26
-0.222103 0.644100 3.172000 52 26 26
-0.222103 0.649653 3.172000 50 22 26
-0.220073 0.649215 3.143000 49 21 17
-0.220073 0.654717 3.143000 48 18 8
-0.222103 0.666311 3.172000 46 16 14
-0.222103 0.671863 3.172000 42 17 21
-0.222103 0.677416 3.172000 38 20 18
-0.220073 0.676724 3.143000 42 21 15
-0.220073 0.682226 3.143000 47 20 14
-0.220073 0.687728 3.143000 48 17 14
-0.220073 0.693230 3.143000 50 17 14
-0.220073 0.698731 3.143000 47 17 14
-0.220073 0.704233 3.143000 45 16 16
-0.220073 0.709735 3.143000 42 13 19
-0.220073 0.715237 3.143000 40 13 13
-0.220073 0.720739 3.143000 34 12 8
-0.220073 0.726241 3.143000 28 12 7
-0.220073 0.731743 3.143000 24 8 7
-0.220073 0.737244 3.143000 21 7 5
-0.220073 0.742746 3.143000 16 5 4
-0.220073 0.748248 3.143000 12 7 3
-0.220073 0.753750 3.143000 17 8 3
-0.220073 0.759252 3.143000 23 10 6
-0.220073 0.764753 3.143000 21 7 10
-0.224134 0.784469 3.201000 20 7 6
-0.175400 0.719141 2.505000 147 115 140
-0.174140 0.718327 2.487000 148 118 140
-0.174140 0.722680 2.487000 150 120 143
-0.172879 0.721772 2.469000 154 121 147
-0.172879 0.726094 2.469000 159 123 150
-0.171619 0.725091 2.451000 160 123 154
-0.170429 0.724322 2.434000 162 124 155
-0.169238 0.723494 2.417000 164 130 157
-0.168048 0.722606 2.400000 167 133 158
-0.166928 0.721962 2.384000 171 137 159
-0.165737 0.720958 2.367000 176 139 164
-0.164617 0.720200 2.351000 178 143 169
-0.163497 0.719386 2.335000 180 147 175
-0.161326 0.713868 2.304000 183 147 182
-0.160276 0.713227 2.289000 187 146 183
-0.160276 0.717234 2.289000 188 149 185
-0.159225 0.716515 2.274000 188 152 186
-0.158175 0.715743 2.259000 188 152 187
-0.157125 0.714918 2.244000 188 147 187
-0.156145 0.714362 2.230000 187 148 187
-0.155094 0.713434 2.215000 186 151 182
-0.154114 0.712777 2.201000 184 150 177
-0.152223 0.707839 2.174000 183 150 182
-0.151243 0.707062 2.160000 187 150 188
-0.150333 0.706565 2.147000 191 150 190
-0.149353 0.705691 2.133000 191 154 192
-0.148442 0.705102 2.120000 191 155 191
-0.147532 0.704466 2.107000 190 155 190
-0.146692 0.704121 2.095000 189 154 192
-0.145782 0.703397 2.082000 191 154 194
-0.145782 0.707041 2.082000 193 157 197
-0.144871 0.706248 2.069000 192 157 200
-0.144031 0.705753 2.057000 192 159 197
-0.142351 0.701077 2.033000 194 160 194
-0.141510 0.700477 2.021000 195 157 195
-0.140670 0.699834 2.009000 194 156 197
-0.139060 0.695299 1.986000 193 159 195
-0.139060 0.698775 1.986000 194 162 194
-0.138290 0.698362 1.975000 195 163 190
-0.137519 0.697910 1.964000 193 159 187
-0.136679 0.697063 1.952000 192 158 190
-0.135209 0.692944 1.931000 191 155 194
-0.133668 0.688391 1.909000 190 155 193
-0.132968 0.688109 1.899000 190 153 193
-0.132198 0.687429 1.888000 191 150 193
-0.132198 0.690733 1.888000 190 155 194
-0.131498 0.690362 1.878000 189 154 194
-0.131498 0.693650 1.878000 192 157 194
-0.131498 0.696937 1.878000 194 159 193
-0.130797 0.696496 1.868000 190 155 192
-0.130097 0.696020 1.858000 186 155 193
-0.128697 0.691745 1.838000 188 154 194
-0.127366 0.687779 1.819000 191 155 194
-0.126666 0.687164 1.809000 189 155 195
-0.126036 0.686896 1.800000 188 154 193
-0.125336 0.686214 1.790000 190 156 191
-0.124706 0.685881 1.781000 192 157 188
-0.124075 0.685517 1.772000 192 151 186
-0.210748 -0.156710 3.087000 89 36 15
-0.210748 -0.151306 3.087000 83 21 8
-0.210748 -0.145902 3.087000 101 7 1
-0.208837 -0.139224 3.059000 120 64 52
-0.208837 -0.133869 3.059000 116 108 103
-0.208837 -0.128515 3.059000 112 76 68
-0.208837 -0.123160 3.059000 87 57 34
-0.208905 -0.117844 3.060000 62 37 33
-0.210748 0.037827 3.087000 90 38 16
-0.210748 0.043230 3.087000 93 39 14
-0.210748 0.048634 3.087000 89 41 12
-0.210748 0.054038 3.087000 85 37 13
-0.210748 0.059442 3.087000 88 32 15
-0.210748 0.064846 3.087000 91 35 12
-0.208837 0.069612 3.059000 90 38 8
-0.210748 0.075653 3.087000 89 38 14
-0.210748 0.081057 3.087000 89 41 20
-0.210748 0.086461 3.087000 89 39 13
-0.210748 0.091865 3.087000 91 37 6
-0.210748 0.097268 3.087000 93 35 9
-0.210748 0.102672 3.087000 90 34 13
-0.210748 0.108076 3.087000 88 32 12
-0.210748 0.113480 3.087000 84 31 10
-0.210748 0.118884 3.087000 80 34 10
-0.210748 0.124287 3.087000 83 37 10
-0.210748 0.129691 3.087000 86 32 17
-0.210748 0.135095 3.087000 87 28 23
-0.210748 0.140499 3.087000 88 30 18
-0.208837 0.144579 3.059000 88 30 13
-0.210748 0.151306 3.087000 88 29 11
-0.210748 0.156710 3.087000 87 29 10
-0.210748 0.162114 3.087000 86 30 12
-0.210748 0.167518 3.087000 86 28 15
-0.210748 0.172922 3.087000 86 28 16
-0.210748 0.178325 3.087000 89 24 17
-0.210748 0.183729 3.087000 92 30 16
-0.210748 0.189133 3.087000 88 40 16
-0.210748 0.194537 3.087000 84 45 25
-0.210748 0.199940 3.087000 81 52 35
-0.210748 0.205344 3.087000 78 48 40
-0.212660 0.212660 3.115000 75 46 46
-0.212660 0.218112 3.115000 72 48 48
-0.212660 0.223565 3.115000 75 47 50
-0.214571 0.231077 3.143000 78 44 51
-0.218531 0.240944 3.201000 73 42 51
-0.218531 0.246548 3.201000 69 43 53
-0.218531 0.252151 3.201000 73 46 55
-0.218531 0.257754 3.201000 77 45 50
-0.218531 0.263358 3.201000 78 43 45
-0.218531 0.268961 3.201000 79 39 46
-0.218531 0.274564 3.201000 79 38 48
-0.218531 0.280168 3.201000 79 41 43
-0.218531 0.285771 3.201000 80 44 38
-0.218531 0.291374 3.201000 81 44 39
-0.218531 0.296978 3.201000 79 46 41
-0.218531 0.302581 3.201000 78 47 44
-0.218531 0.308184 3.201000 73 47 48
-0.218531 0.313788 3.201000 68 45 48
-0.218531 0.319391 3.201000 74 45 48
-0.218531 0.324994 3.201000 81 44 51
-0.218531 0.330598 3.201000 81 43 54
-0.218531 0.336201 3.201000 82 40 50
-0.218531 0.341804 3.201000 81 41 47
-0.218531 0.347408 3.201000 80 44 48
-0.218531 0.353011 3.201000 79 46 49
-0.216551 0.355366 3.172000 79 46 51
-0.216551 0.360918 3.172000 78 44 54
-0.216551 0.366471 3.172000 77 42 51
-0.216551 0.372023 3.172000 77 40 47
-0.218531 0.381028 3.201000 77 41 51
-0.218531 0.386631 3.201000 77 42 54
-0.218531 0.392235 3.201000 77 40 51
-0.218531 0.397838 3.201000 75 37 49
-0.218531 0.403441 3.201000 74 41 46
-0.218531 0.409045 3.201000 75 47 44
-0.218531 0.414648 3.201000 77 46 43
-0.218531 0.420251 3.201000 75 48 42
-0.218531 0.425855 3.201000 74 46 41
-0.218531 0.431458 3.201000 75 45 40
-0.218531 0.437061 3.201000 76 44 42
-0.218531 0.442665 3.201000 76 45 45
-0.216551 0.444207 3.172000 77 41 50
-0.216551 0.449760 3.172000 76 41 54
-0.216551 0.455312 3.172000 76 42 44
-0.214571 0.456651 3.143000 74 46 34
-0.216551 0.466417 3.172000 72 43 42
-0.216551 0.471970 3.172000 64 43 50
-0.214571 0.473157 3.143000 57 45 50
-0.216551 0.483075 3.172000 62 44 49
-0.216551 0.488628 3.172000 68 40 47
-0.214571 0.489662 3.143000 64 34 45
-0.214571 0.495164 3.143000 61 33 46
-0.216551 0.505285 3.172000 62 34 48
-0.214571 0.506168 3.143000 63 35 41
-0.214571 0.511670 3.143000 59 32 34
-0.216551 0.521943 3.172000 55 35 30
-0.216551 0.527496 3.172000 57 34 27
-0.216551 0.533048 3.172000 59 33 31
-0.216551 0.538601 3.172000 57 29 36
-0.214571 0.539179 3.143000 55 32 41
-0.214571 0.544680 3.143000 69 30 46
-0.214571 0.550182 3.143000 84 30 41
-0.214571 0.555684 3.143000 71 26 36
-0.214571 0.561186 3.143000 59 29 33
-0.214571 0.566688 3.143000 57 29 31
-0.216551 0.577469 3.172000 56 26 34
-0.214571 0.577691 3.143000 53 22 37
-0.214571 0.583193 3.143000 50 25 33
-0.214571 0.588695 3.143000 48 25 28
-0.214571 0.594197 3.143000 46 26 22
-0.216551 0.605232 3.172000 48 25 17
-0.214571 0.605201 3.143000 50 23 19
-0.214571 0.610702 3.143000 50 20 22
-0.214571 0.616204 3.143000 51 24 23
-0.214571 0.621706 3.143000 51 27 24
-0.216551 0.632995 3.172000 51 25 24
-0.216551 0.638548 3.172000 52 25 25
-0.214571 0.638211 3.143000 54 23 25
-0.214571 0.643713 3.143000 53 21 26
-0.214571 0.649215 3.143000 52 19 19
-0.216551 0.660758 3.172000 49 17 12
-0.214571 0.660219 3.143000 47 16 17
-0.214571 0.665721 3.143000 40 17 22
-0.214571 0.671222 3.143000 34 21 19
-0.214571 0.676724 3.143000 40 22 17
-0.214571 0.682226 3.143000 46 19 16
-0.214571 0.687728 3.143000 42 18 15
-0.212660 0.687054 3.115000 38 16 21
-0.212660 0.692507 3.115000 41 17 28
-0.212660 0.697960 3.115000 45 16 23
-0.214571 0.709735 3.143000 42 14 19
-0.212660 0.708865 3.115000 40 15 15
-0.212660 0.714318 3.115000 35 14 11
-0.212660 0.719771 3.115000 31 11 9
-0.212660 0.725224 3.115000 28 9 8
-0.212660 0.730676 3.115000 26 7 6
-0.212660 0.736129 3.115000 16 5 4
-0.212660 0.741582 3.115000 6 7 4
-0.212660 0.747035 3.115000 14 8 4
-0.212660 0.752488 3.115000 22 7 11
-0.212660 0.757940 3.115000 21 7 18
-0.214571 0.770255 3.143000 20 6 12
-0.212660 0.768846 3.115000 20 4 6
-0.171015 0.719141 2.505000 148 114 139
-0.169786 0.718327 2.487000 148 116 140
-0.168557 0.717450 2.469000 149 118 144
-0.168557 0.721772 2.469000 153 120 148
-0.168557 0.726094 2.469000 157 122 151
-0.167329 0.725091 2.451000 159 123 154
-0.166168 0.724322 2.434000 161 124 156
-0.165007 0.723494 2.417000 163 127 157
-0.163847 0.722606 2.400000 166 131 159
-0.163847 0.726808 2.400000 169 140 160
-0.162755 0.726136 2.384000 173 140 164
-0.161594 0.725101 2.367000 176 144 169
-0.160502 0.724315 2.351000 179 146 173
-0.157293 0.713868 2.304000 181 147 178
-0.156269 0.713227 2.289000 184 147 181
-0.156269 0.717234 2.289000 186 149 184
-0.154221 0.711788 2.259000 189 150 185
-0.154221 0.715743 2.259000 189 150 186
-0.153197 0.714918 2.244000 189 150 189
-0.152241 0.714362 2.230000 187 149 192
-0.151217 0.713434 2.215000 185 149 186
-0.150261 0.712777 2.201000 180 148 181
-0.148418 0.707839 2.174000 176 148 183
-0.147462 0.707062 2.160000 183 147 186
-0.145619 0.701958 2.133000 190 148 188
-0.145619 0.705691 2.133000 190 154 190
-0.144731 0.705102 2.120000 190 154 190
-0.143844 0.704466 2.107000 189 155 190
-0.143844 0.708154 2.107000 188 155 192
-0.143025 0.707789 2.095000 189 156 194
-0.142137 0.707041 2.082000 191 158 198
-0.141250 0.706248 2.069000 191 158 202
-0.141250 0.709870 2.069000 191 159 196
-0.140430 0.709354 2.057000 195 162 190
-0.138792 0.704636 2.033000 199 157 192
-0.137153 0.699834 2.009000 196 155 195
-0.136403 0.699500 1.998000 193 157 195
-0.135583 0.698775 1.986000 193 165 195
-0.134832 0.698362 1.975000 193 162 196
-0.134832 0.701819 1.975000 192 161 197
-0.133262 0.697063 1.952000 192 157 196
-0.131828 0.692944 1.931000 190 154 196
-0.130327 0.688391 1.909000 189 154 195
-0.129644 0.688109 1.899000 186 154 194
-0.128893 0.687429 1.888000 184 155 194
-0.128893 0.690733 1.888000 185 160 194
-0.128210 0.690362 1.878000 187 157 193
-0.128210 0.693650 1.878000 190 157 192
-0.128210 0.696937 1.878000 193 156 191
-0.127527 0.696496 1.868000 187 154 191
-0.126845 0.696020 1.858000 182 153 192
-0.126162 0.695509 1.848000 187 152 193
-0.124797 0.691182 1.828000 193 154 196
-0.123500 0.687164 1.809000 192 155 199
-0.122885 0.686896 1.800000 191 155 195
-0.121588 0.682763 1.781000 190 156 192
-0.120974 0.682415 1.772000 190 156 191
-0.120974 0.685517 1.772000 190 153 190
-0.205344 -0.162114 3.087000 94 34 28
-0.205344 -0.156710 3.087000 88 29 17
-0.203482 -0.149934 3.059000 82 21 9
-0.203482 -0.144579 3.059000 103 33 1
-0.201752 -0.138041 3.033000 124 86 53
-0.201752 -0.132732 3.033000 115 87 106
-0.201752 -0.127422 3.033000 106 46 65
-0.201752 -0.122113 3.033000 87 34 25
-0.201752 -0.116804 3.033000 69 33 28
-0.205344 0.037827 3.087000 92 40 15
-0.205344 0.043230 3.087000 93 40 9
-0.205344 0.048634 3.087000 90 38 4
-0.203482 0.053548 3.059000 88 36 8
-0.203482 0.058903 3.059000 91 35 13
-0.203482 0.064257 3.059000 94 36 8
-0.205344 0.070249 3.087000 91 36 3
-0.205344 0.075653 3.087000 89 38 15
-0.205344 0.081057 3.087000 89 40 28
-0.205344 0.086461 3.087000 89 40 19
-0.205344 0.091865 3.087000 90 36 11
-0.205344 0.097268 3.087000 91 36 16
-0.205344 0.102672 3.087000 90 32 21
-0.203482 0.107096 3.059000 89 30 19
-0.205344 0.113480 3.087000 87 31 17
-0.203482 0.117805 3.059000 86 34 14
-0.203482 0.123160 3.059000 86 34 12
-0.203482 0.128515 3.059000 86 36 22
-0.203482 0.133870 3.059000 86 31 32
-0.203482 0.139224 3.059000 87 30 23
-0.203482 0.144579 3.059000 90 28 14
-0.203482 0.149934 3.059000 92 27 14
-0.203482 0.155289 3.059000 90 28 15
-0.203482 0.160643 3.059000 87 32 16
-0.203482 0.165998 3.059000 87 31 17
-0.203482 0.171353 3.059000 87 32 18
-0.203482 0.176708 3.059000 88 27 20
-0.203482 0.182063 3.059000 90 28 17
-0.203482 0.187417 3.059000 87 37 15
-0.203482 0.192772 3.059000 85 43 26
-0.203482 0.198127 3.059000 81 48 37
-0.205344 0.205344 3.087000 78 50 44
-0.205344 0.210748 3.087000 76 47 51
-0.205344 0.216152 3.087000 74 48 52
-0.207207 0.223565 3.115000 76 47 53
-0.209069 0.231077 3.143000 79 47 51
-0.210998 0.238761 3.172000 76 44 50
-0.212927 0.246548 3.201000 73 42 55
-0.212927 0.252151 3.201000 75 45 60
-0.212927 0.257754 3.201000 77 47 52
-0.212927 0.263358 3.201000 77 43 45
-0.212927 0.268961 3.201000 78 40 49
-0.212927 0.274564 3.201000 75 41 54
-0.212927 0.280168 3.201000 73 42 51
-0.212927 0.285771 3.201000 76 43 49
-0.212927 0.291374 3.201000 79 45 45
-0.212927 0.296978 3.201000 79 47 41
-0.212927 0.302581 3.201000 79 50 44
-0.212927 0.308184 3.201000 79 46 48
-0.212927 0.313788 3.201000 78 44 48
-0.212927 0.319391 3.201000 80 45 49
-0.212927 0.324994 3.201000 81 48 54
-0.212927 0.330598 3.201000 81 43 59
-0.212927 0.336201 3.201000 81 39 54
-0.212927 0.341804 3.201000 80 42 49
-0.212927 0.347408 3.201000 79 46 51
-0.210998 0.349813 3.172000 78 46 53
-0.210998 0.355366 3.172000 78 45 56
-0.210998 0.360918 3.172000 78 43 60
-0.210998 0.366471 3.172000 78 41 54
-0.210998 0.372023 3.172000 76 41 48
-0.210998 0.377576 3.172000 74 41 53
-0.210998 0.383128 3.172000 75 42 59
-0.210998 0.388681 3.172000 77 41 54
-0.210998 0.394234 3.172000 76 40 49
-0.212927 0.403441 3.201000 76 42 48
-0.212927 0.409045 3.201000 78 45 47
-0.212927 0.414648 3.201000 80 46 45
-0.212927 0.420251 3.201000 78 47 44
-0.212927 0.425855 3.201000 75 48 42
-0.212927 0.431458 3.201000 77 44 40
-0.212927 0.437061 3.201000 80 42 43
-0.210998 0.438654 3.172000 79 42 46
-0.210998 0.444207 3.172000 78 40 55
-0.209069 0.445648 3.143000 77 41 65
-0.209069 0.451149 3.143000 77 44 56
-0.209069 0.456651 3.143000 77 43 47
-0.209069 0.462153 3.143000 78 42 52
-0.209069 0.467655 3.143000 72 44 57
-0.209069 0.473157 3.143000 67 47 53
-0.209069 0.478659 3.143000 71 45 49
-0.209069 0.484161 3.143000 76 41 46
-0.209069 0.489662 3.143000 70 37 44
-0.209069 0.495164 3.143000 65 34 43
-0.209069 0.500666 3.143000 65 36 42
-0.209069 0.506168 3.143000 65 41 38
-0.209069 0.511670 3.143000 62 35 34
-0.209069 0.517171 3.143000 59 36 30
-0.209069 0.522673 3.143000 60 38 26
-0.209069 0.528175 3.143000 62 41 33
-0.209069 0.533677 3.143000 61 35 41
-0.209069 0.539179 3.143000 60 38 47
-0.209069 0.544680 3.143000 67 33 53
-0.209069 0.550182 3.143000 75 30 44
-0.209069 0.555684 3.143000 67 30 36
-0.209069 0.561186 3.143000 60 30 32
-0.209069 0.566688 3.143000 62 28 29
-0.209069 0.572190 3.143000 65 26 29
-0.209069 0.577691 3.143000 58 27 29
-0.209069 0.583193 3.143000 51 29 27
-0.209069 0.588695 3.143000 50 26 26
-0.207207 0.588903 3.115000 48 28 23
-0.209069 0.599699 3.143000 50 27 21
-0.207207 0.599809 3.115000 52 26 21
-0.207207 0.605262 3.115000 53 25 22
-0.207207 0.610714 3.115000 54 28 28
-0.207207 0.616167 3.115000 54 26 34
-0.209069 0.627208 3.143000 55 29 29
-0.207207 0.627073 3.115000 57 25 24
-0.209069 0.638211 3.143000 60 21 25
-0.209069 0.643713 3.143000 56 19 26
-0.209069 0.649215 3.143000 53 20 21
-0.209069 0.654717 3.143000 51 18 17
-0.209069 0.660219 3.143000 50 17 20
-0.209069 0.665721 3.143000 46 19 23
-0.209069 0.671222 3.143000 41 25 21
-0.209069 0.676724 3.143000 46 21 19
-0.207207 0.676148 3.115000 51 19 18
-0.207207 0.681601 3.115000 46 18 17
-0.207207 0.687054 3.115000 42 15 29
-0.207207 0.692507 3.115000 42 16 42
-0.207207 0.697960 3.115000 43 17 31
-0.207207 0.703412 3.115000 42 16 20
-0.207207 0.708865 3.115000 41 19 17
-0.207207 0.714318 3.115000 37 14 14
-0.207207 0.719771 3.115000 34 11 11
-0.207207 0.725224 3.115000 37 9 9
-0.207207 0.730676 3.115000 41 9 6
-0.207207 0.736129 3.115000 27 7 4
-0.207207 0.741582 3.115000 13 9 4
-0.207207 0.747035 3.115000 17 8 5
-0.207207 0.752488 3.115000 21 6 15
-0.207207 0.757940 3.115000 24 8 26
-0.207207 0.763393 3.115000 27 9 18
-0.207207 0.768846 3.115000 24 6 10
-0.167827 0.724308 2.523000 146 111 138
-0.167827 0.728725 2.523000 147 114 141
-0.165433 0.722680 2.487000 149 116 145
-0.164235 0.721772 2.469000 152 119 149
-0.164235 0.726094 2.469000 156 122 152
-0.163038 0.725091 2.451000 158 121 155
-0.161907 0.724322 2.434000 160 122 156
-0.161907 0.728583 2.434000 163 125 158
-0.160776 0.727725 2.417000 165 127 160
-0.159646 0.726808 2.400000 168 137 162
-0.158581 0.726136 2.384000 171 139 165
-0.157450 0.725101 2.367000 175 142 169
-0.156386 0.724315 2.351000 178 147 172
-0.154324 0.718825 2.320000 181 146 175
-0.152262 0.713227 2.289000 183 147 179
-0.151264 0.712534 2.274000 186 147 184
-0.150266 0.711788 2.259000 188 149 185
-0.149269 0.710990 2.244000 191 152 186
-0.148337 0.710458 2.230000 193 155 191
-0.148337 0.714362 2.230000 190 151 197
-0.147340 0.713434 2.215000 188 150 191
-0.145477 0.708244 2.187000 184 152 185
-0.144612 0.707839 2.174000 180 148 184
-0.142816 0.702807 2.147000 184 146 184
-0.142816 0.706565 2.147000 188 142 186
-0.141885 0.705691 2.133000 189 149 188
-0.141020 0.705102 2.120000 190 153 189
-0.140156 0.704466 2.107000 192 154 191
-0.140156 0.708154 2.107000 194 156 193
-0.139357 0.707789 2.095000 192 158 195
-0.138493 0.707041 2.082000 190 161 199
-0.137628 0.706248 2.069000 188 159 204
-0.137628 0.709870 2.069000 186 159 195
-0.136830 0.709354 2.057000 190 158 186
-0.135233 0.704636 2.033000 195 156 190
-0.133637 0.699834 2.009000 193 154 194
-0.132905 0.699500 1.998000 192 152 195
-0.132107 0.698775 1.986000 192 160 197
-0.131375 0.698362 1.975000 193 161 202
-0.131375 0.701819 1.975000 192 159 208
-0.129845 0.697063 1.952000 192 158 203
-0.129113 0.696533 1.941000 192 156 198
-0.126985 0.688391 1.909000 193 156 197
-0.126320 0.688109 1.899000 189 155 196
-0.125588 0.687429 1.888000 186 157 195
-0.125588 0.690733 1.888000 187 157 195
-0.124923 0.690362 1.878000 188 159 193
-0.124923 0.693650 1.878000 192 157 191
-0.124923 0.696937 1.878000 196 155 190
-0.124257 0.696496 1.868000 191 153 190
-0.123592 0.696020 1.858000 186 153 191
-0.122927 0.695509 1.848000 189 154 193
-0.122262 0.694963 1.838000 192 157 198
-0.120333 0.687164 1.809000 191 156 203
-0.119734 0.686896 1.800000 191 157 198
-0.118470 0.682763 1.781000 191 157 193
-0.117872 0.682415 1.772000 190 158 194
-0.117872 0.685517 1.772000 190 157 195
-0.199940 -0.162114 3.087000 93 37 30
-0.198127 -0.155289 3.059000 87 26 9
-0.198127 -0.149934 3.059000 81 19 5
-0.196443 -0.143350 3.033000 105 21 1
-0.196443 -0.138041 3.033000 129 78 54
-0.196443 -0.132732 3.033000 114 108 108
-0.196443 -0.127422 3.033000 100 74 82
-0.196443 -0.122113 3.033000 88 1 56
-0.196443 -0.116804 3.033000 77 38 55
-0.199940 0.037827 3.087000 94 39 16
-0.199940 0.043230 3.087000 93 38 13
-0.198127 0.048193 3.059000 92 38 11
-0.198127 0.053548 3.059000 91 36 13
-0.198127 0.058903 3.059000 94 36 15
-0.198127 0.064257 3.059000 97 36 10
-0.196443 0.069020 3.033000 93 33 6
-0.198127 0.074967 3.059000 90 36 12
-0.198127 0.080322 3.059000 90 41 18
-0.198127 0.085677 3.059000 90 38 16
-0.198127 0.091031 3.059000 90 34 15
-0.198127 0.096386 3.059000 90 32 16
-0.198127 0.101741 3.059000 90 31 17
-0.198127 0.107096 3.059000 90 29 16
-0.198127 0.112451 3.059000 91 30 16
-0.198127 0.117805 3.059000 93 30 13
-0.194694 0.121026 3.006000 89 31 10
-0.194694 0.126288 3.006000 86 32 15
-0.194694 0.131550 3.006000 86 33 21
-0.198127 0.139224 3.059000 87 30 17
-0.198127 0.144579 3.059000 92 25 14
-0.198127 0.149934 3.059000 97 27 14
-0.198127 0.155289 3.059000 93 26 14
-0.198127 0.160643 3.059000 89 30 14
-0.198127 0.165998 3.059000 88 34 14
-0.198127 0.171353 3.059000 88 30 19
-0.198127 0.176708 3.059000 88 26 24
-0.198127 0.182063 3.059000 88 30 16
-0.198127 0.187417 3.059000 87 38 8
-0.198127 0.192772 3.059000 86 44 21
-0.198127 0.198127 3.059000 82 50 35
-0.198127 0.203482 3.059000 78 48 47
-0.199940 0.210748 3.087000 77 46 59
-0.199940 0.216152 3.087000 77 49 57
-0.201754 0.223565 3.115000 78 49 55
-0.201754 0.229018 3.115000 80 47 53
-0.205446 0.238761 3.172000 79 45 52
-0.205446 0.244314 3.172000 78 45 54
-0.205446 0.249867 3.172000 78 45 56
-0.205446 0.255419 3.172000 78 46 50
-0.207324 0.263358 3.201000 77 44 45
-0.207324 0.268961 3.201000 77 44 44
-0.205446 0.272077 3.172000 72 44 44
-0.205446 0.277629 3.172000 68 44 45
-0.205446 0.283182 3.172000 73 41 47
-0.207324 0.291374 3.201000 78 45 39
-0.207324 0.296978 3.201000 79 50 32
-0.205446 0.299840 3.172000 81 48 39
-0.207324 0.308184 3.201000 85 45 46
-0.207324 0.313788 3.201000 89 44 48
-0.207324 0.319391 3.201000 85 43 50
-0.207324 0.324994 3.201000 82 44 51
-0.207324 0.330598 3.201000 81 44 53
-0.207324 0.336201 3.201000 80 42 51
-0.205446 0.338708 3.172000 79 45 49
-0.205446 0.344261 3.172000 78 47 49
-0.205446 0.349813 3.172000 77 50 49
-0.205446 0.355366 3.172000 77 46 49
-0.205446 0.360918 3.172000 78 45 50
-0.205446 0.366471 3.172000 79 44 41
-0.205446 0.372023 3.172000 75 45 33
-0.205446 0.377576 3.172000 71 43 42
-0.205446 0.383128 3.172000 74 44 52
-0.205446 0.388681 3.172000 78 43 48
-0.205446 0.394234 3.172000 78 43 45
-0.205446 0.399786 3.172000 78 44 48
-0.205446 0.405339 3.172000 81 45 51
-0.205446 0.410891 3.172000 84 46 48
-0.205446 0.416444 3.172000 80 47 46
-0.205446 0.421997 3.172000 77 47 45
-0.205446 0.427549 3.172000 80 44 45
-0.205446 0.433102 3.172000 84 42 45
-0.205446 0.438654 3.172000 81 41 46
-0.203567 0.440146 3.143000 79 40 51
-0.203567 0.445648 3.143000 79 40 57
-0.203567 0.451149 3.143000 79 42 51
-0.201754 0.452583 3.115000 81 41 45
-0.203567 0.462153 3.143000 84 43 47
-0.203567 0.467655 3.143000 80 46 49
-0.203567 0.473157 3.143000 77 46 47
-0.203567 0.478659 3.143000 80 48 45
-0.203567 0.484161 3.143000 84 44 44
-0.201754 0.485300 3.115000 76 40 42
-0.201754 0.490753 3.115000 69 38 42
-0.201754 0.496206 3.115000 68 35 41
-0.201754 0.501658 3.115000 67 36 38
-0.201754 0.507111 3.115000 65 34 35
-0.203567 0.517171 3.143000 64 38 35
-0.203567 0.522673 3.143000 64 43 35
-0.203567 0.528175 3.143000 65 39 37
-0.203567 0.533677 3.143000 65 34 39
-0.203567 0.539179 3.143000 66 35 42
-0.203567 0.544680 3.143000 66 34 45
-0.203567 0.550182 3.143000 66 32 39
-0.203567 0.555684 3.143000 64 34 34
-0.203567 0.561186 3.143000 62 32 29
-0.203567 0.566688 3.143000 68 30 24
-0.203567 0.572190 3.143000 74 28 28
-0.203567 0.577691 3.143000 63 33 31
-0.201754 0.577998 3.115000 53 28 28
-0.201754 0.583451 3.115000 52 23 26
-0.201754 0.588903 3.115000 51 26 25
-0.201754 0.594356 3.115000 52 30 24
-0.201754 0.599809 3.115000 54 26 24
-0.201754 0.605262 3.115000 56 27 24
-0.201754 0.610714 3.115000 58 24 24
-0.201754 0.616167 3.115000 58 21 25
-0.201754 0.621620 3.115000 59 24 23
-0.201754 0.627073 3.115000 62 26 20
-0.201754 0.632526 3.115000 66 22 20
-0.201754 0.637979 3.115000 60 16 21
-0.201754 0.643431 3.115000 54 18 20
-0.203567 0.654717 3.143000 54 21 19
-0.203567 0.660219 3.143000 54 18 20
-0.201754 0.659790 3.115000 51 20 22
-0.201754 0.665243 3.115000 49 20 19
-0.201754 0.670695 3.115000 53 21 16
-0.201754 0.676148 3.115000 57 21 15
-0.201754 0.681601 3.115000 51 21 15
-0.201754 0.687054 3.115000 46 18 19
-0.201754 0.692507 3.115000 44 17 23
-0.201754 0.697960 3.115000 42 18 20
-0.201754 0.703412 3.115000 42 17 17
-0.201754 0.708865 3.115000 42 17 15
-0.201754 0.714318 3.115000 39 14 14
-0.201754 0.719771 3.115000 37 9 11
-0.201754 0.725224 3.115000 46 7 9
-0.201754 0.730676 3.115000 56 7 7
-0.201754 0.736129 3.115000 38 5 5
-0.201754 0.741582 3.115000 21 6 4
-0.201754 0.747035 3.115000 21 10 3
-0.201754 0.752488 3.115000 21 7 8
-0.201754 0.757940 3.115000 27 10 14
-0.201754 0.763393 3.115000 34 8 10
-0.201754 0.768846 3.115000 28 8 6
-0.199940 0.767339 3.087000 22 6 7
-0.163411 0.724308 2.523000 144 113 138
-0.162245 0.723526 2.505000 146 113 141
-0.161079 0.722680 2.487000 149 116 144
-0.159913 0.721772 2.469000 152 121 147
-0.159913 0.726094 2.469000 155 120 150
-0.158748 0.725091 2.451000 157 120 153
-0.157647 0.724322 2.434000 160 122 155
-0.156546 0.723494 2.417000 162 125 157
-0.155444 0.722606 2.400000 165 129 159
-0.155444 0.726808 2.400000 167 142 160
-0.154408 0.726136 2.384000 170 139 163
-0.153307 0.725101 2.367000 174 139 166
-0.152271 0.724315 2.351000 178 142 170
-0.150263 0.718825 2.320000 180 143 175
-0.148255 0.713227 2.289000 183 144 178
-0.147284 0.712534 2.274000 185 145 181
-0.146312 0.711788 2.259000 188 148 183
-0.145341 0.710990 2.244000 193 156 185
-0.144434 0.710458 2.230000 198 154 189
-0.144434 0.714362 2.230000 194 151 192
-0.143462 0.713434 2.215000 191 153 188
-0.142556 0.712777 2.201000 188 162 184
-0.141649 0.712072 2.187000 185 150 182
-0.139058 0.702807 2.147000 186 147 180
-0.138151 0.701958 2.133000 187 147 183
-0.138151 0.705691 2.133000 189 149 186
-0.137309 0.705102 2.120000 191 152 188
-0.136467 0.704466 2.107000 196 155 190
-0.135690 0.704121 2.095000 201 156 192
-0.134848 0.703397 2.082000 195 159 194
-0.134006 0.702626 2.069000 190 160 197
-0.134006 0.706248 2.069000 185 159 200
-0.133229 0.705753 2.057000 181 157 196
-0.132452 0.705215 2.045000 186 156 192
-0.131674 0.704636 2.033000 191 155 194
-0.130120 0.699834 2.009000 191 156 196
-0.129407 0.699500 1.998000 191 158 195
-0.128630 0.698775 1.986000 192 165 195
-0.127918 0.698362 1.975000 193 158 195
-0.127918 0.701819 1.975000 193 159 196
-0.126428 0.697063 1.952000 193 157 196
-0.125068 0.692944 1.931000 195 156 197
-0.123643 0.688391 1.909000 197 156 196
-0.122995 0.688109 1.899000 193 155 196
-0.122283 0.687429 1.888000 189 154 196
-0.122283 0.690733 1.888000 189 155 195
-0.121635 0.690362 1.878000 190 157 195
-0.121635 0.693650 1.878000 195 159 195
-0.121635 0.696937 1.878000 200 155 190
-0.120988 0.696496 1.868000 195 153 186
-0.120340 0.696020 1.858000 190 154 188
-0.119692 0.695509 1.848000 190 156 191
-0.119045 0.694963 1.838000 191 156 194
-0.117166 0.687164 1.809000 191 156 198
-0.116583 0.686896 1.800000 192 156 195
-0.115353 0.682763 1.781000 191 157 192
-0.114770 0.682415 1.772000 191 160 192
-0.114770 0.685517 1.772000 191 163 193
-0.194537 -0.162114 3.087000 92 22 32
-0.192772 -0.155289 3.059000 83 19 1
-0.191134 -0.148659 3.033000 74 8 1
-0.191134 -0.143350 3.033000 105 35 1
-0.191134 -0.138041 3.033000 136 100 56
-0.189432 -0.131550 3.006000 136 119 111
-0.189432 -0.126288 3.006000 137 141 99
-0.189432 -0.121026 3.006000 123 95 87
-0.190251 -0.116265 3.019000 110 119 82
-0.192772 0.037484 3.059000 94 37 17
-0.192772 0.042838 3.059000 93 38 17
-0.192772 0.048193 3.059000 92 35 18
-0.192772 0.053548 3.059000 92 35 17
-0.191134 0.058402 3.033000 92 37 17
-0.191134 0.063711 3.033000 93 40 13
-0.191134 0.069020 3.033000 91 35 9
-0.191134 0.074330 3.033000 90 34 9
-0.192772 0.080322 3.059000 89 37 9
-0.192772 0.085677 3.059000 88 39 14
-0.192772 0.091031 3.059000 88 34 19
-0.192772 0.096386 3.059000 88 30 16
-0.192772 0.101741 3.059000 88 28 14
-0.192772 0.107096 3.059000 88 27 14
-0.192772 0.112451 3.059000 89 26 15
-0.192772 0.117805 3.059000 90 26 12
-0.189432 0.121026 3.006000 87 30 9
-0.189432 0.126288 3.006000 83 30 9
-0.189432 0.131550 3.006000 84 31 10
-0.191134 0.138041 3.033000 86 32 12
-0.191134 0.143350 3.033000 88 28 14
-0.191134 0.148659 3.033000 91 30 14
-0.191134 0.153969 3.033000 89 28 14
-0.192772 0.160643 3.059000 87 28 12
-0.191134 0.164587 3.033000 87 30 11
-0.191134 0.169897 3.033000 87 30 19
-0.191134 0.175206 3.033000 87 27 28
-0.191134 0.180515 3.033000 87 28 14
-0.191134 0.185824 3.033000 85 38 1
-0.191134 0.191134 3.033000 84 47 17
-0.191134 0.196443 3.033000 81 49 33
-0.192772 0.203482 3.059000 79 48 50
-0.192772 0.208836 3.059000 78 49 67
-0.192772 0.214191 3.059000 77 53 62
-0.194537 0.221556 3.087000 78 50 57
-0.196301 0.229018 3.115000 80 47 55
-0.198066 0.236578 3.143000 80 46 54
-0.199893 0.244314 3.172000 81 50 53
-0.199893 0.249867 3.172000 79 48 52
-0.199893 0.255419 3.172000 78 48 48
-0.199893 0.260972 3.172000 77 47 45
-0.199893 0.266524 3.172000 77 50 40
-0.199893 0.272077 3.172000 74 49 35
-0.199893 0.277629 3.172000 72 50 40
-0.199893 0.283182 3.172000 75 45 45
-0.201721 0.291374 3.201000 78 44 34
-0.201721 0.296978 3.201000 78 48 24
-0.199893 0.299840 3.172000 79 48 34
-0.199893 0.305392 3.172000 82 46 44
-0.199893 0.310945 3.172000 84 47 48
-0.201721 0.319391 3.201000 82 44 52
-0.199893 0.322050 3.172000 80 42 49
-0.199893 0.327603 3.172000 80 43 47
-0.199893 0.333155 3.172000 80 42 48
-0.199893 0.338708 3.172000 78 47 49
-0.199893 0.344261 3.172000 77 50 47
-0.199893 0.349813 3.172000 77 48 45
-0.199893 0.355366 3.172000 76 47 42
-0.199893 0.360918 3.172000 78 45 40
-0.199893 0.366471 3.172000 80 46 29
-0.199893 0.372023 3.172000 77 45 19
-0.199893 0.377576 3.172000 75 45 32
-0.199893 0.383128 3.172000 77 44 45
-0.199893 0.388681 3.172000 80 45 43
-0.199893 0.394234 3.172000 79 45 41
-0.199893 0.399786 3.172000 79 47 48
-0.199893 0.405339 3.172000 78 47 55
-0.199893 0.410891 3.172000 77 49 52
-0.199893 0.416444 3.172000 77 48 49
-0.199893 0.421997 3.172000 76 49 49
-0.199893 0.427549 3.172000 78 45 50
-0.199893 0.433102 3.172000 80 42 48
-0.198066 0.434644 3.143000 78 41 47
-0.198066 0.440146 3.143000 77 42 48
-0.198066 0.445648 3.143000 77 43 49
-0.196301 0.447130 3.115000 78 44 46
-0.196301 0.452583 3.115000 78 42 44
-0.196301 0.458036 3.115000 79 44 42
-0.198066 0.467655 3.143000 76 45 41
-0.196301 0.468942 3.115000 74 44 41
-0.196301 0.474394 3.115000 75 46 42
-0.198066 0.484161 3.143000 77 47 41
-0.196301 0.485300 3.115000 70 44 41
-0.196301 0.490753 3.115000 63 45 41
-0.196301 0.496206 3.115000 68 38 41
-0.196301 0.501658 3.115000 73 34 39
-0.196301 0.507111 3.115000 70 36 37
-0.196301 0.512564 3.115000 67 39 40
-0.196301 0.518017 3.115000 69 39 44
-0.196301 0.523470 3.115000 71 39 41
-0.198066 0.533677 3.143000 69 36 38
-0.196301 0.534375 3.115000 68 37 37
-0.196301 0.539828 3.115000 66 35 37
-0.196301 0.545281 3.115000 65 33 35
-0.196301 0.550734 3.115000 62 34 33
-0.196301 0.556186 3.115000 60 37 26
-0.198066 0.566688 3.143000 62 30 20
-0.198066 0.572190 3.143000 65 24 27
-0.196301 0.572545 3.115000 58 27 34
-0.196301 0.577998 3.115000 52 29 30
-0.196301 0.583451 3.115000 52 25 26
-0.196301 0.588903 3.115000 53 26 26
-0.196301 0.594356 3.115000 53 26 27
-0.196301 0.599809 3.115000 54 23 26
-0.196301 0.605262 3.115000 57 23 26
-0.194537 0.605225 3.087000 60 21 21
-0.196301 0.616167 3.115000 60 22 17
-0.196301 0.621620 3.115000 60 23 17
-0.196301 0.627073 3.115000 60 24 17
-0.196301 0.632526 3.115000 59 26 16
-0.196301 0.637979 3.115000 55 21 16
-0.196301 0.643431 3.115000 52 17 19
-0.196301 0.648884 3.115000 54 18 22
-0.196301 0.654337 3.115000 56 16 21
-0.196301 0.659790 3.115000 52 18 21
-0.196301 0.665243 3.115000 49 17 17
-0.196301 0.670695 3.115000 51 21 13
-0.196301 0.676148 3.115000 53 24 13
-0.196301 0.681601 3.115000 49 23 14
-0.196301 0.687054 3.115000 45 21 9
-0.196301 0.692507 3.115000 45 20 5
-0.196301 0.697960 3.115000 44 23 10
-0.196301 0.703412 3.115000 44 20 15
-0.196301 0.708865 3.115000 44 20 14
-0.196301 0.714318 3.115000 40 13 14
-0.196301 0.719771 3.115000 36 6 12
-0.196301 0.725224 3.115000 39 8 10
-0.196301 0.730676 3.115000 43 10 8
-0.196301 0.736129 3.115000 32 5 6
-0.194537 0.734916 3.087000 21 3 3
-0.194537 0.740320 3.087000 19 5 1
-0.194537 0.745724 3.087000 17 5 2
-0.194537 0.751127 3.087000 20 7 3
-0.194537 0.756531 3.087000 24 8 2
-0.194537 0.761935 3.087000 21 8 2
-0.194537 0.767339 3.087000 18 7 3
-0.158995 0.724308 2.523000 143 116 139
-0.157860 0.723526 2.505000 145 115 142
-0.156726 0.722680 2.487000 148 117 143
-0.155592 0.721772 2.469000 151 119 145
-0.154457 0.720800 2.451000 154 120 148
-0.154457 0.725091 2.451000 156 121 152
-0.153386 0.724322 2.434000 158 124 154
-0.152315 0.723494 2.417000 162 124 157
-0.151243 0.722606 2.400000 165 124 158
-0.151243 0.726808 2.400000 167 134 159
-0.150235 0.726136 2.384000 168 138 161
-0.149164 0.725101 2.367000 172 140 163
-0.148155 0.724315 2.351000 175 142 169
-0.146202 0.718825 2.320000 177 142 176
-0.144248 0.713227 2.289000 180 141 177
-0.143303 0.712534 2.274000 182 145 179
-0.142358 0.711788 2.259000 184 145 182
-0.141412 0.710990 2.244000 188 152 185
-0.140530 0.710458 2.230000 193 156 186
-0.140530 0.714362 2.230000 191 152 188
-0.139585 0.713434 2.215000 190 150 185
-0.138703 0.712777 2.201000 185 152 183
-0.137820 0.712072 2.187000 181 146 180
-0.136119 0.707062 2.160000 182 148 177
-0.135300 0.706565 2.147000 184 152 181
-0.134417 0.705691 2.133000 186 151 185
-0.133598 0.705102 2.120000 189 151 187
-0.132779 0.704466 2.107000 192 154 189
-0.132023 0.704121 2.095000 196 156 191
-0.131204 0.703397 2.082000 193 158 193
-0.130384 0.702626 2.069000 191 161 194
-0.130384 0.706248 2.069000 188 158 196
-0.129628 0.705753 2.057000 186 156 197
-0.128872 0.705215 2.045000 188 154 198
-0.128116 0.704636 2.033000 191 154 198
-0.126603 0.699834 2.009000 190 156 199
-0.125910 0.699500 1.998000 190 160 196
-0.125154 0.698775 1.986000 189 157 193
-0.124461 0.698362 1.975000 188 149 189
-0.123767 0.697910 1.964000 189 155 185
-0.123011 0.697063 1.952000 191 157 190
-0.122318 0.696533 1.941000 193 157 196
-0.120995 0.692358 1.920000 194 157 196
-0.120301 0.691733 1.909000 190 156 197
-0.119671 0.691434 1.899000 185 152 196
-0.118978 0.690733 1.888000 188 154 196
-0.118978 0.694038 1.888000 190 158 198
-0.118348 0.693650 1.878000 193 158 200
-0.118348 0.696937 1.878000 196 155 191
-0.117718 0.696496 1.868000 192 154 182
-0.117088 0.696020 1.858000 189 156 186
-0.116457 0.695509 1.848000 190 154 190
-0.115827 0.694963 1.838000 192 155 191
-0.114000 0.687164 1.809000 192 155 193
-0.113432 0.686896 1.800000 193 156 192
-0.112235 0.682763 1.781000 195 158 192
-0.111668 0.682415 1.772000 197 162 191
-0.111668 0.685517 1.772000 194 159 191
-0.187417 -0.160643 3.059000 91 35 26
-0.185824 -0.153969 3.033000 79 23 6
-0.185824 -0.148659 3.033000 68 13 4
-0.185824 -0.143350 3.033000 105 11 1
-0.184170 -0.136812 3.006000 143 87 60
-0.184170 -0.131550 3.006000 159 128 118
-0.184170 -0.126288 3.006000 175 127 101
-0.184170 -0.121026 3.006000 159 122 85
-0.184170 -0.115764 3.006000 143 109 82
-0.185824 0.042474 3.033000 93 34 20
-0.185824 0.047783 3.033000 93 29 17
-0.185824 0.053093 3.033000 93 33 15
-0.185824 0.058402 3.033000 91 39 14
-0.185824 0.063711 3.033000 90 38 12
-0.185824 0.069020 3.033000 90 34 10
-0.185824 0.074330 3.033000 90 34 10
-0.185824 0.079639 3.033000 88 37 11
-0.185824 0.084948 3.033000 87 38 15
-0.185824 0.090258 3.033000 86 34 20
-0.185824 0.095567 3.033000 86 29 18
-0.185824 0.100876 3.033000 86 26 17
-0.185824 0.106185 3.033000 87 25 17
-0.185824 0.111495 3.033000 87 21 17
-0.185824 0.116804 3.033000 88 29 11
-0.184170 0.121026 3.006000 84 36 5
-0.184170 0.126288 3.006000 81 32 8
-0.185824 0.132732 3.033000 83 30 11
-0.185824 0.138041 3.033000 85 28 12
-0.185824 0.143350 3.033000 85 26 13
-0.185824 0.148659 3.033000 85 29 11
-0.185824 0.153969 3.033000 85 31 9
-0.185824 0.159278 3.033000 86 29 9
-0.185824 0.164587 3.033000 86 29 9
-0.185824 0.169897 3.033000 86 28 13
-0.185824 0.175206 3.033000 86 27 18
-0.185824 0.180515 3.033000 86 31 11
-0.184170 0.184170 3.006000 84 39 5
-0.185824 0.191134 3.033000 82 45 22
-0.185824 0.196443 3.033000 81 51 40
-0.185824 0.201752 3.033000 81 50 50
-0.185824 0.207061 3.033000 79 51 60
-0.187417 0.214191 3.059000 78 51 58
-0.189133 0.221556 3.087000 79 51 56
-0.189133 0.226959 3.087000 80 47 55
-0.192564 0.236578 3.143000 82 45 54
-0.192564 0.242080 3.143000 84 48 54
-0.192564 0.247582 3.143000 81 51 55
-0.194341 0.255419 3.172000 79 49 51
-0.194341 0.260972 3.172000 78 49 47
-0.194341 0.266524 3.172000 77 51 44
-0.194341 0.272077 3.172000 76 53 40
-0.194341 0.277629 3.172000 76 50 43
-0.194341 0.283182 3.172000 77 47 46
-0.194341 0.288735 3.172000 78 47 39
-0.194341 0.294287 3.172000 78 50 33
-0.194341 0.299840 3.172000 78 48 41
-0.194341 0.305392 3.172000 79 47 48
-0.194341 0.310945 3.172000 80 47 53
-0.196117 0.319391 3.201000 79 47 58
-0.194341 0.322050 3.172000 78 45 54
-0.194341 0.327603 3.172000 79 45 49
-0.194341 0.333155 3.172000 80 46 49
-0.194341 0.338708 3.172000 78 51 49
-0.194341 0.344261 3.172000 77 49 49
-0.194341 0.349813 3.172000 76 47 49
-0.192564 0.352117 3.143000 76 46 50
-0.192564 0.357618 3.143000 79 43 51
