ply
format ascii 1.0
element vertex 1258
property float x
property float y
property float z
property uchar red
property uchar green
property uchar blue
end_header
-0.747028 0.665903 1.931000 84 51 74
-0.747028 0.669283 1.931000 77 52 73
-0.742772 0.668831 1.920000 80 56 72
-0.738517 0.668341 1.909000 83 55 71
-0.734648 0.668164 1.899000 81 57 70
-0.730393 0.667599 1.888000 80 58 65
-0.726524 0.667350 1.878000 83 56 61
-0.726524 0.670638 1.878000 87 57 63
-0.722656 0.670337 1.868000 87 61 65
-0.718787 0.670000 1.858000 87 61 67
-0.711050 0.666006 1.838000 84 60 68
-0.707181 0.665582 1.828000 81 60 70
-0.699831 0.661831 1.809000 83 65 72
-0.696349 0.661689 1.800000 85 63 76
-0.692480 0.661146 1.790000 85 61 80
-0.692480 0.664280 1.790000 86 58 79
-0.688999 0.664057 1.781000 86 63 78
-0.685517 0.663804 1.772000 86 64 80
-0.682035 0.663518 1.763000 85 62 82
-0.678553 0.663202 1.754000 84 60 87
-0.675072 0.662853 1.745000 86 63 92
-0.671590 0.662473 1.736000 88 62 82
-0.668495 0.662445 1.728000 87 63 73
-0.665013 0.662004 1.719000 86 63 79
-0.665013 0.665013 1.719000 86 60 86
-0.661918 0.664914 1.711000 86 60 87
-0.658437 0.664395 1.702000 85 65 89
-1.232737 0.722832 3.201000 78 35 15
-1.221569 0.721836 3.172000 79 31 34
-1.210401 0.720739 3.143000 79 33 53
-1.199618 0.719771 3.115000 80 38 46
-1.199618 0.725224 3.115000 77 41 39
-1.188835 0.724108 3.087000 74 40 38
-1.178052 0.722896 3.059000 76 40 37
-1.168039 0.722060 3.033000 77 40 39
-1.157641 0.720895 3.006000 76 41 41
-1.147628 0.719876 2.980000 75 42 40
-1.138000 0.719009 2.955000 76 44 39
-1.128372 0.718055 2.930000 77 46 37
-1.109502 0.711090 2.881000 78 46 35
-1.109502 0.716133 2.881000 79 44 38
-1.064829 0.692139 2.765000 78 39 42
-1.064829 0.696979 2.765000 77 35 43
-1.064829 0.701819 2.765000 74 37 44
-1.064829 0.706660 2.765000 72 39 38
-1.056357 0.705838 2.743000 75 40 32
-1.048270 0.705200 2.722000 78 41 36
-1.040182 0.704487 2.701000 77 42 41
-1.032095 0.703701 2.680000 77 43 44
-1.032095 0.708392 2.680000 78 45 47
-1.024008 0.707496 2.659000 79 46 47
-1.016305 0.706794 2.639000 83 45 48
-1.008603 0.706022 2.619000 87 47 46
-0.993584 0.700025 2.580000 79 49 44
-0.985882 0.699080 2.560000 71 52 46
-0.964701 0.688446 2.505000 73 46 49
-0.964701 0.692831 2.505000 76 43 48
-0.950837 0.687196 2.469000 74 45 47
-0.943905 0.686476 2.451000 72 47 38
-0.943905 0.690767 2.451000 72 44 30
-0.937358 0.690236 2.434000 72 41 48
-0.930811 0.689646 2.417000 74 45 66
-0.924264 0.688997 2.400000 77 48 60
-0.918102 0.688577 2.384000 76 49 54
-0.911555 0.687810 2.367000 76 47 54
-0.911555 0.691954 2.367000 77 46 54
-0.887294 0.677570 2.304000 79 47 54
-0.881517 0.677165 2.289000 78 47 55
-0.875740 0.676708 2.274000 78 47 59
-0.875740 0.680689 2.274000 77 48 63
-0.869964 0.680153 2.259000 76 50 67
-0.864187 0.679565 2.244000 74 47 71
-0.858795 0.679229 2.230000 72 46 63
-0.853019 0.678538 2.215000 76 50 56
-0.853019 0.682415 2.215000 80 52 55
-0.847627 0.681955 2.201000 81 47 54
-0.842236 0.681445 2.187000 82 44 53
-0.842236 0.685274 2.187000 78 49 53
-0.837229 0.685006 2.174000 73 53 56
-0.826831 0.680257 2.147000 76 51 59
-0.816433 0.675413 2.120000 79 50 63
-0.811427 0.674960 2.107000 79 48 67
-0.811427 0.678648 2.107000 79 49 67
-0.806805 0.678450 2.095000 77 48 67
-0.801799 0.677885 2.082000 76 49 59
-0.787550 0.669418 2.045000 78 52 52
-0.787550 0.672997 2.045000 81 54 56
-0.782929 0.672607 2.033000 76 55 61
-0.778307 0.672175 2.021000 71 54 61
-0.773686 0.671700 2.009000 75 52 62
-0.771375 0.673200 2.003000 79 53 66
-0.769450 0.675017 1.998000 80 54 71
-0.764829 0.674440 1.986000 82 54 75
-0.760592 0.674161 1.975000 85 52 80
-0.751735 0.669727 1.952000 89 49 78
-0.743647 0.665903 1.931000 84 50 77
-0.743647 0.669283 1.931000 80 50 76
-0.739411 0.668831 1.920000 82 53 75
-0.735175 0.668341 1.909000 84 54 75
-0.731324 0.668164 1.899000 83 55 76
-0.731324 0.671488 1.899000 83 59 75
-0.727088 0.670904 1.888000 86 56 74
-0.723237 0.670638 1.878000 90 54 73
-0.719386 0.670337 1.868000 89 60 72
-0.715534 0.670000 1.858000 88 63 74
-0.707832 0.666006 1.838000 88 60 76
-0.700515 0.662305 1.819000 88 58 76
-0.696664 0.661831 1.809000 88 60 77
-0.693198 0.661689 1.800000 87 62 80
-0.693198 0.664840 1.800000 86 58 83
-0.689347 0.664280 1.790000 86 53 81
-0.685881 0.664057 1.781000 83 61 79
-0.682415 0.663804 1.772000 80 67 80
-0.678949 0.663518 1.763000 83 62 82
-0.675483 0.663202 1.754000 85 59 83
-0.672017 0.662853 1.745000 86 61 85
-0.668551 0.662473 1.736000 87 62 84
-0.668551 0.665512 1.736000 85 63 83
-0.662004 0.662004 1.719000 84 63 85
-0.662004 0.665013 1.719000 89 57 87
-0.658923 0.664914 1.711000 94 53 89
-0.655457 0.664395 1.702000 90 61 91
-1.238635 0.729607 3.231000 79 38 24
-1.216017 0.721836 3.172000 81 35 34
-1.216017 0.727389 3.172000 80 35 45
-1.194165 0.719771 3.115000 79 40 39
-1.183431 0.718705 3.087000 77 47 34
-1.172697 0.717541 3.059000 75 43 36
-1.162730 0.716751 3.033000 77 42 38
-1.152379 0.715633 3.006000 79 41 39
-1.142411 0.714659 2.980000 78 40 41
-1.142411 0.719876 2.980000 77 43 41
-1.132828 0.719009 2.955000 77 46 41
-1.123243 0.718055 2.930000 78 45 44
-1.113660 0.717014 2.905000 81 46 47
-1.104459 0.716133 2.881000 84 45 45
-1.095258 0.715169 2.857000 81 41 44
-1.086441 0.714372 2.834000 78 38 43
-1.068806 0.707657 2.788000 79 33 42
-1.059989 0.706660 2.765000 81 37 39
-1.051555 0.705838 2.743000 80 38 35
-1.035454 0.699759 2.701000 79 40 39
-1.035454 0.704487 2.701000 78 40 43
-1.027404 0.703701 2.680000 77 43 43
-1.019353 0.702842 2.659000 80 47 43
-1.019353 0.707496 2.659000 84 46 44
-1.011686 0.706794 2.639000 89 45 45
-0.996351 0.700631 2.599000 95 45 42
-0.989068 0.700025 2.580000 79 47 39
-0.981401 0.699080 2.560000 64 47 44
-0.974500 0.698614 2.542000 67 46 50
-0.960316 0.692831 2.505000 71 46 50
-0.946515 0.687196 2.469000 70 47 50
-0.939614 0.686476 2.451000 69 48 45
-0.939614 0.690767 2.451000 69 45 39
-0.933097 0.690236 2.434000 69 45 49
-0.926580 0.689646 2.417000 72 49 58
-0.920063 0.688997 2.400000 76 49 55
-0.913929 0.688577 2.384000 73 53 52
-0.913929 0.692750 2.384000 71 49 48
-0.907412 0.691954 2.367000 76 47 44
-0.889394 0.682275 2.320000 81 48 49
-0.883260 0.681603 2.304000 80 49 54
-0.877510 0.681172 2.289000 80 49 57
-0.877510 0.685179 2.289000 80 51 60
-0.871760 0.684670 2.274000 80 48 62
-0.866009 0.684108 2.259000 79 47 65
-0.854892 0.679229 2.230000 78 47 60
-0.849141 0.678538 2.215000 79 52 56
-0.843774 0.678102 2.201000 81 49 55
-0.838407 0.677617 2.187000 80 44 54
-0.838407 0.681445 2.187000 80 46 53
-0.833424 0.681200 2.174000 73 51 52
-0.833424 0.685006 2.174000 67 51 52
-0.823073 0.680257 2.147000 73 49 52
-0.812722 0.675413 2.120000 79 50 63
-0.812722 0.679124 2.120000 79 49 75
-0.807739 0.678648 2.107000 80 47 70
-0.803138 0.678450 2.095000 79 43 66
-0.793171 0.673652 2.069000 79 47 62
-0.783970 0.669418 2.045000 80 53 58
-0.783970 0.672997 2.045000 82 53 65
-0.779370 0.672607 2.033000 80 55 71
-0.774770 0.672175 2.021000 79 52 68
-0.770169 0.671700 2.009000 80 51 65
-0.770169 0.675217 2.009000 82 53 69
-0.765952 0.675017 1.998000 83 55 74
-0.761352 0.674440 1.986000 84 53 78
-0.757135 0.674161 1.975000 85 51 82
-0.748318 0.669727 1.952000 86 51 79
-0.740267 0.665903 1.931000 85 52 76
-0.740267 0.669283 1.931000 84 53 76
-0.736050 0.668831 1.920000 85 53 75
-0.731833 0.668341 1.909000 86 54 77
-0.728000 0.668164 1.899000 86 53 79
-0.728000 0.671488 1.899000 86 56 78
-0.719949 0.667350 1.878000 90 56 77
-0.719949 0.670638 1.878000 94 58 78
-0.716116 0.670337 1.868000 91 64 79
-0.712282 0.670000 1.858000 89 63 78
-0.708448 0.669629 1.848000 92 60 77
-0.700781 0.665582 1.828000 96 59 78
-0.693497 0.661831 1.809000 93 58 80
-0.690047 0.661689 1.800000 90 59 86
-0.686214 0.661146 1.790000 88 59 92
-0.686214 0.664280 1.790000 86 59 81
-0.682763 0.664057 1.781000 80 62 71
-0.679313 0.663804 1.772000 75 63 76
-0.672413 0.660131 1.754000 81 62 82
-0.672413 0.663202 1.754000 87 61 84
-0.668962 0.662853 1.745000 86 63 87
-0.665512 0.662473 1.736000 86 63 89
-0.665512 0.665512 1.736000 84 64 92
-0.658995 0.662004 1.719000 83 60 89
-0.658995 0.665013 1.719000 93 54 86
-0.655928 0.664914 1.711000 103 57 87
-0.652478 0.664395 1.702000 95 62 89
-1.238703 0.732994 3.246000 82 40 33
-1.210464 0.721836 3.172000 85 39 35
-1.210464 0.727389 3.172000 82 37 38
-1.199397 0.726241 3.143000 79 41 33
-1.178027 0.718705 3.087000 77 44 29
-1.167342 0.717541 3.059000 76 44 34
-1.157420 0.716751 3.033000 76 42 39
-1.147117 0.715633 3.006000 76 42 40
-1.137195 0.714659 2.980000 73 42 42
-1.137195 0.719876 2.980000 71 45 42
-1.127655 0.719009 2.955000 73 45 43
-1.118114 0.718055 2.930000 76 44 51
-1.099416 0.711090 2.881000 77 45 59
-1.090257 0.710167 2.857000 78 49 53
-1.090257 0.715169 2.857000 78 44 47
-1.081480 0.714372 2.834000 78 44 44
-1.072321 0.713241 2.810000 81 39 41
-1.055149 0.706660 2.765000 84 39 40
-1.046753 0.705838 2.743000 82 40 39
-1.038740 0.705200 2.722000 79 44 42
-1.030726 0.704487 2.701000 76 42 45
-1.022712 0.703701 2.680000 73 42 42
-1.014698 0.702842 2.659000 77 47 40
-1.007066 0.702175 2.639000 82 49 41
-0.999434 0.701438 2.619000 84 44 42
-0.991802 0.700631 2.599000 87 41 38
-0.984551 0.700025 2.580000 79 44 34
-0.976919 0.699080 2.560000 70 46 42
-0.970050 0.698614 2.542000 71 47 51
-0.955931 0.692831 2.505000 72 50 52
-0.942193 0.687196 2.469000 72 49 54
-0.935324 0.686476 2.451000 71 53 51
-0.928836 0.685976 2.434000 72 47 49
-0.928836 0.690236 2.434000 73 45 50
-0.922349 0.689646 2.417000 75 48 51
-0.915862 0.688997 2.400000 77 49 51
-0.909756 0.688577 2.384000 76 51 51
-0.909756 0.692750 2.384000 75 52 42
-0.903269 0.691954 2.367000 78 50 34
-0.885333 0.682275 2.320000 81 50 43
-0.879227 0.681603 2.304000 81 51 53
-0.879227 0.685636 2.304000 81 52 55
-0.873503 0.685179 2.289000 82 49 57
-0.867779 0.684670 2.274000 84 47 58
-0.862055 0.684108 2.259000 81 47 59
-0.856331 0.683493 2.244000 79 46 58
-0.850988 0.683133 2.230000 81 50 57
-0.839921 0.678102 2.201000 82 51 56
-0.834579 0.677617 2.187000 81 47 55
-0.834579 0.681445 2.187000 80 46 53
-0.829618 0.681200 2.174000 77 50 52
-0.824275 0.680595 2.160000 73 53 48
-0.813972 0.675821 2.133000 76 51 45
-0.809011 0.675413 2.120000 80 54 64
-0.804050 0.674960 2.107000 80 50 84
-0.804050 0.678648 2.107000 80 48 74
-0.799471 0.678450 2.095000 81 46 65
-0.794510 0.677885 2.082000 83 46 65
-0.784970 0.673346 2.057000 83 48 65
-0.780390 0.672997 2.045000 82 51 73
-0.775811 0.672607 2.033000 82 52 82
-0.771232 0.672175 2.021000 81 51 75
-0.766653 0.671700 2.009000 82 52 69
-0.766653 0.675217 2.009000 84 54 73
-0.762455 0.675017 1.998000 86 54 77
-0.757876 0.674440 1.986000 88 55 80
-0.753678 0.674161 1.975000 87 54 84
-0.744901 0.669727 1.952000 85 55 80
-0.736887 0.665903 1.931000 84 55 76
-0.736887 0.669283 1.931000 82 60 76
-0.732689 0.668831 1.920000 85 58 76
-0.728492 0.668341 1.909000 87 56 79
-0.724676 0.668164 1.899000 87 54 83
-0.720478 0.667599 1.888000 87 56 82
-0.716662 0.667350 1.878000 89 57 81
-0.716662 0.670638 1.878000 92 58 83
-0.712846 0.670337 1.868000 90 62 86
-0.709029 0.670000 1.858000 88 67 82
-0.701397 0.666006 1.838000 90 64 78
-0.694147 0.662305 1.819000 92 63 81
-0.690331 0.661831 1.809000 90 61 84
-0.690331 0.664998 1.809000 89 59 93
-0.686896 0.664840 1.800000 89 61 102
-0.683080 0.664280 1.790000 89 62 82
-0.679646 0.664057 1.781000 85 62 63
-0.672777 0.660432 1.763000 82 61 73
-0.669342 0.660131 1.754000 84 61 83
-0.669342 0.663202 1.754000 87 60 86
-0.665908 0.662853 1.745000 87 62 89
-0.662473 0.662473 1.736000 87 63 95
-0.659420 0.662445 1.728000 86 62 102
-0.655986 0.662004 1.719000 86 62 93
-0.655986 0.665013 1.719000 92 60 85
-0.649499 0.661416 1.702000 98 59 86
-0.649499 0.664395 1.702000 94 64 87
-1.368251 0.750331 3.602000 75 39 35
-1.368251 0.756636 3.602000 76 36 30
-1.354196 0.755105 3.565000 75 34 25
-1.313551 0.750601 3.458000 77 39 31
-1.239099 0.736607 3.262000 85 43 37
-1.227323 0.735263 3.231000 90 40 38
-1.215927 0.734039 3.201000 84 36 40
-1.204911 0.732942 3.172000 79 38 40
-1.183259 0.725224 3.115000 78 44 40
-1.152111 0.711442 3.033000 78 42 40
-1.152111 0.716751 3.033000 75 42 41
-1.141855 0.715633 3.006000 73 41 42
-1.131979 0.714659 2.980000 69 41 42
-1.122482 0.713836 2.955000 65 42 42
-1.122482 0.719009 2.955000 69 45 42
-1.112985 0.718055 2.930000 74 42 47
-1.094373 0.711090 2.881000 73 41 53
-1.094373 0.716133 2.881000 72 44 50
-1.085256 0.715169 2.857000 75 44 48
-1.076519 0.714372 2.834000 78 42 45
-1.067402 0.713241 2.810000 83 40 43
-1.059046 0.712538 2.788000 88 39 41
-1.050309 0.711500 2.765000 84 40 39
-1.033975 0.705200 2.722000 80 41 40
-1.025998 0.704487 2.701000 75 42 42
-1.018021 0.703701 2.680000 70 45 41
-1.018021 0.708392 2.680000 75 50 40
-1.010044 0.707496 2.659000 80 46 43
-0.994850 0.701438 2.619000 80 41 47
-0.987252 0.700631 2.599000 80 42 49
-0.980035 0.700025 2.580000 78 45 51
-0.972438 0.699080 2.560000 77 46 53
-0.958383 0.693392 2.523000 75 47 55
-0.951546 0.692831 2.505000 74 47 60
-0.937871 0.687196 2.469000 74 49 65
-0.931033 0.686476 2.451000 74 50 56
-0.931033 0.690767 2.451000 75 47 48
-0.924576 0.690236 2.434000 77 47 43
-0.924576 0.694497 2.434000 78 49 38
-0.911660 0.688997 2.400000 79 49 46
-0.905583 0.688577 2.384000 79 51 54
-0.905583 0.692750 2.384000 80 52 50
-0.899125 0.691954 2.367000 81 54 46
-0.886970 0.686686 2.335000 82 50 53
-0.881272 0.686336 2.320000 82 53 60
-0.875194 0.685636 2.304000 83 49 58
-0.869496 0.685179 2.289000 85 46 55
-0.863798 0.684670 2.274000 88 46 56
-0.858100 0.684108 2.259000 84 49 57
-0.852403 0.683493 2.244000 81 48 57
-0.847085 0.683133 2.230000 82 51 57
-0.836069 0.678102 2.201000 84 51 57
-0.830751 0.677617 2.187000 82 49 57
-0.825812 0.677395 2.174000 81 48 55
-0.825812 0.681200 2.174000 80 50 54
-0.820494 0.680595 2.160000 80 49 52
-0.810238 0.675821 2.133000 80 50 51
-0.805300 0.675413 2.120000 81 50 63
-0.800362 0.674960 2.107000 80 49 74
-0.795804 0.674783 2.095000 80 49 70
-0.795804 0.678450 2.095000 84 50 66
-0.790865 0.677885 2.082000 88 46 66
-0.785927 0.677274 2.069000 85 42 66
-0.776811 0.672997 2.045000 83 48 72
-0.772252 0.672607 2.033000 83 51 78
-0.767694 0.672175 2.021000 84 53 73
-0.763136 0.671700 2.009000 85 54 68
-0.763136 0.675217 2.009000 86 53 72
-0.758957 0.675017 1.998000 89 53 77
-0.754399 0.674440 1.986000 93 53 78
-0.750221 0.674161 1.975000 89 55 80
-0.741484 0.669727 1.952000 85 54 78
-0.733507 0.665903 1.931000 83 54 76
-0.733507 0.669283 1.931000 81 59 76
-0.729328 0.668831 1.920000 85 64 77
-0.725150 0.668341 1.909000 89 57 83
-0.721351 0.668164 1.899000 88 54 89
-0.721351 0.671488 1.899000 88 56 86
-0.717173 0.670904 1.888000 89 58 83
-0.713374 0.670638 1.878000 90 58 85
-0.709576 0.670337 1.868000 89 61 88
-0.705777 0.670000 1.858000 88 64 80
-0.698180 0.666006 1.838000 88 68 73
-0.694381 0.665582 1.828000 89 65 78
-0.690963 0.665489 1.819000 88 64 83
-0.687164 0.664998 1.809000 88 63 88
-0.683745 0.664840 1.800000 90 64 94
-0.679947 0.664280 1.790000 92 62 82
-0.676528 0.664057 1.781000 90 64 70
-0.669691 0.660432 1.763000 89 63 75
-0.666272 0.660131 1.754000 88 63 81
-0.662853 0.659799 1.745000 88 62 83
-0.659434 0.659435 1.736000 88 62 86
-0.656396 0.659420 1.728000 89 62 89
-0.656396 0.662445 1.728000 89 62 93
-0.652977 0.662004 1.719000 89 63 83
-0.652977 0.665013 1.719000 91 67 74
-0.646519 0.661416 1.702000 93 65 80
-0.646519 0.664395 1.702000 93 69 87
-1.361945 0.737720 3.602000 75 36 21
-1.361945 0.744026 3.602000 70 42 23
-1.347955 0.742624 3.565000 72 38 26
-1.347955 0.748864 3.565000 74 34 25
-1.333965 0.747268 3.528000 72 35 24
-1.320732 0.745969 3.493000 69 34 25
-1.307498 0.744547 3.458000 72 38 26
-1.294264 0.743003 3.423000 75 39 31
-1.294264 0.748995 3.423000 75 36 37
-1.269309 0.740430 3.357000 75 31 37
-1.245110 0.737843 3.293000 78 43 39
-1.233389 0.736607 3.262000 81 42 41
-1.221667 0.735263 3.231000 84 43 42
-1.210324 0.734039 3.201000 81 38 43
-1.199359 0.732942 3.172000 78 34 47
-1.177807 0.725224 3.115000 78 40 51
-1.156633 0.717541 3.059000 78 41 47
-1.146802 0.716751 3.033000 76 41 44
-1.136593 0.715633 3.006000 74 41 43
-1.126762 0.714659 2.980000 72 39 43
-1.126762 0.719876 2.980000 69 40 42
-1.117309 0.719009 2.955000 73 41 42
-1.107857 0.718055 2.930000 77 40 44
-1.089329 0.711090 2.881000 75 41 47
-1.089329 0.716133 2.881000 72 43 48
-1.080255 0.715169 2.857000 74 42 49
-1.071558 0.714372 2.834000 77 41 47
-1.062484 0.713241 2.810000 80 40 45
-1.054165 0.712538 2.788000 83 39 42
-1.045469 0.711500 2.765000 81 39 39
-1.029210 0.705200 2.722000 79 41 39
-1.029210 0.709964 2.722000 77 43 40
-1.021270 0.709215 2.701000 76 46 40
-1.013330 0.708392 2.680000 77 47 40
-1.005389 0.707496 2.659000 79 46 46
-0.990265 0.701438 2.619000 79 45 52
-0.982703 0.700631 2.599000 79 44 60
-0.975519 0.700025 2.580000 79 44 69
-0.967957 0.699080 2.560000 80 46 64
-0.953967 0.693392 2.523000 78 46 59
-0.947161 0.692831 2.505000 77 45 67
-0.933549 0.687196 2.469000 77 48 76
-0.926743 0.686476 2.451000 78 51 62
-0.920315 0.685976 2.434000 80 48 48
-0.920315 0.690236 2.434000 82 49 37
-0.920315 0.694497 2.434000 81 49 26
-0.907459 0.688997 2.400000 81 50 41
-0.901410 0.688577 2.384000 80 50 57
-0.894982 0.687810 2.367000 80 51 57
-0.888932 0.687276 2.351000 79 49 58
-0.877211 0.682275 2.320000 78 46 63
-0.871161 0.681603 2.304000 80 49 68
-0.865489 0.681172 2.289000 83 46 61
-0.865489 0.685179 2.289000 84 44 54
-0.854146 0.680153 2.259000 85 43 55
-0.854146 0.684108 2.259000 83 45 56
-0.848475 0.683493 2.244000 81 46 56
-0.843181 0.683133 2.230000 83 52 57
-0.832216 0.678102 2.201000 86 54 58
-0.826922 0.677617 2.187000 84 48 59
-0.822007 0.677395 2.174000 82 47 57
-0.822007 0.681200 2.174000 83 48 56
-0.816713 0.680595 2.160000 84 44 57
-0.811798 0.680257 2.147000 83 46 58
-0.801589 0.675413 2.120000 82 49 61
-0.796674 0.674960 2.107000 81 48 65
-0.792136 0.674783 2.095000 80 49 66
-0.792136 0.678450 2.095000 82 49 67
-0.787221 0.677885 2.082000 85 49 67
-0.777768 0.673346 2.057000 84 48 68
-0.773231 0.672997 2.045000 82 50 71
-0.768694 0.672607 2.033000 81 53 74
-0.764156 0.672175 2.021000 80 56 70
-0.759619 0.671700 2.009000 83 55 67
-0.759619 0.675217 2.009000 86 52 72
-0.755460 0.675017 1.998000 87 52 78
-0.750923 0.674440 1.986000 89 52 77
-0.746763 0.674161 1.975000 86 53 76
-0.738067 0.669727 1.952000 84 54 76
-0.730127 0.665903 1.931000 84 54 76
-0.730127 0.669283 1.931000 84 58 77
-0.725967 0.668831 1.920000 89 57 78
-0.721808 0.668341 1.909000 94 55 87
-0.718027 0.668164 1.899000 91 55 96
-0.713868 0.667599 1.888000 89 59 91
-0.710087 0.667350 1.878000 90 57 86
-0.706306 0.667067 1.868000 90 56 88
-0.706306 0.670337 1.868000 91 60 90
-0.698744 0.666394 1.848000 92 63 79
-0.691182 0.662382 1.828000 90 65 69
-0.687779 0.662305 1.819000 89 65 75
-0.687779 0.665489 1.819000 88 64 82
-0.683998 0.664998 1.809000 88 65 84
-0.680595 0.664840 1.800000 90 62 87
-0.676813 0.664280 1.790000 92 60 82
-0.673410 0.664057 1.781000 92 62 78
-0.666605 0.660432 1.763000 93 64 78
-0.663202 0.660131 1.754000 91 63 79
-0.659799 0.659799 1.745000 88 64 81
-0.659799 0.662853 1.745000 89 63 83
-0.656396 0.662473 1.736000 89 64 83
-0.653371 0.662445 1.728000 88 63 84
-0.649968 0.662004 1.719000 88 63 73
-0.649968 0.665013 1.719000 90 66 63
-0.643540 0.661416 1.702000 93 67 75
-0.643540 0.664395 1.702000 95 71 87
-1.355640 0.737720 3.602000 69 36 29
-1.341715 0.736383 3.565000 65 38 31
-1.341715 0.742624 3.565000 69 40 32
-1.341715 0.748864 3.565000 73 38 28
-1.327789 0.747268 3.528000 69 41 24
-1.314617 0.745969 3.493000 65 37 23
-1.301444 0.744547 3.458000 69 41 22
-1.301444 0.750601 3.458000 73 39 28
-1.288272 0.748995 3.423000 74 39 35
-1.263432 0.740430 3.357000 76 38 37
-1.251012 0.738970 3.324000 76 41 40
-1.239345 0.737843 3.293000 77 42 43
-1.227678 0.736607 3.262000 77 42 47
-1.216011 0.735263 3.231000 78 41 44
-1.204720 0.734039 3.201000 78 39 42
-1.193806 0.732942 3.172000 78 38 41
-1.172354 0.725224 3.115000 78 41 39
-1.141492 0.711442 3.033000 79 41 39
-1.141492 0.716751 3.033000 77 42 39
-1.131331 0.715633 3.006000 76 39 39
-1.121545 0.714659 2.980000 75 34 40
-1.121545 0.719876 2.980000 74 37 36
-1.112137 0.719009 2.955000 77 41 33
-1.102728 0.718055 2.930000 81 41 39
-1.093319 0.717014 2.905000 77 41 45
-1.084286 0.716133 2.881000 73 42 47
-1.075253 0.715169 2.857000 74 43 49
-1.066597 0.714372 2.834000 76 42 50
-1.066597 0.719333 2.834000 77 42 52
-1.049285 0.712538 2.788000 79 39 42
-1.040629 0.711500 2.765000 79 36 32
-1.032349 0.710640 2.743000 79 40 37
-1.024445 0.709964 2.722000 80 45 41
-1.016542 0.709215 2.701000 82 47 43
-1.008638 0.708392 2.680000 80 47 46
-1.000735 0.707496 2.659000 78 48 48
-0.985680 0.701438 2.619000 78 52 50
-0.978153 0.700631 2.599000 79 47 55
-0.971002 0.700025 2.580000 81 43 59
-0.963475 0.699080 2.560000 83 45 57
-0.949550 0.693392 2.523000 81 47 54
-0.942776 0.692831 2.505000 80 45 57
-0.929227 0.687196 2.469000 81 47 60
-0.922452 0.686476 2.451000 83 49 52
-0.922452 0.690767 2.451000 85 47 44
-0.922452 0.695057 2.451000 87 48 41
-0.916054 0.694497 2.434000 85 50 38
-0.903258 0.688997 2.400000 83 49 48
-0.897236 0.688577 2.384000 82 49 58
-0.890838 0.687810 2.367000 81 50 50
-0.878795 0.682599 2.335000 78 47 42
-0.873150 0.682275 2.320000 75 48 50
-0.867128 0.681603 2.304000 79 51 58
-0.861482 0.681172 2.289000 83 47 55
-0.855837 0.680689 2.274000 83 44 51
-0.850192 0.680153 2.259000 83 44 54
-0.844546 0.679565 2.244000 82 44 57
-0.839277 0.679229 2.230000 81 48 62
-0.833632 0.678538 2.215000 85 58 68
-0.828363 0.678102 2.201000 89 52 63
-0.823094 0.677617 2.187000 86 45 58
-0.818201 0.677395 2.174000 84 48 58
-0.818201 0.681200 2.174000 86 51 58
-0.812932 0.680595 2.160000 89 46 58
-0.802771 0.675821 2.133000 86 42 58
-0.797878 0.675413 2.120000 84 46 60
-0.792985 0.674960 2.107000 82 48 63
-0.788469 0.674783 2.095000 80 49 62
-0.788469 0.678450 2.095000 81 50 61
-0.783576 0.677885 2.082000 83 51 63
-0.774167 0.673346 2.057000 82 53 64
-0.769651 0.672997 2.045000 82 54 69
-0.765135 0.672607 2.033000 79 55 74
-0.760619 0.672175 2.021000 77 56 69
-0.760619 0.675712 2.021000 81 61 65
-0.756102 0.675217 2.009000 86 54 71
-0.751962 0.675017 1.998000 85 51 77
-0.747446 0.674440 1.986000 85 54 75
-0.743306 0.674161 1.975000 84 54 74
-0.734650 0.669727 1.952000 83 53 71
-0.730510 0.669351 1.941000 85 53 67
-0.726746 0.669283 1.931000 87 55 69
-0.726746 0.672663 1.931000 93 54 70
-0.718467 0.668341 1.909000 99 54 72
-0.714703 0.668164 1.899000 95 55 75
-0.710563 0.667599 1.888000 91 56 79
-0.706800 0.667350 1.878000 91 56 83
-0.703036 0.667067 1.868000 91 58 83
-0.699272 0.666748 1.858000 94 60 83
-0.695509 0.666394 1.848000 97 62 78
-0.687982 0.662382 1.828000 93 64 74
-0.684594 0.662305 1.819000 89 64 76
-0.684594 0.665489 1.819000 88 63 78
-0.680831 0.664998 1.809000 88 64 81
-0.677444 0.664840 1.800000 90 60 84
-0.673680 0.664280 1.790000 92 60 77
-0.670293 0.664057 1.781000 95 60 71
-0.663518 0.660432 1.763000 98 63 75
-0.660131 0.660131 1.754000 93 63 80
-0.656744 0.659799 1.745000 89 61 82
-0.656744 0.662853 1.745000 89 63 85
-0.650346 0.659420 1.728000 90 63 84
-0.650346 0.662445 1.728000 88 64 84
-0.646959 0.662004 1.719000 87 64 78
-0.646959 0.665013 1.719000 90 67 72
-0.640561 0.661416 1.702000 93 67 78
-0.640561 0.664395 1.702000 98 72 85
-1.349335 0.737720 3.602000 72 36 38
-1.349335 0.744026 3.602000 69 37 38
-1.335474 0.742624 3.565000 72 37 39
-1.335474 0.748864 3.565000 76 38 31
-1.335474 0.755105 3.565000 72 36 24
-1.308503 0.745969 3.493000 68 32 21
-1.295391 0.744547 3.458000 71 37 19
-1.282280 0.743003 3.423000 73 38 26
-1.269918 0.741774 3.390000 75 39 33
-1.245194 0.733152 3.324000 76 42 38
-1.233581 0.732078 3.293000 76 43 43
-1.221968 0.730897 3.262000 75 44 48
-1.221968 0.736607 3.262000 73 43 53
-1.210356 0.735263 3.231000 71 42 47
-1.199117 0.734039 3.201000 74 40 42
-1.136183 0.706133 3.033000 79 41 28
-1.136183 0.711442 3.033000 81 42 31
-1.126069 0.710371 3.006000 78 43 35
-1.126069 0.715633 3.006000 76 42 36
-1.116329 0.714659 2.980000 75 36 37
-1.116329 0.719876 2.980000 75 34 30
-1.106964 0.719009 2.955000 76 40 24
-1.097599 0.718055 2.930000 78 42 33
-1.088233 0.717014 2.905000 76 41 43
-1.079243 0.716133 2.881000 73 42 46
-1.070252 0.715169 2.857000 74 43 49
-1.070252 0.720170 2.857000 75 44 54
-1.061636 0.719333 2.834000 76 42 59
-1.052646 0.718160 2.810000 77 41 42
-1.035789 0.711500 2.765000 78 39 26
-1.019680 0.705200 2.722000 79 40 34
-1.011814 0.704487 2.701000 79 45 43
-1.003947 0.703701 2.680000 79 50 47
-0.996080 0.702842 2.659000 74 49 52
-0.996080 0.707496 2.659000 68 50 50
-0.981096 0.701438 2.619000 74 48 49
-0.966486 0.695509 2.580000 80 49 49
-0.958994 0.694599 2.560000 82 46 50
-0.952251 0.694164 2.542000 85 47 50
-0.945134 0.693392 2.523000 83 46 50
-0.938391 0.692831 2.505000 81 44 47
-0.924905 0.687196 2.469000 81 47 44
-0.918162 0.686476 2.451000 82 51 42
-0.918162 0.690767 2.451000 83 49 41
-0.918162 0.695057 2.451000 84 46 45
-0.911793 0.694497 2.434000 82 47 50
-0.905425 0.693877 2.417000 80 47 55
-0.893063 0.688577 2.384000 80 49 60
-0.886695 0.687810 2.367000 81 53 43
-0.869088 0.678214 2.320000 79 51 27
-0.863095 0.677570 2.304000 77 51 38
-0.863095 0.681603 2.304000 83 50 49
-0.857476 0.681172 2.289000 89 50 49
-0.851856 0.680689 2.274000 85 47 49
-0.846237 0.680153 2.259000 81 47 54
-0.840618 0.679565 2.244000 74 46 59
-0.835374 0.679229 2.230000 68 46 69
-0.829755 0.678538 2.215000 76 51 79
-0.824510 0.678102 2.201000 84 51 68
-0.819266 0.677617 2.187000 80 47 58
-0.814396 0.677395 2.174000 77 49 59
-0.814396 0.681200 2.174000 81 49 60
-0.809151 0.680595 2.160000 85 47 59
-0.799037 0.675821 2.133000 84 44 58
-0.794167 0.675413 2.120000 83 46 60
-0.789297 0.674960 2.107000 81 48 62
-0.784802 0.674783 2.095000 80 51 59
-0.784802 0.678450 2.095000 81 52 56
-0.779932 0.677885 2.082000 82 54 58
-0.775062 0.677274 2.069000 82 56 61
-0.766071 0.672997 2.045000 82 61 67
-0.761576 0.672607 2.033000 80 55 74
-0.757081 0.672175 2.021000 79 53 69
-0.757081 0.675712 2.021000 82 55 64
-0.748465 0.671520 1.998000 84 54 70
-0.748465 0.675017 1.998000 81 56 76
-0.743970 0.674440 1.986000 79 62 74
-0.739849 0.674161 1.975000 81 58 73
-0.731233 0.669727 1.952000 83 54 66
-0.727112 0.669351 1.941000 84 55 59
-0.723366 0.669283 1.931000 86 58 61
-0.723366 0.672663 1.931000 90 56 63
-0.719246 0.672192 1.920000 94 54 58
-0.715125 0.671683 1.909000 90 55 54
-0.707258 0.667599 1.888000 86 55 67
-0.703512 0.667350 1.878000 88 58 80
-0.699766 0.667067 1.868000 90 61 78
-0.696020 0.666748 1.858000 90 62 77
-0.688528 0.662788 1.838000 90 63 78
-0.684782 0.662382 1.828000 89 65 79
-0.681410 0.662305 1.819000 89 66 76
-0.681410 0.665489 1.819000 88 67 74
-0.677664 0.664998 1.809000 87 70 77
-0.674293 0.664840 1.800000 88 63 81
-0.670547 0.664280 1.790000 90 60 72
-0.667175 0.664057 1.781000 91 63 64
-0.660432 0.660432 1.763000 92 68 72
-0.657061 0.660131 1.754000 90 62 81
-0.653689 0.659799 1.745000 88 56 84
-0.650318 0.659435 1.736000 90 61 87
-0.647321 0.659420 1.728000 91 62 85
-0.643950 0.658995 1.719000 91 63 84
-0.640953 0.658923 1.711000 91 65 82
-0.640953 0.661918 1.711000 92 65 81
-0.637581 0.661416 1.702000 92 65 82
-0.634584 0.661273 1.694000 96 67 84
-1.343029 0.737720 3.602000 74 38 28
-1.343029 0.744026 3.602000 73 37 30
-1.329234 0.742624 3.565000 76 34 32
-1.329234 0.748864 3.565000 80 35 29
-1.329234 0.755105 3.565000 76 34 27
-1.315438 0.753443 3.528000 72 33 28
-1.302388 0.752083 3.493000 73 39 28
-1.289338 0.750601 3.458000 74 36 32
-1.251679 0.734554 3.357000 75 38 36
-1.227816 0.726314 3.293000 77 41 38
-1.216258 0.725187 3.262000 75 45 41
-1.216258 0.730897 3.262000 74 44 41
-1.216258 0.736607 3.262000 69 44 42
-1.204699 0.735263 3.231000 65 41 41
-1.193514 0.734039 3.201000 71 39 39
-1.125654 0.708158 3.019000 84 43 35
-1.120807 0.710371 3.006000 80 46 38
-1.120807 0.715633 3.006000 76 41 41
-1.111112 0.714659 2.980000 76 34 45
-1.111112 0.719876 2.980000 76 37 45
-1.101791 0.719009 2.955000 76 45 45
-1.092470 0.718055 2.930000 76 42 46
-1.074200 0.711090 2.881000 75 42 48
-1.065251 0.710167 2.857000 74 42 47
-1.065251 0.715169 2.857000 74 43 46
-1.056675 0.714372 2.834000 75 43 50
-1.056675 0.719333 2.834000 75 43 54
-1.047727 0.718160 2.810000 76 42 45
-1.030948 0.711500 2.765000 77 42 36
-1.014915 0.705200 2.722000 79 43 39
-1.007086 0.704487 2.701000 78 47 43
-0.999255 0.703701 2.680000 77 49 47
-0.991425 0.702842 2.659000 68 50 50
-0.983968 0.702175 2.639000 59 47 49
-0.976511 0.701438 2.619000 70 42 49
-0.961970 0.695509 2.580000 82 45 44
-0.954513 0.694599 2.560000 84 47 40
-0.947801 0.694164 2.542000 87 47 44
-0.940717 0.693392 2.523000 84 49 48
-0.934006 0.692831 2.505000 82 46 46
-0.927294 0.692206 2.487000 82 47 44
-0.920583 0.691518 2.469000 82 50 44
-0.913871 0.690767 2.451000 82 53 44
-0.913871 0.695057 2.451000 82 47 55
-0.907533 0.694497 2.434000 80 45 66
-0.901194 0.693877 2.417000 78 46 65
-0.894856 0.693198 2.400000 79 50 63
-0.888890 0.692750 2.384000 81 52 50
-0.870620 0.682599 2.335000 80 54 37
-0.865027 0.682275 2.320000 80 51 44
-0.859061 0.681603 2.304000 87 50 50
-0.853469 0.681172 2.289000 95 49 48
-0.847876 0.680689 2.274000 87 50 46
-0.842283 0.680153 2.259000 79 48 52
-0.836690 0.679565 2.244000 67 48 57
-0.831470 0.679229 2.230000 56 47 63
-0.825877 0.678538 2.215000 67 50 69
-0.820657 0.678102 2.201000 79 49 60
-0.815437 0.677617 2.187000 75 44 51
-0.815437 0.681445 2.187000 71 46 55
-0.810590 0.681200 2.174000 76 51 59
-0.800523 0.676498 2.147000 82 48 59
-0.790456 0.671702 2.120000 82 44 58
-0.785609 0.671271 2.107000 83 46 64
-0.781134 0.671116 2.095000 81 47 70
-0.781134 0.674783 2.095000 80 50 65
-0.776287 0.674240 2.082000 81 54 59
-0.776287 0.677885 2.082000 82 54 59
-0.771440 0.677274 2.069000 82 58 59
-0.762492 0.672997 2.045000 82 58 65
-0.758017 0.672607 2.033000 82 54 72
-0.753543 0.672175 2.021000 82 53 65
-0.749069 0.671700 2.009000 82 55 59
-0.744967 0.671520 1.998000 83 54 66
-0.744967 0.675017 1.998000 78 57 74
-0.740493 0.674440 1.986000 73 61 75
-0.740493 0.677916 1.986000 78 62 75
-0.727816 0.669727 1.952000 84 59 71
-0.723715 0.669351 1.941000 84 56 68
-0.719986 0.669283 1.931000 85 57 68
-0.715885 0.668831 1.920000 87 59 68
-0.715885 0.672192 1.920000 89 56 72
-0.711783 0.671683 1.909000 85 56 77
-0.708055 0.671488 1.899000 82 58 80
-0.700225 0.667350 1.878000 85 62 83
-0.696496 0.667067 1.868000 89 63 80
-0.689039 0.663160 1.848000 86 67 78
-0.685310 0.662788 1.838000 84 65 80
-0.681582 0.662382 1.828000 86 67 83
-0.681582 0.665582 1.828000 89 68 74
-0.678226 0.665489 1.819000 88 69 65
-0.674497 0.664998 1.809000 87 68 72
-0.671142 0.664840 1.800000 87 65 80
-0.667413 0.664280 1.790000 88 63 75
-0.664057 0.664057 1.781000 87 66 71
-0.660702 0.663804 1.772000 86 67 76
-0.653990 0.660131 1.754000 87 62 81
-0.652126 0.661311 1.749000 88 61 84
-0.650635 0.662853 1.745000 90 64 87
-0.644296 0.659420 1.728000 93 63 87
-0.640940 0.658995 1.719000 94 64 87
-0.637957 0.658923 1.711000 96 65 85
-0.637957 0.661918 1.711000 94 65 84
-0.631619 0.658307 1.694000 92 65 85
-0.631619 0.661273 1.694000 94 66 87
-1.336724 0.731415 3.602000 81 34 18
-1.336724 0.737720 3.602000 78 37 18
-1.322993 0.736383 3.565000 75 39 21
-1.322993 0.742624 3.565000 76 36 25
-1.322993 0.748864 3.565000 78 34 28
-1.309262 0.747268 3.528000 76 32 31
-1.296273 0.745969 3.493000 74 30 34
-1.296273 0.752083 3.493000 74 33 38
-1.270296 0.743003 3.423000 75 31 38
-1.233556 0.727333 3.324000 75 37 39
-1.222052 0.726314 3.293000 76 42 39
-1.210548 0.725187 3.262000 76 43 39
-1.210548 0.730897 3.262000 75 44 35
-1.199044 0.729607 3.231000 73 42 32
-1.199044 0.735263 3.231000 71 39 34
-1.182344 0.730599 3.186000 74 41 37
-1.115545 0.705109 3.006000 81 43 38
-1.120369 0.713443 3.019000 79 44 42
-1.115545 0.715633 3.006000 77 45 47
-1.115545 0.720895 3.006000 76 39 53
-1.096618 0.713836 2.955000 76 38 59
-1.096618 0.719009 2.955000 75 40 66
-1.078063 0.711928 2.905000 74 41 59
-1.069157 0.711090 2.881000 75 40 53
-1.060250 0.710167 2.857000 76 42 48
-1.051715 0.709411 2.834000 76 42 44
-1.051715 0.714372 2.834000 76 42 46
-1.042808 0.713241 2.810000 76 43 49
-1.042808 0.718160 2.810000 77 44 47
-1.034644 0.717418 2.788000 81 43 46
-1.017944 0.710640 2.743000 85 45 45
-1.002357 0.704487 2.701000 82 46 44
-0.994564 0.703701 2.680000 79 49 46
-0.986771 0.702842 2.659000 77 48 49
-0.979349 0.702175 2.639000 75 46 49
-0.971927 0.701438 2.619000 79 43 49
-0.957454 0.695509 2.580000 83 45 39
-0.950032 0.694599 2.560000 83 46 30
-0.943352 0.694164 2.542000 84 48 38
-0.936301 0.693392 2.523000 82 48 47
-0.929621 0.692831 2.505000 80 47 46
-0.922941 0.692206 2.487000 80 48 45
-0.916261 0.691518 2.469000 80 52 46
-0.909581 0.690767 2.451000 80 49 47
-0.909581 0.695057 2.451000 80 46 65
-0.903272 0.694497 2.434000 77 44 83
-0.903272 0.698758 2.434000 75 42 75
-0.896963 0.698108 2.417000 80 49 67
-0.884717 0.692750 2.384000 85 53 57
-0.866533 0.682599 2.335000 83 51 48
-0.860966 0.682275 2.320000 81 51 50
-0.855028 0.681603 2.304000 85 49 52
-0.849462 0.681172 2.289000 89 48 48
-0.843895 0.680689 2.274000 85 49 44
-0.838329 0.680153 2.259000 81 50 50
-0.832762 0.679565 2.244000 74 46 56
-0.827566 0.679229 2.230000 67 45 57
-0.822000 0.678538 2.215000 73 48 59
-0.816804 0.678102 2.201000 80 51 51
-0.811609 0.677617 2.187000 77 46 44
-0.811609 0.681445 2.187000 75 42 51
-0.806785 0.681200 2.174000 78 47 59
-0.801589 0.680595 2.160000 82 51 59
-0.791569 0.675821 2.133000 82 50 59
-0.781920 0.671271 2.107000 82 50 69
-0.777467 0.671116 2.095000 81 49 79
-0.777467 0.674783 2.095000 81 49 71
-0.772643 0.674240 2.082000 82 50 63
-0.772643 0.677885 2.082000 84 51 60
-0.767818 0.677274 2.069000 83 56 57
-0.758912 0.672997 2.045000 82 59 63
-0.754459 0.672607 2.033000 83 55 70
-0.750005 0.672175 2.021000 84 50 62
-0.745552 0.671700 2.009000 84 51 54
-0.741470 0.671520 1.998000 85 52 63
-0.741470 0.675017 1.998000 82 57 73
-0.737017 0.674440 1.986000 79 64 75
-0.732934 0.674161 1.975000 83 62 78
-0.724399 0.669727 1.952000 88 64 77
-0.724399 0.673144 1.952000 87 58 77
-0.720317 0.672749 1.941000 87 56 75
-0.716606 0.672663 1.931000 90 57 73
-0.708441 0.668341 1.909000 93 58 86
-0.704730 0.668164 1.899000 90 56 100
-0.700648 0.667599 1.888000 87 59 93
-0.696937 0.667350 1.878000 89 63 86
-0.689515 0.663496 1.858000 90 65 82
-0.689515 0.666748 1.858000 88 64 79
-0.682093 0.662788 1.838000 86 66 83
-0.678382 0.662382 1.828000 87 67 88
-0.678382 0.665582 1.828000 89 71 72
-0.675042 0.665489 1.819000 88 69 56
-0.671331 0.664998 1.809000 87 69 67
-0.667991 0.664840 1.800000 87 64 79
-0.664280 0.664280 1.790000 88 62 79
-0.660940 0.664057 1.781000 85 67 79
-0.660940 0.667175 1.781000 82 72 80
-0.654260 0.663518 1.763000 85 67 82
-0.650920 0.663202 1.754000 87 65 85
-0.644240 0.659435 1.736000 89 64 88
-0.637931 0.655986 1.719000 91 63 89
-0.637931 0.658995 1.719000 92 65 90
-0.634962 0.658923 1.711000 94 68 88
-0.631622 0.658437 1.702000 92 68 87
-0.631622 0.661416 1.702000 91 67 88
-0.625685 0.658150 1.686000 93 66 90
-1.358859 0.740610 3.679000 82 35 19
-1.344454 0.739131 3.640000 86 36 15
-1.330419 0.737720 3.602000 81 40 11
-1.330419 0.744026 3.602000 77 39 16
-1.330419 0.750331 3.602000 76 38 22
-1.316753 0.748864 3.565000 76 34 26
-1.303086 0.747268 3.528000 76 33 30
-1.290159 0.745969 3.493000 76 32 34
-1.290159 0.752083 3.493000 76 32 38
-1.264304 0.743003 3.423000 76 34 39
-1.216288 0.720550 3.293000 76 39 40
-1.216288 0.726314 3.293000 76 41 39
-1.204838 0.725187 3.262000 76 43 39
-1.204838 0.730897 3.262000 77 43 38
-1.193388 0.729607 3.231000 77 43 38
-1.193388 0.735263 3.231000 77 42 39
-1.171596 0.727389 3.172000 77 44 41
-1.116562 0.709096 3.023000 78 44 35
-1.120255 0.716751 3.033000 78 44 43
-1.110283 0.715633 3.006000 78 43 46
-1.100680 0.714659 2.980000 77 42 49
-1.091446 0.713836 2.955000 76 41 53
-1.091446 0.719009 2.955000 74 39 57
-1.082212 0.718055 2.930000 73 39 52
-1.064113 0.711090 2.881000 75 37 48
-1.055249 0.710167 2.857000 78 41 44
-1.046754 0.709411 2.834000 77 42 40
-1.046754 0.714372 2.834000 77 41 41
-1.037889 0.713241 2.810000 78 43 42
-1.029763 0.712538 2.788000 79 44 42
-1.029763 0.717418 2.788000 85 44 43
-1.013142 0.710640 2.743000 91 43 45
-1.005386 0.709964 2.722000 86 45 46
-0.997629 0.709215 2.701000 81 46 46
-0.982116 0.702842 2.659000 86 49 46
-0.974729 0.702175 2.639000 92 45 48
-0.959955 0.696081 2.599000 88 42 51
-0.952937 0.695509 2.580000 85 44 46
-0.945550 0.694599 2.560000 83 47 41
-0.938902 0.694164 2.542000 81 47 47
-0.931884 0.693392 2.523000 79 49 52
-0.925236 0.692831 2.505000 78 47 55
-0.918587 0.692206 2.487000 78 49 58
-0.911939 0.691518 2.469000 79 48 52
-0.905291 0.690767 2.451000 78 47 46
-0.899011 0.690236 2.434000 78 45 59
-0.899011 0.694497 2.434000 75 43 73
-0.899011 0.698758 2.434000 73 44 67
-0.892732 0.698108 2.417000 81 51 62
-0.886453 0.697399 2.400000 89 50 56
-0.868355 0.687276 2.351000 86 48 51
-0.856905 0.682275 2.320000 83 49 53
-0.850995 0.681603 2.304000 83 49 56
-0.845455 0.681172 2.289000 83 47 53
-0.839915 0.680689 2.274000 83 48 51
-0.834374 0.680153 2.259000 84 46 58
-0.828834 0.679565 2.244000 81 42 65
-0.823663 0.679229 2.230000 78 45 63
-0.818123 0.678538 2.215000 79 48 61
-0.812952 0.678102 2.201000 81 48 56
-0.807781 0.677617 2.187000 80 47 51
-0.807781 0.681445 2.187000 79 45 55
-0.807781 0.685274 2.187000 80 47 59
-0.797808 0.680595 2.160000 82 51 55
-0.787835 0.675821 2.133000 81 55 51
-0.778232 0.671271 2.107000 81 53 60
-0.773800 0.671116 2.095000 82 50 69
-0.773800 0.674783 2.095000 83 49 64
-0.768998 0.674240 2.082000 84 46 59
-0.768998 0.677885 2.082000 86 50 59
-0.764197 0.677274 2.069000 84 58 60
-0.755332 0.672997 2.045000 82 58 66
-0.750900 0.672607 2.033000 84 59 72
-0.742035 0.668183 2.009000 86 52 67
-0.742035 0.671700 2.009000 87 48 63
-0.737972 0.671520 1.998000 88 51 68
-0.733540 0.670963 1.986000 87 55 74
-0.733540 0.674440 1.986000 86 59 77
-0.725414 0.670407 1.964000 89 61 80
-0.720982 0.669727 1.952000 92 59 81
-0.716919 0.669351 1.941000 90 58 83
-0.716919 0.672749 1.941000 89 58 79
-0.713226 0.672663 1.931000 93 58 74
-0.705100 0.668341 1.909000 98 56 82
-0.701406 0.668164 1.899000 95 54 89
-0.697343 0.667599 1.888000 93 59 86
-0.693650 0.667350 1.878000 92 66 83
-0.689956 0.667067 1.868000 92 63 81
-0.686263 0.666748 1.858000 90 60 79
-0.682569 0.666394 1.848000 89 63 82
-0.678876 0.666006 1.838000 89 67 84
-0.675182 0.665582 1.828000 89 66 75
-0.671858 0.665489 1.819000 88 67 66
-0.668164 0.664998 1.809000 87 65 74
-0.664840 0.664840 1.800000 87 63 83
-0.661147 0.664280 1.790000 88 63 82
-0.657822 0.664057 1.781000 83 70 82
-0.657822 0.667175 1.781000 79 71 82
-0.651174 0.663518 1.763000 83 69 83
-0.647850 0.663202 1.754000 87 66 85
-0.644526 0.662853 1.745000 88 64 87
-0.638246 0.659420 1.728000 90 64 88
-0.634922 0.658995 1.719000 91 67 89
-0.631967 0.658923 1.711000 92 69 89
-0.631967 0.661918 1.711000 91 72 89
-0.628643 0.661416 1.702000 91 68 91
-0.625688 0.661273 1.694000 93 65 94
-1.352419 0.740610 3.679000 79 38 19
-1.338082 0.739131 3.640000 81 37 11
-1.324113 0.737720 3.602000 78 40 4
-1.324113 0.744026 3.602000 76 42 11
-1.324113 0.750331 3.602000 74 37 19
-1.310512 0.748864 3.565000 72 32 24
-1.296911 0.747268 3.528000 74 34 29
-1.284044 0.745969 3.493000 76 34 33
-1.284044 0.752083 3.493000 77 32 38
-1.234050 0.728677 3.357000 78 34 39
-1.210523 0.720550 3.293000 77 37 41
-1.210523 0.726314 3.293000 76 41 40
-1.199128 0.725187 3.262000 75 42 39
-1.199128 0.730897 3.262000 74 44 41
-1.187732 0.735263 3.231000 78 42 45
-1.166043 0.727389 3.172000 78 42 46
-1.117887 0.713318 3.041000 77 45 32
-1.114946 0.716751 3.033000 79 43 45
-1.105021 0.715633 3.006000 81 42 45
-1.095463 0.714659 2.980000 78 43 45
-1.095463 0.719876 2.980000 76 46 47
-1.086273 0.719009 2.955000 73 42 49
-1.077083 0.718055 2.930000 71 39 46
-1.059070 0.711090 2.881000 73 42 43
-1.050248 0.710167 2.857000 76 45 40
-1.050248 0.715169 2.857000 78 42 37
-1.041793 0.714372 2.834000 80 37 36
-1.032970 0.713241 2.810000 79 41 35
-1.024883 0.712538 2.788000 78 45 38
-1.016428 0.711500 2.765000 81 43 41
-1.008341 0.710640 2.743000 85 41 45
-1.000621 0.709964 2.722000 81 43 49
-0.992901 0.709215 2.701000 77 42 46
-0.985181 0.708392 2.680000 82 45 43
-0.970110 0.702175 2.639000 88 46 48
-0.948421 0.690992 2.580000 85 43 53
-0.948421 0.695509 2.580000 83 44 53
-0.941069 0.694599 2.560000 82 45 53
-0.934452 0.694164 2.542000 80 45 55
-0.927467 0.693392 2.523000 78 45 58
-0.920851 0.692831 2.505000 76 44 64
-0.914234 0.692206 2.487000 77 45 71
-0.907617 0.691518 2.469000 79 44 58
-0.901000 0.690767 2.451000 78 45 46
-0.901000 0.695057 2.451000 77 46 54
-0.894751 0.694497 2.434000 76 42 63
-0.894751 0.698758 2.434000 74 43 60
-0.894751 0.703018 2.434000 79 48 57
-0.888501 0.702339 2.417000 84 51 55
-0.864239 0.687276 2.351000 83 48 54
-0.852844 0.682275 2.320000 81 49 57
-0.841448 0.677165 2.289000 82 47 60
-0.835934 0.676708 2.274000 82 45 59
-0.830420 0.676199 2.259000 84 47 59
-0.830420 0.680153 2.259000 86 47 67
-0.824906 0.679565 2.244000 83 46 75
-0.819759 0.679229 2.230000 80 46 69
-0.814245 0.678538 2.215000 80 47 63
-0.809099 0.678102 2.201000 81 48 60
-0.809099 0.681955 2.201000 81 48 58
-0.803952 0.681445 2.187000 82 47 59
-0.799173 0.681200 2.174000 81 49 60
-0.794027 0.680595 2.160000 81 54 52
-0.789248 0.680257 2.147000 80 56 44
-0.779323 0.675413 2.120000 78 60 51
-0.770133 0.671116 2.095000 79 53 59
-0.770133 0.674783 2.095000 81 51 57
-0.765354 0.674240 2.082000 81 48 56
-0.765354 0.677885 2.082000 81 46 59
-0.760575 0.677274 2.069000 82 53 63
-0.756164 0.676947 2.057000 82 59 69
-0.747341 0.672607 2.033000 84 56 75
-0.742930 0.672175 2.021000 87 53 73
-0.738519 0.671700 2.009000 87 51 72
-0.734475 0.671520 1.998000 88 51 74
-0.730064 0.670963 1.986000 88 53 76
-0.730064 0.674440 1.986000 87 56 79
-0.717565 0.666310 1.952000 88 57 82
-0.717565 0.669727 1.952000 90 56 86
-0.713521 0.669351 1.941000 89 59 90
-0.713521 0.672749 1.941000 89 63 83
-0.705802 0.668831 1.920000 92 60 76
-0.701758 0.668341 1.909000 95 57 77
-0.698082 0.668164 1.899000 94 57 79
-0.694038 0.667599 1.888000 94 59 79
-0.690362 0.667350 1.878000 93 62 80
-0.686686 0.667067 1.868000 93 62 80
-0.683010 0.666748 1.858000 90 60 80
-0.679334 0.666394 1.848000 88 59 80
-0.675658 0.666006 1.838000 87 61 81
-0.671982 0.665582 1.828000 86 60 78
-0.668674 0.665489 1.819000 89 63 76
-0.664998 0.664998 1.809000 93 61 81
-0.661689 0.664840 1.800000 91 60 87
-0.658013 0.664280 1.790000 89 57 86
-0.654705 0.664057 1.781000 85 67 86
-0.654705 0.667175 1.781000 82 74 85
-0.648088 0.663518 1.763000 85 70 84
-0.644779 0.663202 1.754000 89 69 85
-0.641471 0.662853 1.745000 89 66 86
-0.638162 0.662473 1.736000 90 65 87
-0.631913 0.658995 1.719000 92 66 89
-0.628972 0.658923 1.711000 95 71 90
-0.625664 0.658437 1.702000 90 70 91
-0.625664 0.661416 1.702000 86 68 95
-0.622723 0.661273 1.694000 90 66 99
-1.375247 0.750135 3.759000 76 41 17
-1.375247 0.756715 3.759000 76 41 20
-1.331711 0.739131 3.640000 77 40 16
-1.317808 0.737720 3.602000 76 41 12
-1.317808 0.744026 3.602000 75 41 22
-1.317808 0.750331 3.602000 72 38 31
-1.304271 0.748864 3.565000 69 37 24
-1.290735 0.747268 3.528000 72 39 17
-1.277930 0.745969 3.493000 76 36 26
-1.204759 0.709021 3.293000 78 31 35
-1.204759 0.714785 3.293000 81 32 37
-1.204759 0.720550 3.293000 79 34 39
-1.193418 0.719477 3.262000 77 38 39
-1.193418 0.725187 3.262000 74 42 39
-1.193418 0.730897 3.262000 71 42 40
-1.174759 0.730711 3.211000 79 40 42
-1.160491 0.727389 3.172000 79 39 42
-1.119149 0.717541 3.059000 77 44 35
-1.119149 0.722896 3.059000 81 43 45
-1.109637 0.722060 3.033000 85 43 44
-1.109637 0.727370 3.033000 80 45 43
-1.099759 0.726157 3.006000 76 45 42
-1.090247 0.725092 2.980000 72 45 41
-1.062807 0.711928 2.905000 69 44 35
-1.054027 0.711090 2.881000 71 47 29
-1.045246 0.710167 2.857000 74 46 33
-1.045246 0.715169 2.857000 78 45 37
-1.036832 0.714372 2.834000 83 42 38
-1.020002 0.707657 2.788000 80 42 39
-1.011588 0.706660 2.765000 77 43 41
-1.003539 0.705838 2.743000 78 43 44
-0.995856 0.705200 2.722000 80 44 46
-0.988173 0.704487 2.701000 77 45 48
-0.980490 0.703701 2.680000 74 43 48
-0.972807 0.702842 2.659000 79 45 48
-0.972807 0.707496 2.659000 84 44 50
-0.950856 0.696081 2.599000 83 42 53
-0.943905 0.695509 2.580000 82 44 53
-0.943905 0.700025 2.580000 81 46 53
-0.936588 0.699080 2.560000 80 46 53
-0.930002 0.698614 2.542000 77 45 53
-0.923051 0.697809 2.523000 75 43 59
-0.909880 0.692206 2.487000 77 43 65
-0.903295 0.691518 2.469000 79 44 57
-0.896710 0.690767 2.451000 78 46 50
-0.890490 0.690236 2.434000 77 46 56
-0.890490 0.694497 2.434000 76 39 62
-0.890490 0.698758 2.434000 76 44 59
-0.884270 0.698108 2.417000 78 49 56
-0.884270 0.702339 2.417000 80 50 55
-0.860124 0.687276 2.351000 80 47 54
-0.848783 0.682275 2.320000 80 50 59
-0.842929 0.681603 2.304000 81 48 64
-0.837441 0.681172 2.289000 82 48 61
-0.831953 0.680689 2.274000 85 51 58
-0.826465 0.680153 2.259000 89 50 63
-0.820978 0.679565 2.244000 86 49 68
-0.815856 0.679229 2.230000 83 47 65
-0.810368 0.678538 2.215000 82 46 62
-0.805246 0.678102 2.201000 81 47 61
-0.805246 0.681955 2.201000 83 51 59
-0.800124 0.681445 2.187000 85 50 59
-0.800124 0.685274 2.187000 83 50 59
-0.785490 0.676498 2.147000 81 52 57
-0.785490 0.680257 2.147000 78 56 55
-0.775612 0.675413 2.120000 76 57 59
-0.766465 0.671116 2.095000 77 54 63
-0.766465 0.674783 2.095000 79 50 63
-0.761709 0.674240 2.082000 78 50 63
-0.761709 0.677885 2.082000 77 48 64
-0.756953 0.677274 2.069000 80 50 64
-0.752563 0.676947 2.057000 83 54 68
-0.748173 0.676577 2.045000 85 55 72
-0.743782 0.676166 2.033000 88 54 69
-0.739392 0.675712 2.021000 88 53 67
-0.730977 0.671520 1.998000 89 52 71
-0.726587 0.670963 1.986000 89 51 76
-0.726587 0.674440 1.986000 89 55 78
-0.714148 0.666310 1.952000 88 58 80
-0.710124 0.665953 1.941000 88 59 81
-0.710124 0.669351 1.941000 88 61 83
-0.706465 0.669283 1.931000 89 61 78
-0.702441 0.668831 1.920000 90 63 74
-0.698416 0.668341 1.909000 92 60 70
-0.694758 0.668164 1.899000 93 58 66
-0.694758 0.671488 1.899000 95 60 71
-0.690733 0.670904 1.888000 94 62 75
-0.683416 0.667067 1.868000 94 62 77
-0.679758 0.666748 1.858000 91 62 79
-0.679758 0.670000 1.858000 88 60 79
-0.676099 0.669629 1.848000 85 58 80
-0.668782 0.665582 1.828000 83 61 78
-0.665489 0.665489 1.819000 91 65 77
-0.658538 0.661689 1.800000 99 64 81
-0.654880 0.661146 1.790000 94 62 85
-0.651587 0.660940 1.781000 90 64 87
-0.651587 0.664057 1.781000 87 70 89
-0.651587 0.667175 1.781000 85 71 87
-0.645002 0.663518 1.763000 88 71 85
-0.641709 0.663202 1.754000 91 69 85
-0.638416 0.662853 1.745000 91 69 86
-0.635124 0.662473 1.736000 91 66 86
-0.628904 0.658995 1.719000 94 64 87
-0.625977 0.658923 1.711000 98 68 87
