ply
format ascii 1.0
element vertex 1288
property float x
property float y
property float z
property uchar red
property uchar green
property uchar blue
end_header
0.952937 0.740672 2.580000 21 4 15
0.952937 0.745188 2.580000 20 4 22
0.952937 0.749704 2.580000 19 8 15
0.949244 0.751297 2.570000 20 14 7
0.689956 0.696496 1.868000 157 122 151
0.686262 0.696020 1.858000 156 125 154
0.686262 0.699272 1.858000 158 130 158
0.686262 0.702525 1.858000 160 132 161
0.682569 0.701979 1.848000 160 137 165
0.682569 0.705214 1.848000 161 135 168
0.671858 0.697331 1.819000 157 137 171
0.664840 0.693198 1.800000 154 138 177
0.661146 0.692480 1.790000 162 138 183
0.657822 0.692116 1.781000 170 137 181
0.896963 -0.211548 2.417000 84 36 35
0.896963 -0.207317 2.417000 83 35 29
0.896963 -0.203086 2.417000 83 26 27
0.896963 -0.198855 2.417000 103 40 26
0.896963 -0.194624 2.417000 123 81 81
0.896963 -0.190393 2.417000 158 116 136
0.896963 -0.186162 2.417000 192 165 146
0.896963 -0.181931 2.417000 153 128 156
0.896963 -0.177700 2.417000 115 45 78
0.896963 -0.173469 2.417000 103 36 1
0.896963 -0.008462 2.417000 102 51 43
0.903272 -0.004261 2.434000 100 52 42
0.903272 -0.000000 2.434000 98 54 40
0.903272 0.004261 2.434000 99 54 39
0.903272 0.008522 2.434000 100 55 42
0.903272 0.012782 2.434000 100 53 45
0.903272 0.017043 2.434000 101 51 43
0.903272 0.021304 2.434000 99 49 42
0.896963 0.025386 2.417000 97 47 40
0.896963 0.029617 2.417000 98 44 39
0.896963 0.033848 2.417000 100 44 35
0.896963 0.038079 2.417000 98 46 31
0.903272 0.042607 2.434000 96 47 26
0.903272 0.046868 2.434000 96 49 21
0.903272 0.051129 2.434000 95 51 31
0.903272 0.055389 2.434000 94 50 42
0.903272 0.059650 2.434000 93 50 41
0.903272 0.063911 2.434000 92 47 40
0.903272 0.068172 2.434000 92 45 37
0.903272 0.072432 2.434000 94 41 34
0.903272 0.076693 2.434000 97 37 33
0.903272 0.080954 2.434000 95 43 32
0.903272 0.085214 2.434000 94 46 33
0.903272 0.089475 2.434000 93 47 34
0.903272 0.093736 2.434000 93 46 35
0.903272 0.097997 2.434000 89 44 37
0.903272 0.102257 2.434000 86 44 38
0.903272 0.106518 2.434000 90 47 40
0.903272 0.110779 2.434000 95 48 37
0.903272 0.115039 2.434000 95 42 35
0.903272 0.119300 2.434000 94 39 33
0.903272 0.123561 2.434000 95 45 31
0.903272 0.127822 2.434000 96 49 39
0.903272 0.132082 2.434000 92 43 47
0.903272 0.136343 2.434000 89 35 28
0.903272 0.140604 2.434000 92 42 10
0.903272 0.144864 2.434000 96 49 31
0.903272 0.149125 2.434000 102 63 53
0.903272 0.153386 2.434000 108 73 62
0.909581 0.158748 2.451000 101 71 72
0.909581 0.163038 2.451000 94 64 70
0.957454 0.176135 2.580000 91 65 69
0.957454 0.180652 2.580000 89 63 68
0.964505 0.186532 2.599000 88 62 68
0.964505 0.191081 2.599000 86 63 66
0.964505 0.195631 2.599000 85 58 65
0.964505 0.200180 2.599000 84 58 64
0.964505 0.204730 2.599000 84 55 63
0.964505 0.209279 2.599000 84 55 63
0.971927 0.215474 2.619000 87 52 63
0.964505 0.218378 2.599000 90 50 61
0.964505 0.222928 2.599000 87 52 60
0.971927 0.229228 2.619000 83 54 58
0.971927 0.233813 2.619000 85 52 56
0.971927 0.238397 2.619000 86 51 52
0.971927 0.242982 2.619000 87 54 49
0.971927 0.247566 2.619000 89 55 56
0.971927 0.252151 2.619000 86 57 63
0.971927 0.256735 2.619000 83 59 63
0.964505 0.259324 2.599000 83 57 63
0.964505 0.263874 2.599000 83 56 63
0.964505 0.268424 2.599000 83 55 63
0.964505 0.272973 2.599000 84 55 67
0.964505 0.277523 2.599000 85 50 72
0.964505 0.282072 2.599000 86 48 75
0.964505 0.286622 2.599000 83 50 79
0.957454 0.289043 2.580000 80 53 71
0.964505 0.295721 2.599000 75 54 63
0.964505 0.300270 2.599000 69 54 67
0.964505 0.304820 2.599000 72 49 71
0.964505 0.309369 2.599000 74 45 71
0.964505 0.313919 2.599000 76 46 71
0.964505 0.318469 2.599000 77 51 67
0.964505 0.323018 2.599000 76 49 64
0.964505 0.327568 2.599000 76 50 67
0.964505 0.332117 2.599000 74 50 71
0.964505 0.336667 2.599000 72 50 62
0.964505 0.341216 2.599000 72 50 53
0.964505 0.345766 2.599000 73 51 51
0.964505 0.350315 2.599000 76 50 50
0.964505 0.354865 2.599000 79 52 48
0.964505 0.359415 2.599000 74 50 47
0.964505 0.363964 2.599000 68 49 42
0.964505 0.368514 2.599000 72 47 37
0.964505 0.373063 2.599000 76 47 45
0.964505 0.377613 2.599000 74 50 53
0.964505 0.382162 2.599000 72 50 55
0.971927 0.389688 2.619000 72 49 58
0.971927 0.394272 2.619000 72 49 57
0.971927 0.398857 2.619000 72 49 56
0.971927 0.403441 2.619000 73 50 53
0.971927 0.408026 2.619000 72 50 50
0.971927 0.412611 2.619000 72 51 51
0.971927 0.417195 2.619000 72 53 53
0.971927 0.421780 2.619000 72 53 55
0.971927 0.426364 2.619000 74 53 58
0.979349 0.434240 2.639000 76 53 52
0.971927 0.435533 2.619000 76 48 47
0.971927 0.440118 2.619000 76 45 51
0.971927 0.444702 2.619000 77 42 55
0.971927 0.449287 2.619000 78 39 55
0.964505 0.450405 2.599000 75 45 56
0.964505 0.454955 2.599000 72 50 51
0.964505 0.459505 2.599000 71 49 47
0.964505 0.464054 2.599000 70 47 48
0.957454 0.465178 2.580000 69 42 50
0.957454 0.469694 2.580000 67 38 54
0.957454 0.474211 2.580000 65 39 58
0.957454 0.478727 2.580000 62 41 51
0.964505 0.486802 2.599000 64 41 45
0.964505 0.491351 2.599000 66 42 46
0.964505 0.495901 2.599000 67 42 47
0.964505 0.500451 2.599000 68 42 48
0.971927 0.508886 2.619000 65 41 50
0.971927 0.513471 2.619000 63 40 57
0.964505 0.514099 2.599000 63 35 65
0.964505 0.518649 2.599000 63 30 54
0.964505 0.523198 2.599000 64 31 44
0.964505 0.527748 2.599000 66 33 42
0.964505 0.532297 2.599000 62 36 40
0.964505 0.536847 2.599000 59 38 45
0.964505 0.541396 2.599000 61 37 51
0.964505 0.545946 2.599000 64 39 44
0.964505 0.550496 2.599000 58 35 38
0.964505 0.555045 2.599000 53 39 36
0.964505 0.559595 2.599000 52 32 34
0.964505 0.564144 2.599000 51 28 41
0.964505 0.568694 2.599000 47 25 49
0.964505 0.573243 2.599000 43 26 41
0.964505 0.577793 2.599000 45 26 34
0.964505 0.582343 2.599000 48 27 28
0.964505 0.586892 2.599000 52 24 23
0.964505 0.591442 2.599000 56 23 16
0.964505 0.595991 2.599000 51 22 10
0.957454 0.596150 2.580000 47 21 15
0.957454 0.600667 2.580000 46 25 20
0.957454 0.605183 2.580000 46 26 21
0.957454 0.609699 2.580000 45 25 23
0.957454 0.614216 2.580000 44 29 20
0.957454 0.618732 2.580000 43 22 17
0.971927 0.632669 2.619000 43 16 21
0.964505 0.632388 2.599000 44 14 25
0.964505 0.636937 2.599000 45 12 24
0.971927 0.646423 2.619000 47 14 23
0.964505 0.646036 2.599000 49 14 19
0.964505 0.650586 2.599000 45 12 16
0.964505 0.655135 2.599000 42 13 15
0.964505 0.659685 2.599000 43 16 14
0.957454 0.659379 2.580000 44 17 19
0.957454 0.663895 2.580000 40 14 25
0.957454 0.668411 2.580000 36 14 18
0.957454 0.672927 2.580000 33 12 11
0.957454 0.677444 2.580000 30 11 13
0.964505 0.686982 2.599000 28 8 16
0.964505 0.691532 2.599000 26 8 22
0.964505 0.696081 2.599000 26 7 29
0.964505 0.700631 2.599000 25 7 19
0.957454 0.700025 2.580000 28 7 9
0.964505 0.709730 2.599000 30 7 14
0.964505 0.714279 2.599000 23 5 19
0.957454 0.713574 2.580000 16 4 13
0.957454 0.718090 2.580000 16 4 7
0.957454 0.722607 2.580000 17 7 5
0.957454 0.727123 2.580000 15 7 4
0.957454 0.731639 2.580000 13 3 7
0.957454 0.736156 2.580000 16 3 10
0.957454 0.740672 2.580000 18 4 10
0.957454 0.745188 2.580000 18 3 10
0.957454 0.749704 2.580000 19 5 7
0.957454 0.754221 2.580000 21 9 5
0.685804 0.695509 1.848000 155 125 154
0.685804 0.698744 1.848000 159 127 158
0.685804 0.701979 1.848000 160 131 163
0.682093 0.701397 1.838000 161 132 166
0.671331 0.693498 1.809000 160 136 169
0.667991 0.693198 1.800000 159 139 173
0.664280 0.692480 1.790000 163 139 177
0.660940 0.692116 1.781000 168 140 176
0.901194 -0.211548 2.417000 82 40 25
0.901194 -0.207317 2.417000 80 42 15
0.894856 -0.201658 2.400000 79 32 20
0.894856 -0.197456 2.400000 104 30 26
0.894856 -0.193255 2.400000 130 89 79
0.901194 -0.190393 2.417000 164 122 132
0.901194 -0.186162 2.417000 198 146 136
0.894856 -0.180652 2.400000 139 144 140
0.894856 -0.176450 2.400000 80 49 71
0.901194 -0.173469 2.417000 85 7 2
0.894856 -0.008402 2.400000 102 51 33
0.894856 -0.004201 2.400000 100 55 31
0.901194 -0.000000 2.417000 98 54 33
0.901194 0.004231 2.417000 99 52 34
0.901194 0.008462 2.417000 101 51 39
0.901194 0.012693 2.417000 102 49 44
0.907533 0.017043 2.434000 104 50 43
0.901194 0.021155 2.417000 101 50 43
0.901194 0.025386 2.417000 98 47 39
0.901194 0.029617 2.417000 98 44 35
0.901194 0.033848 2.417000 98 44 33
0.894856 0.037811 2.400000 98 46 30
0.901194 0.042310 2.417000 99 49 23
0.894856 0.046213 2.400000 100 54 17
0.901194 0.050772 2.417000 101 50 25
0.901194 0.055002 2.417000 97 49 34
0.901194 0.059233 2.417000 93 49 33
0.907533 0.063911 2.434000 90 48 32
0.907533 0.068172 2.434000 87 44 29
0.907533 0.072432 2.434000 91 42 27
0.907533 0.076693 2.434000 95 42 26
0.907533 0.080954 2.434000 94 45 26
0.907533 0.085214 2.434000 94 45 28
0.907533 0.089475 2.434000 91 46 30
0.901194 0.093081 2.417000 89 45 28
0.901194 0.097312 2.417000 86 44 27
0.901194 0.101543 2.417000 84 47 30
0.901194 0.105774 2.417000 88 51 33
0.901194 0.110005 2.417000 92 47 31
0.901194 0.114236 2.417000 93 44 30
0.901194 0.118467 2.417000 95 43 25
0.901194 0.122698 2.417000 94 43 21
0.901194 0.126929 2.417000 94 45 29
0.901194 0.131160 2.417000 90 44 38
0.901194 0.135391 2.417000 86 41 28
0.901194 0.139622 2.417000 91 42 18
0.901194 0.143853 2.417000 96 51 35
0.901194 0.148084 2.417000 106 68 51
0.907533 0.153386 2.434000 117 72 61
0.907533 0.157647 2.434000 105 71 71
0.913871 0.163038 2.451000 94 63 67
0.954513 0.174770 2.560000 92 59 64
0.961970 0.180652 2.580000 90 58 60
0.961970 0.185168 2.580000 88 59 57
0.961970 0.189684 2.580000 87 58 59
0.961970 0.194201 2.580000 85 56 62
0.961970 0.198717 2.580000 84 57 62
0.961970 0.203233 2.580000 84 56 62
0.969054 0.209279 2.599000 85 54 60
0.969054 0.213829 2.599000 89 50 58
0.969054 0.218378 2.599000 93 50 54
0.969054 0.222928 2.599000 87 52 49
0.976511 0.229228 2.619000 82 53 52
0.976511 0.233813 2.619000 85 51 54
0.976511 0.238397 2.619000 88 50 53
0.976511 0.242982 2.619000 86 52 51
0.976511 0.247566 2.619000 85 54 56
0.969054 0.250225 2.599000 83 56 60
0.969054 0.254775 2.599000 82 58 62
0.969054 0.259324 2.599000 82 58 64
0.969054 0.263874 2.599000 82 56 62
0.969054 0.268424 2.599000 82 56 61
0.969054 0.272973 2.599000 83 52 64
0.961970 0.275494 2.580000 83 47 68
0.961970 0.280010 2.580000 83 49 69
0.961970 0.284526 2.580000 81 51 70
0.961970 0.289043 2.580000 79 52 68
0.969054 0.295721 2.599000 72 54 65
0.969054 0.300270 2.599000 65 52 66
0.969054 0.304820 2.599000 68 47 68
0.969054 0.309369 2.599000 72 44 68
0.969054 0.313919 2.599000 74 42 68
0.969054 0.318469 2.599000 77 47 64
0.969054 0.323018 2.599000 76 49 61
0.969054 0.327568 2.599000 76 48 63
0.969054 0.332117 2.599000 73 49 65
0.969054 0.336667 2.599000 71 49 60
0.969054 0.341216 2.599000 72 51 55
0.969054 0.345766 2.599000 74 50 53
0.969054 0.350315 2.599000 78 50 51
0.961970 0.352271 2.580000 83 49 54
0.961970 0.356787 2.580000 79 50 57
0.961970 0.361303 2.580000 76 48 51
0.969054 0.368514 2.599000 76 46 46
0.961970 0.370336 2.580000 77 48 48
0.961970 0.374852 2.580000 74 55 51
0.969054 0.382162 2.599000 72 52 54
0.969054 0.386712 2.599000 74 50 57
0.969054 0.391261 2.599000 76 48 56
0.969054 0.395811 2.599000 74 49 56
0.969054 0.400361 2.599000 72 49 52
0.976511 0.408026 2.619000 70 48 48
0.976511 0.412611 2.619000 68 51 51
0.976511 0.417195 2.619000 68 54 54
0.976511 0.421780 2.619000 69 54 59
0.969054 0.423108 2.599000 71 53 65
0.976511 0.430949 2.619000 74 51 59
0.976511 0.435533 2.619000 75 47 53
0.969054 0.436757 2.599000 77 45 54
0.969054 0.441306 2.599000 76 42 56
0.969054 0.445856 2.599000 75 42 58
0.969054 0.450405 2.599000 74 44 60
0.961970 0.451629 2.580000 74 47 55
0.961970 0.456145 2.580000 74 48 50
0.961970 0.460662 2.580000 74 45 49
0.961970 0.465178 2.580000 72 42 48
0.954513 0.466053 2.560000 71 40 52
0.954513 0.470535 2.560000 69 39 56
0.961970 0.478727 2.580000 67 39 51
0.961970 0.483243 2.580000 67 41 47
0.961970 0.487759 2.580000 68 38 49
0.969054 0.495901 2.599000 66 35 51
0.969054 0.500451 2.599000 65 38 49
0.976511 0.508886 2.619000 64 39 47
0.976511 0.513471 2.619000 63 38 49
0.969054 0.514099 2.599000 63 33 52
0.969054 0.518649 2.599000 64 30 40
0.969054 0.523198 2.599000 62 32 28
0.969054 0.527748 2.599000 61 34 32
0.961970 0.528406 2.580000 59 35 36
0.969054 0.536847 2.599000 58 35 39
0.961970 0.537439 2.580000 63 36 42
0.969054 0.545946 2.599000 69 34 38
0.969054 0.550496 2.599000 61 29 34
0.969054 0.555045 2.599000 54 33 30
0.969054 0.559595 2.599000 52 33 26
0.969054 0.564144 2.599000 50 29 32
0.969054 0.568694 2.599000 43 27 39
0.969054 0.573243 2.599000 36 26 29
0.969054 0.577793 2.599000 41 27 19
0.969054 0.582343 2.599000 46 26 20
0.969054 0.586892 2.599000 48 24 21
0.961970 0.587118 2.580000 50 24 23
0.961970 0.591634 2.580000 47 23 25
0.961970 0.596150 2.580000 45 23 24
0.961970 0.600667 2.580000 45 27 24
0.961970 0.605183 2.580000 46 25 22
0.961970 0.609699 2.580000 46 22 20
0.961970 0.614216 2.580000 46 25 17
0.961970 0.618732 2.580000 41 23 14
0.969054 0.627838 2.599000 37 16 19
0.969054 0.632388 2.599000 41 14 25
0.961970 0.632281 2.580000 46 15 23
0.969054 0.641487 2.599000 50 17 21
0.969054 0.646036 2.599000 54 15 17
0.969054 0.650586 2.599000 48 12 13
0.961970 0.650346 2.580000 43 15 12
0.961970 0.654862 2.580000 42 21 12
0.961970 0.659379 2.580000 42 19 15
0.961970 0.663895 2.580000 39 17 18
0.961970 0.668411 2.580000 37 14 15
0.961970 0.672927 2.580000 34 12 12
0.961970 0.677444 2.580000 31 9 12
0.961970 0.681960 2.580000 30 4 12
0.961970 0.686476 2.580000 30 7 15
0.961970 0.690992 2.580000 26 9 18
0.961970 0.695509 2.580000 23 8 13
0.961970 0.700025 2.580000 18 10 9
0.961970 0.704541 2.580000 14 8 12
0.961970 0.709058 2.580000 11 7 14
0.961970 0.713574 2.580000 9 5 9
0.961970 0.718090 2.580000 13 3 4
0.961970 0.722607 2.580000 18 6 4
0.961970 0.727123 2.580000 15 9 4
0.961970 0.731639 2.580000 13 5 5
0.961970 0.736156 2.580000 14 2 7
0.961970 0.740672 2.580000 16 2 6
0.961970 0.745188 2.580000 17 2 6
0.961970 0.749704 2.580000 19 4 5
0.961970 0.754221 2.580000 22 10 4
0.685310 0.694963 1.838000 158 125 157
0.685310 0.698180 1.838000 160 129 159
0.681582 0.697581 1.828000 162 130 162
0.681582 0.700781 1.828000 163 137 166
0.671142 0.693198 1.800000 164 137 169
0.667413 0.692480 1.790000 165 139 173
0.667413 0.695614 1.790000 167 137 174
0.886695 -0.211315 2.367000 87 42 28
0.893063 -0.208660 2.384000 84 42 15
0.893063 -0.204486 2.384000 81 40 2
0.893063 -0.200313 2.384000 79 31 14
0.899057 -0.197456 2.400000 112 62 26
0.899057 -0.193255 2.400000 145 125 77
0.899057 -0.189054 2.400000 165 137 129
0.899057 -0.184853 2.400000 184 156 126
0.899057 -0.180652 2.400000 132 105 124
0.899057 -0.176450 2.400000 80 3 63
0.899057 -0.172249 2.400000 86 19 3
0.893063 -0.008346 2.384000 100 49 24
0.893063 -0.004173 2.384000 98 52 21
0.899057 -0.000000 2.400000 97 55 25
0.899057 0.004201 2.400000 98 52 30
0.899057 0.008403 2.400000 98 49 37
0.899057 0.012604 2.400000 96 48 44
0.899057 0.016805 2.400000 94 50 44
0.899057 0.021006 2.400000 95 49 44
0.899057 0.025207 2.400000 97 49 38
0.899057 0.029408 2.400000 98 46 32
0.899057 0.033610 2.400000 100 44 31
0.899057 0.037811 2.400000 98 46 30
0.899057 0.042012 2.400000 97 51 21
0.899057 0.046213 2.400000 96 49 13
0.899057 0.050414 2.400000 95 48 19
0.899057 0.054616 2.400000 94 48 26
0.899057 0.058817 2.400000 93 49 25
0.905425 0.063464 2.417000 94 46 24
0.905425 0.067695 2.417000 95 42 22
0.905425 0.071926 2.417000 95 44 21
0.905425 0.076157 2.417000 94 45 20
0.905425 0.080388 2.417000 93 45 20
0.905425 0.084619 2.417000 92 46 23
0.905425 0.088850 2.417000 91 45 26
0.899057 0.092426 2.400000 89 44 22
0.899057 0.096628 2.400000 88 47 18
0.905425 0.101543 2.417000 87 51 22
0.905425 0.105774 2.417000 90 50 26
0.905425 0.110005 2.417000 93 47 25
0.899057 0.113432 2.400000 95 46 25
0.899057 0.117634 2.400000 98 47 18
0.899057 0.121835 2.400000 96 46 11
0.899057 0.126036 2.400000 94 46 20
0.899057 0.130237 2.400000 91 45 30
0.899057 0.134439 2.400000 89 45 28
0.899057 0.138640 2.400000 91 44 27
0.899057 0.142841 2.400000 93 45 38
0.899057 0.147042 2.400000 101 63 50
0.899057 0.151243 2.400000 109 79 60
0.899057 0.155444 2.400000 100 69 71
0.966486 0.171619 2.580000 92 59 65
0.966486 0.176135 2.580000 87 57 59
0.966486 0.180652 2.580000 82 52 53
0.966486 0.185168 2.580000 82 55 47
0.966486 0.189684 2.580000 83 56 53
0.966486 0.194201 2.580000 80 58 59
0.966486 0.198717 2.580000 77 61 60
0.966486 0.203233 2.580000 80 58 62
0.973604 0.209279 2.599000 83 56 58
0.973604 0.213829 2.599000 86 52 54
0.973604 0.218378 2.599000 89 50 46
0.973604 0.222928 2.599000 84 52 39
0.973604 0.227478 2.599000 79 55 46
0.973604 0.232027 2.599000 86 51 53
0.973604 0.236577 2.599000 93 48 53
0.973604 0.241126 2.599000 87 50 54
0.973604 0.245676 2.599000 82 54 56
0.973604 0.250225 2.599000 80 57 58
0.973604 0.254775 2.599000 79 61 61
0.973604 0.259324 2.599000 80 57 65
0.973604 0.263874 2.599000 80 54 62
0.966486 0.266461 2.580000 81 54 59
0.966486 0.270978 2.580000 82 52 61
0.966486 0.275494 2.580000 81 49 64
0.966486 0.280010 2.580000 80 50 63
0.966486 0.284526 2.580000 79 51 62
0.966486 0.289043 2.580000 78 53 65
0.973604 0.295721 2.599000 74 53 68
0.973604 0.300270 2.599000 70 54 66
0.966486 0.302592 2.580000 72 49 65
0.973604 0.309369 2.599000 74 43 65
0.973604 0.313919 2.599000 76 44 65
0.973604 0.318469 2.599000 77 46 62
0.966486 0.320657 2.580000 79 47 59
0.966486 0.325173 2.580000 82 46 59
0.966486 0.329689 2.580000 74 46 59
0.966486 0.334206 2.580000 66 47 58
0.966486 0.338722 2.580000 68 50 57
0.966486 0.343238 2.580000 71 51 55
0.966486 0.347754 2.580000 74 49 53
0.966486 0.352271 2.580000 78 47 60
0.966486 0.356787 2.580000 74 48 68
0.966486 0.361303 2.580000 70 48 61
0.966486 0.365820 2.580000 75 46 55
0.966486 0.370336 2.580000 81 44 52
0.966486 0.374852 2.580000 78 50 49
0.966486 0.379368 2.580000 75 55 52
0.973604 0.386712 2.599000 77 49 56
0.973604 0.391261 2.599000 79 45 56
0.973604 0.395811 2.599000 76 47 57
0.973604 0.400361 2.599000 74 50 51
0.973604 0.404910 2.599000 72 49 46
0.973604 0.409460 2.599000 70 51 50
0.973604 0.414009 2.599000 70 53 55
0.973604 0.418559 2.599000 70 56 63
0.973604 0.423108 2.599000 73 53 72
0.973604 0.427658 2.599000 77 54 65
0.973604 0.432207 2.599000 76 50 59
0.973604 0.436757 2.599000 76 49 58
0.966486 0.438080 2.580000 75 46 58
0.966486 0.442597 2.580000 74 45 61
0.966486 0.447113 2.580000 72 44 64
0.966486 0.451629 2.580000 71 46 59
0.958994 0.452609 2.560000 72 46 54
0.958994 0.457091 2.560000 72 45 50
0.958994 0.461572 2.560000 71 43 47
0.958994 0.466053 2.560000 70 41 50
0.958994 0.470535 2.560000 70 39 54
0.958994 0.475016 2.560000 70 38 51
0.966486 0.483243 2.580000 68 38 49
0.966486 0.487759 2.580000 66 36 52
0.966486 0.492276 2.580000 65 38 56
0.966486 0.496792 2.580000 64 39 50
0.973604 0.505000 2.599000 63 40 44
0.973604 0.509550 2.599000 63 42 41
0.966486 0.510341 2.580000 62 34 39
0.966486 0.514857 2.580000 62 27 25
0.966486 0.519374 2.580000 60 31 12
0.966486 0.523890 2.580000 59 38 22
0.966486 0.528406 2.580000 57 37 32
0.966486 0.532922 2.580000 55 34 32
0.958994 0.533273 2.560000 58 35 33
0.966486 0.541955 2.580000 61 35 32
0.966486 0.546471 2.580000 53 33 31
0.973604 0.555045 2.599000 46 34 24
0.973604 0.559595 2.599000 47 33 18
0.973604 0.564144 2.599000 49 31 23
0.966486 0.564536 2.580000 45 28 29
0.966486 0.569053 2.580000 41 26 16
0.966486 0.573569 2.580000 42 26 4
0.966486 0.578085 2.580000 44 27 11
0.966486 0.582601 2.580000 45 25 19
0.966486 0.587118 2.580000 47 26 30
0.966486 0.591634 2.580000 45 23 41
0.966486 0.596150 2.580000 44 23 34
0.958994 0.596011 2.560000 44 23 28
0.966486 0.605183 2.580000 45 25 23
0.958994 0.604973 2.560000 46 25 18
0.958994 0.609454 2.560000 48 29 14
0.958994 0.613936 2.560000 44 22 11
0.966486 0.623248 2.580000 40 14 18
0.966486 0.627764 2.580000 41 15 25
0.958994 0.627379 2.560000 43 17 22
0.966486 0.636797 2.580000 45 17 20
0.966486 0.641313 2.580000 47 17 15
0.966486 0.645830 2.580000 44 15 11
0.966486 0.650346 2.580000 41 15 10
0.966486 0.654862 2.580000 41 18 10
0.966486 0.659379 2.580000 41 21 10
0.966486 0.663895 2.580000 41 16 11
0.966486 0.668411 2.580000 41 13 12
0.966486 0.672927 2.580000 36 12 13
0.966486 0.677444 2.580000 30 12 10
0.966486 0.681960 2.580000 26 9 8
0.966486 0.686476 2.580000 22 10 7
0.966486 0.690992 2.580000 22 9 7
0.958994 0.690117 2.560000 22 8 8
0.958994 0.694599 2.560000 18 8 10
0.958994 0.699080 2.560000 14 9 10
0.958994 0.703561 2.560000 12 9 10
0.958994 0.708042 2.560000 10 9 5
0.958994 0.712524 2.560000 13 7 1
0.958994 0.717005 2.560000 16 8 2
0.966486 0.727123 2.580000 14 8 4
0.966486 0.731639 2.580000 12 7 4
0.966486 0.736156 2.580000 12 4 4
0.966486 0.740672 2.580000 12 3 3
0.958994 0.739411 2.560000 12 2 3
0.966486 0.749704 2.580000 13 2 3
0.958994 0.748374 2.560000 16 7 3
0.684782 0.691182 1.828000 155 123 156
0.684782 0.694381 1.828000 156 122 156
0.684782 0.697581 1.828000 158 123 159
0.681410 0.697331 1.819000 160 131 163
0.674293 0.693198 1.800000 161 136 166
0.670547 0.692480 1.790000 163 133 170
0.670547 0.695614 1.790000 164 127 173
0.890838 -0.211315 2.367000 88 41 30
0.897236 -0.208660 2.384000 87 43 24
0.897236 -0.204486 2.384000 83 48 18
0.897236 -0.200313 2.384000 79 40 20
0.897236 -0.196140 2.384000 120 63 23
0.903258 -0.193255 2.400000 161 118 88
0.903258 -0.189054 2.400000 166 146 153
0.903258 -0.184853 2.400000 171 131 125
0.903258 -0.180652 2.400000 126 120 97
0.903258 -0.176450 2.400000 81 46 54
0.897236 -0.008346 2.384000 98 50 30
0.897236 -0.004173 2.384000 97 52 30
0.903258 -0.000000 2.400000 97 54 31
0.903258 0.004201 2.400000 96 53 33
0.903258 0.008403 2.400000 96 49 40
0.903258 0.012604 2.400000 90 45 47
0.903258 0.016805 2.400000 85 47 45
0.897236 0.020866 2.384000 90 49 43
0.903258 0.025207 2.400000 96 49 37
0.897236 0.029212 2.384000 99 49 32
0.897236 0.033386 2.384000 103 47 30
0.897236 0.037559 2.384000 99 46 28
0.897236 0.041732 2.384000 95 47 23
0.897236 0.045905 2.384000 92 46 19
0.903258 0.050414 2.400000 90 47 27
0.897236 0.054252 2.384000 91 46 35
0.903258 0.058817 2.400000 93 46 24
0.903258 0.063018 2.400000 98 45 13
0.903258 0.067219 2.400000 104 45 17
0.897236 0.070944 2.384000 99 48 20
0.897236 0.075118 2.384000 94 47 21
0.903258 0.079823 2.400000 92 47 23
0.903258 0.084024 2.400000 91 46 24
0.903258 0.088225 2.400000 90 45 26
0.897236 0.091810 2.384000 90 45 18
0.903258 0.096628 2.400000 90 49 10
0.897236 0.100157 2.384000 90 51 15
0.903258 0.105030 2.400000 92 54 20
0.903258 0.109231 2.400000 94 49 21
0.897236 0.112676 2.384000 97 46 23
0.897236 0.116849 2.384000 101 47 18
0.903258 0.121835 2.400000 97 48 14
0.903258 0.126036 2.400000 94 46 21
0.897236 0.129369 2.384000 93 48 28
0.897236 0.133542 2.384000 92 47 24
0.897236 0.137715 2.384000 91 47 20
0.897236 0.141889 2.384000 91 50 36
0.897236 0.146062 2.384000 96 60 52
0.897236 0.150235 2.384000 101 67 65
0.897236 0.154408 2.384000 96 67 79
0.971002 0.171619 2.580000 91 63 71
0.971002 0.176135 2.580000 82 59 64
0.971002 0.180652 2.580000 74 58 59
0.971002 0.185168 2.580000 77 56 55
0.971002 0.189684 2.580000 80 57 59
0.971002 0.194201 2.580000 75 62 63
0.971002 0.198717 2.580000 71 60 61
0.971002 0.203233 2.580000 76 59 59
0.971002 0.207749 2.580000 82 54 57
0.971002 0.212266 2.580000 83 52 56
0.971002 0.216782 2.580000 85 50 51
0.978153 0.222928 2.599000 81 51 46
0.978153 0.227478 2.599000 77 52 54
0.978153 0.232027 2.599000 88 52 63
0.978153 0.236577 2.599000 99 50 59
0.978153 0.241126 2.599000 89 47 56
0.978153 0.245676 2.599000 79 54 59
0.978153 0.250225 2.599000 78 59 62
0.978153 0.254775 2.599000 77 58 67
0.978153 0.259324 2.599000 78 57 72
0.971002 0.261945 2.580000 79 55 68
0.971002 0.266461 2.580000 80 55 64
0.971002 0.270978 2.580000 81 51 63
0.971002 0.275494 2.580000 79 49 62
0.971002 0.280010 2.580000 78 50 57
0.971002 0.284526 2.580000 78 52 51
0.971002 0.289043 2.580000 78 53 56
0.971002 0.293559 2.580000 77 53 60
0.971002 0.298075 2.580000 76 52 56
0.971002 0.302592 2.580000 76 52 52
0.971002 0.307108 2.580000 77 48 59
0.971002 0.311624 2.580000 77 47 66
0.971002 0.316140 2.580000 78 46 59
0.971002 0.320657 2.580000 83 49 53
0.971002 0.325173 2.580000 88 46 55
0.971002 0.329689 2.580000 75 44 58
0.971002 0.334206 2.580000 62 47 56
0.971002 0.338722 2.580000 65 53 55
0.971002 0.343238 2.580000 68 51 54
0.971002 0.347754 2.580000 70 50 53
0.971002 0.352271 2.580000 73 49 55
0.971002 0.356787 2.580000 69 50 58
0.971002 0.361303 2.580000 65 49 55
0.971002 0.365820 2.580000 75 47 52
0.971002 0.370336 2.580000 85 45 47
0.971002 0.374852 2.580000 82 47 42
0.971002 0.379368 2.580000 79 49 49
0.978153 0.386712 2.599000 81 46 56
0.978153 0.391261 2.599000 83 46 58
0.978153 0.395811 2.599000 79 46 61
0.978153 0.400361 2.599000 76 48 55
0.978153 0.404910 2.599000 74 49 50
0.978153 0.409460 2.599000 72 50 53
0.978153 0.414009 2.599000 72 51 55
0.971002 0.415499 2.580000 72 52 59
0.971002 0.420015 2.580000 76 52 64
0.971002 0.424531 2.580000 80 53 60
0.971002 0.429048 2.580000 77 53 56
0.971002 0.433564 2.580000 75 49 56
0.971002 0.438080 2.580000 74 48 56
0.971002 0.442597 2.580000 73 46 55
0.963475 0.443647 2.560000 71 44 54
0.963475 0.448128 2.560000 69 46 52
0.956701 0.449427 2.542000 70 46 50
0.956701 0.453877 2.542000 71 45 49
0.956701 0.458327 2.542000 70 45 48
0.956701 0.462776 2.542000 70 43 50
0.956701 0.467226 2.542000 72 40 51
0.956701 0.471676 2.542000 74 40 49
0.956701 0.476126 2.542000 69 40 48
0.963475 0.483978 2.560000 64 41 49
0.971002 0.492276 2.580000 64 44 50
0.971002 0.496792 2.580000 64 41 46
0.971002 0.501308 2.580000 63 41 41
0.971002 0.505825 2.580000 63 37 40
0.971002 0.510341 2.580000 61 34 39
0.971002 0.514857 2.580000 60 31 30
0.971002 0.519374 2.580000 59 30 22
0.971002 0.523890 2.580000 58 36 27
0.971002 0.528406 2.580000 55 41 33
0.971002 0.532922 2.580000 52 37 31
0.963475 0.533273 2.560000 53 36 30
0.971002 0.541955 2.580000 54 36 30
0.971002 0.546471 2.580000 46 34 30
0.971002 0.550988 2.580000 38 36 26
0.978153 0.559595 2.599000 43 37 22
0.971002 0.560020 2.580000 49 32 26
0.971002 0.564536 2.580000 48 31 30
0.971002 0.569053 2.580000 47 28 22
0.971002 0.573569 2.580000 44 26 15
0.971002 0.578085 2.580000 42 25 17
0.971002 0.582601 2.580000 43 25 20
0.971002 0.587118 2.580000 44 23 22
0.963475 0.587048 2.560000 43 23 25
0.963475 0.591529 2.560000 43 22 27
0.956701 0.591820 2.542000 43 20 29
0.963475 0.600492 2.560000 44 23 21
0.963475 0.604973 2.560000 47 24 14
0.956701 0.605169 2.542000 51 24 13
0.956701 0.609619 2.542000 47 22 12
0.971002 0.623248 2.580000 43 19 18
0.971002 0.627764 2.580000 42 18 25
0.971002 0.632281 2.580000 41 19 22
0.971002 0.636797 2.580000 41 20 19
0.971002 0.641313 2.580000 41 18 16
0.971002 0.645830 2.580000 40 17 14
0.971002 0.650346 2.580000 40 16 13
0.971002 0.654862 2.580000 40 17 13
0.963475 0.654267 2.560000 40 16 13
0.963475 0.658748 2.560000 43 13 13
0.971002 0.668411 2.580000 46 13 12
0.971002 0.672927 2.580000 38 12 11
0.971002 0.677444 2.580000 30 12 9
0.963475 0.676673 2.560000 22 10 7
0.963475 0.681155 2.560000 14 10 5
0.963475 0.685636 2.560000 18 10 4
0.963475 0.690117 2.560000 22 9 5
0.963475 0.694599 2.560000 18 7 7
0.963475 0.699080 2.560000 14 8 7
0.963475 0.703561 2.560000 12 11 7
0.963475 0.708042 2.560000 11 9 4
0.963475 0.712524 2.560000 12 10 1
0.963475 0.717005 2.560000 14 9 2
0.963475 0.721486 2.560000 13 8 4
0.971002 0.731639 2.580000 12 6 3
0.971002 0.736156 2.580000 10 4 3
0.963475 0.734930 2.560000 9 2 2
0.956701 0.734212 2.542000 8 1 2
0.963475 0.743893 2.560000 7 3 2
0.963475 0.748374 2.560000 10 8 2
0.684594 0.694147 1.819000 155 120 154
0.677444 0.690047 1.800000 157 128 159
0.677444 0.693198 1.800000 159 128 162
0.673680 0.692480 1.790000 160 130 165
0.670293 0.692116 1.781000 162 131 168
0.894982 -0.211315 2.367000 83 46 32
0.894982 -0.207172 2.367000 82 42 33
0.894982 -0.203028 2.367000 83 39 34
0.894982 -0.198885 2.367000 84 21 27
0.894982 -0.194741 2.367000 124 69 21
0.901409 -0.191967 2.384000 164 140 99
0.901409 -0.187794 2.384000 167 135 178
0.901409 -0.183620 2.384000 170 104 124
0.901409 -0.179447 2.384000 125 87 71
0.901409 -0.175274 2.384000 80 41 46
0.901409 -0.008346 2.384000 96 51 36
0.901409 -0.004173 2.384000 94 52 39
0.907459 -0.000000 2.400000 92 56 37
0.907459 0.004201 2.400000 94 52 36
0.901409 0.008346 2.384000 97 49 43
0.901409 0.012520 2.384000 94 46 51
0.901409 0.016693 2.384000 91 45 47
0.901409 0.020866 2.384000 93 48 43
0.901409 0.025039 2.384000 96 49 37
0.901409 0.029212 2.384000 98 48 32
0.901409 0.033386 2.384000 100 50 29
0.901409 0.037559 2.384000 97 47 26
0.901409 0.041732 2.384000 94 47 25
0.901409 0.045905 2.384000 92 47 25
0.901409 0.050078 2.384000 89 48 34
0.901409 0.054252 2.384000 89 47 44
0.901409 0.058425 2.384000 90 45 23
0.901409 0.062598 2.384000 91 45 3
0.901409 0.066771 2.384000 93 47 11
0.901409 0.070944 2.384000 92 48 20
0.901409 0.075118 2.384000 91 49 23
0.901409 0.079291 2.384000 90 48 26
0.901409 0.083464 2.384000 90 47 26
0.901409 0.087637 2.384000 88 45 27
0.901409 0.091810 2.384000 87 45 15
0.901409 0.095984 2.384000 88 49 3
0.901409 0.100157 2.384000 90 52 9
0.901409 0.104330 2.384000 91 51 15
0.901409 0.108503 2.384000 93 51 18
0.901409 0.112676 2.384000 94 49 21
0.901409 0.116849 2.384000 95 49 19
0.901409 0.121023 2.384000 93 46 18
0.901409 0.125196 2.384000 91 45 22
0.901409 0.129369 2.384000 90 47 26
0.901409 0.133542 2.384000 88 48 20
0.901409 0.137715 2.384000 90 47 14
0.901409 0.141889 2.384000 92 48 34
0.901409 0.146062 2.384000 98 54 54
0.901409 0.150235 2.384000 104 65 70
0.894982 0.153307 2.367000 99 68 87
0.894982 0.157451 2.367000 94 69 78
0.975519 0.176135 2.580000 88 66 69
0.975519 0.180652 2.580000 82 65 66
0.975519 0.185168 2.580000 82 59 63
0.975519 0.189684 2.580000 82 55 65
0.975519 0.194201 2.580000 78 58 68
0.975519 0.198717 2.580000 75 59 62
0.975519 0.203233 2.580000 79 56 56
0.975519 0.207749 2.580000 82 51 57
0.975519 0.212266 2.580000 83 50 58
0.975519 0.216782 2.580000 83 47 55
0.975519 0.221298 2.580000 81 49 53
0.975519 0.225815 2.580000 78 51 63
0.975519 0.230331 2.580000 83 51 74
0.975519 0.234847 2.580000 89 53 66
0.975519 0.239363 2.580000 79 52 58
0.975519 0.243880 2.580000 70 56 62
0.975519 0.248396 2.580000 71 57 67
0.975519 0.252912 2.580000 73 56 73
0.975519 0.257429 2.580000 71 55 80
0.975519 0.261945 2.580000 70 55 74
0.975519 0.266461 2.580000 77 53 69
0.975519 0.270978 2.580000 85 51 65
0.975519 0.275494 2.580000 80 50 61
0.975519 0.280010 2.580000 75 51 51
0.975519 0.284526 2.580000 76 53 41
0.967957 0.286802 2.560000 78 54 47
0.967957 0.291283 2.560000 78 52 53
0.967957 0.295765 2.560000 78 51 46
0.967957 0.300246 2.560000 78 52 39
0.961151 0.302585 2.542000 79 53 53
0.961151 0.307034 2.542000 74 48 68
0.961151 0.311484 2.542000 69 45 57
0.967957 0.318171 2.560000 75 47 47
0.967957 0.322652 2.560000 82 47 52
0.967957 0.327134 2.560000 73 45 58
0.967957 0.331615 2.560000 65 47 55
0.967957 0.336096 2.560000 68 51 53
0.967957 0.340577 2.560000 71 53 53
0.967957 0.345059 2.560000 72 50 53
0.967957 0.349540 2.560000 74 49 51
0.967957 0.354021 2.560000 72 50 49
0.975519 0.361303 2.580000 70 51 49
0.967957 0.362984 2.560000 76 47 49
0.967957 0.367465 2.560000 82 45 42
0.967957 0.371946 2.560000 80 47 35
0.975519 0.379368 2.580000 77 51 45
0.975519 0.383885 2.580000 75 47 56
0.975519 0.388401 2.580000 73 47 60
0.975519 0.392917 2.580000 74 47 65
0.975519 0.397434 2.580000 75 48 60
0.975519 0.401950 2.580000 74 48 55
0.975519 0.406466 2.580000 74 49 55
0.975519 0.410982 2.580000 71 49 56
0.975519 0.415499 2.580000 68 51 56
0.975519 0.420015 2.580000 68 51 56
0.975519 0.424531 2.580000 69 54 55
0.975519 0.429048 2.580000 70 51 54
0.967957 0.430203 2.560000 71 48 54
0.967957 0.434684 2.560000 70 48 54
0.967957 0.439166 2.560000 69 48 49
0.967957 0.443647 2.560000 69 47 44
0.961151 0.444977 2.542000 70 50 45
0.953966 0.446068 2.523000 69 48 46
0.953966 0.450484 2.523000 68 46 48
0.961151 0.458327 2.542000 68 47 50
0.961151 0.462776 2.542000 69 48 49
0.961151 0.467226 2.542000 68 44 49
0.961151 0.471676 2.542000 68 44 48
0.961151 0.476126 2.542000 60 42 47
0.967957 0.483978 2.560000 52 44 46
0.967957 0.488460 2.560000 58 43 45
0.967957 0.492941 2.560000 64 43 42
0.967957 0.497422 2.560000 64 39 39
0.975519 0.505825 2.580000 64 33 39
0.967957 0.506385 2.560000 62 34 39
0.967957 0.510866 2.560000 60 36 36
0.967957 0.515347 2.560000 59 35 33
0.961151 0.516174 2.542000 58 36 33
0.967957 0.524310 2.560000 57 38 34
0.967957 0.528791 2.560000 56 40 30
0.967957 0.533273 2.560000 56 39 27
0.967957 0.537754 2.560000 56 39 28
0.975519 0.546471 2.580000 52 37 29
0.975519 0.550988 2.580000 48 39 27
0.975519 0.555504 2.580000 49 35 26
0.967957 0.555679 2.560000 50 31 28
0.967957 0.560160 2.560000 49 31 31
0.967957 0.564641 2.560000 48 29 28
0.975519 0.573569 2.580000 43 26 26
0.975519 0.578085 2.580000 38 24 23
0.967957 0.578085 2.560000 40 24 21
0.961151 0.578470 2.542000 43 21 15
0.961151 0.582920 2.542000 44 22 9
0.967957 0.591529 2.560000 46 24 19
0.961151 0.591820 2.542000 44 23 30
0.967957 0.600492 2.560000 42 24 20
0.961151 0.600719 2.542000 45 23 11
0.975519 0.614216 2.580000 48 23 12
0.975519 0.618732 2.580000 43 25 14
0.975519 0.623248 2.580000 39 25 19
0.975519 0.627764 2.580000 39 23 25
0.975519 0.632281 2.580000 40 23 22
0.975519 0.636797 2.580000 36 20 19
0.967957 0.636342 2.560000 33 21 18
0.967957 0.640823 2.560000 36 18 17
0.967957 0.645305 2.560000 39 17 17
0.967957 0.649786 2.560000 39 16 17
0.967957 0.654267 2.560000 39 14 16
0.967957 0.658748 2.560000 40 13 15
0.967957 0.663230 2.560000 40 14 12
0.967957 0.667711 2.560000 33 13 9
0.967957 0.672192 2.560000 27 14 8
0.961151 0.671916 2.542000 21 11 7
0.967957 0.681155 2.560000 16 10 4
0.961151 0.680815 2.542000 17 10 1
0.961151 0.685265 2.542000 19 11 3
0.961151 0.689715 2.542000 16 8 5
0.961151 0.694164 2.542000 14 5 5
0.967957 0.703561 2.560000 14 8 5
0.961151 0.703064 2.542000 15 9 3
0.961151 0.707514 2.542000 15 8 2
0.961151 0.711963 2.542000 16 10 3
0.967957 0.721486 2.560000 15 7 4
0.967957 0.725968 2.560000 14 7 3
0.967957 0.730449 2.560000 14 4 3
0.967957 0.734930 2.560000 13 3 2
0.961151 0.734212 2.542000 8 2 1
0.964553 0.741277 2.551000 4 3 1
0.964553 0.745743 2.551000 7 5 1
0.683997 0.690331 1.809000 151 117 150
0.680594 0.690047 1.800000 154 119 156
0.680594 0.693198 1.800000 157 120 158
0.676813 0.692480 1.790000 158 130 161
0.673410 0.692116 1.781000 160 135 164
0.893047 -0.214002 2.351000 80 51 31
0.893047 -0.209887 2.351000 78 47 32
0.893047 -0.205771 2.351000 77 42 29
0.899125 -0.203028 2.367000 83 46 26
0.899125 -0.198885 2.367000 90 50 48
0.899125 -0.194741 2.367000 128 53 69
0.905583 -0.191967 2.384000 167 125 122
0.905583 -0.187794 2.384000 168 150 175
0.905583 -0.183620 2.384000 169 101 108
0.905583 -0.179447 2.384000 124 83 42
0.905583 -0.175274 2.384000 79 42 36
0.905583 -0.008346 2.384000 95 50 40
0.905583 -0.004173 2.384000 91 52 40
0.905583 -0.000000 2.384000 87 53 34
0.905583 0.004173 2.384000 92 53 28
0.905583 0.008346 2.384000 98 49 38
0.905583 0.012520 2.384000 97 46 47
0.905583 0.016693 2.384000 97 46 43
0.905583 0.020866 2.384000 96 49 38
0.905583 0.025039 2.384000 96 48 37
0.899125 0.029004 2.367000 96 47 36
0.899125 0.033148 2.367000 97 46 32
0.899125 0.037291 2.367000 95 45 28
0.899125 0.041434 2.367000 94 47 25
0.899125 0.045578 2.367000 91 50 22
0.899125 0.049721 2.367000 89 49 32
0.899125 0.053865 2.367000 88 49 41
0.899125 0.058008 2.367000 87 45 26
0.905583 0.062598 2.384000 84 45 12
0.905583 0.066771 2.384000 82 46 17
0.905583 0.070944 2.384000 85 50 23
0.905583 0.075118 2.384000 89 49 26
0.905583 0.079291 2.384000 89 51 30
0.905583 0.083464 2.384000 89 47 33
0.905583 0.087637 2.384000 87 45 37
0.905583 0.091810 2.384000 85 47 26
0.899125 0.095299 2.367000 87 52 15
0.899125 0.099442 2.367000 90 51 19
0.905583 0.104330 2.384000 91 49 23
0.905583 0.108503 2.384000 93 48 22
0.905583 0.112676 2.384000 91 50 21
0.905583 0.116849 2.384000 89 49 22
0.905583 0.121023 2.384000 89 45 24
0.905583 0.125196 2.384000 89 45 27
0.905583 0.129369 2.384000 87 49 29
0.905583 0.133542 2.384000 85 48 27
0.905583 0.137715 2.384000 89 46 26
0.905583 0.141889 2.384000 94 46 39
0.899125 0.145020 2.367000 101 46 53
0.899125 0.149164 2.367000 108 63 67
0.899125 0.153307 2.367000 103 71 81
0.899125 0.157451 2.367000 98 69 76
0.980035 0.176135 2.580000 94 71 71
0.980035 0.180652 2.580000 90 65 69
0.972438 0.183733 2.560000 87 60 68
0.972438 0.188214 2.560000 84 57 72
0.972438 0.192695 2.560000 82 56 76
0.972438 0.197176 2.560000 80 56 62
0.980035 0.203233 2.580000 81 55 49
0.980035 0.207749 2.580000 83 52 53
0.980035 0.212266 2.580000 82 50 57
0.980035 0.216782 2.580000 82 50 55
0.980035 0.221298 2.580000 81 50 53
0.980035 0.225815 2.580000 80 51 61
0.980035 0.230331 2.580000 79 50 68
0.980035 0.234847 2.580000 79 53 60
0.980035 0.239363 2.580000 70 55 52
0.980035 0.243880 2.580000 61 56 57
0.972438 0.246471 2.560000 65 59 62
0.972438 0.250952 2.560000 70 57 63
0.972438 0.255433 2.560000 65 55 64
0.980035 0.261945 2.580000 61 53 65
0.972438 0.264396 2.560000 75 52 66
0.972438 0.268877 2.560000 90 50 63
0.972438 0.273358 2.560000 81 49 60
0.980035 0.280010 2.580000 72 51 53
0.972438 0.282321 2.560000 75 55 47
0.965600 0.284785 2.542000 78 53 51
0.972438 0.291283 2.560000 79 53 56
0.972438 0.295765 2.560000 80 53 51
0.965600 0.298135 2.542000 80 54 47
0.965600 0.302585 2.542000 81 51 55
0.972438 0.309208 2.560000 70 47 62
0.972438 0.313690 2.560000 60 47 57
0.972438 0.318171 2.560000 68 50 52
0.972438 0.322652 2.560000 76 48 57
0.972438 0.327134 2.560000 72 45 62
0.972438 0.331615 2.560000 68 48 58
0.972438 0.336096 2.560000 71 54 54
0.972438 0.340577 2.560000 74 52 54
0.972438 0.345059 2.560000 74 50 54
0.972438 0.349540 2.560000 75 48 51
0.972438 0.354021 2.560000 75 51 49
0.972438 0.358503 2.560000 76 49 50
0.965600 0.360432 2.542000 78 46 52
0.972438 0.367465 2.560000 80 45 52
0.965600 0.369331 2.542000 78 48 52
0.972438 0.376428 2.560000 76 47 54
0.972438 0.380909 2.560000 69 45 57
0.972438 0.385390 2.560000 63 46 60
0.980035 0.392917 2.580000 68 47 62
0.980035 0.397434 2.580000 74 47 58
0.980035 0.401950 2.580000 75 47 53
0.972438 0.403315 2.560000 76 47 54
0.972438 0.407797 2.560000 70 48 54
0.972438 0.412278 2.560000 65 49 53
0.972438 0.416759 2.560000 61 49 53
0.980035 0.424531 2.580000 58 50 52
0.972438 0.425722 2.560000 62 49 51
0.965600 0.427178 2.542000 67 49 53
0.965600 0.431628 2.542000 66 49 55
0.965600 0.436078 2.542000 65 49 50
0.965600 0.440527 2.542000 68 49 46
0.965600 0.444977 2.542000 72 50 47
0.965600 0.449427 2.542000 68 53 48
0.958383 0.450484 2.523000 65 50 50
0.965600 0.458327 2.542000 66 50 52
0.965600 0.462776 2.542000 68 48 50
0.958383 0.463734 2.523000 65 47 48
0.965600 0.471676 2.542000 63 44 47
0.965600 0.476126 2.542000 52 42 47
0.965600 0.480575 2.542000 41 42 45
0.965600 0.485025 2.542000 52 41 44
0.965600 0.489475 2.542000 64 42 43
0.980035 0.501308 2.580000 65 42 41
0.980035 0.505825 2.580000 66 38 48
0.972438 0.506385 2.560000 63 35 54
0.972438 0.510866 2.560000 60 36 46
0.965600 0.511724 2.542000 59 38 38
0.965600 0.516174 2.542000 58 36 35
0.965600 0.520623 2.542000 59 37 33
0.965600 0.525073 2.542000 60 39 25
0.965600 0.529523 2.542000 59 41 18
0.965600 0.533973 2.542000 59 37 24
0.972438 0.542235 2.560000 59 37 29
0.972438 0.546716 2.560000 59 36 30
0.980035 0.555504 2.580000 55 33 31
0.972438 0.555679 2.560000 51 32 33
0.972438 0.560160 2.560000 50 35 35
0.972438 0.564641 2.560000 50 30 34
0.972438 0.569123 2.560000 42 26 32
0.972438 0.573604 2.560000 34 26 28
0.965600 0.574021 2.542000 38 29 23
0.965600 0.578470 2.542000 43 24 18
0.965600 0.582920 2.542000 46 21 13
0.965600 0.587370 2.542000 49 23 24
0.965600 0.591820 2.542000 45 24 35
0.965600 0.596269 2.542000 41 24 20
0.965600 0.600719 2.542000 43 24 6
0.965600 0.605169 2.542000 45 26 10
0.965600 0.609619 2.542000 40 30 14
0.980035 0.623248 2.580000 36 26 22
0.965600 0.618518 2.542000 37 27 30
0.965600 0.622968 2.542000 39 23 21
0.958383 0.622728 2.523000 32 18 12
0.958383 0.627145 2.523000 26 19 16
0.958383 0.631561 2.523000 32 18 20
0.965600 0.640767 2.542000 38 16 18
0.965600 0.645217 2.542000 38 17 17
0.965600 0.649667 2.542000 39 15 17
0.965600 0.654116 2.542000 37 12 17
0.965600 0.658566 2.542000 35 13 14
0.965600 0.663016 2.542000 29 14 11
0.965600 0.667466 2.542000 24 14 11
0.965600 0.671916 2.542000 21 12 11
0.965600 0.676365 2.542000 18 11 8
0.965600 0.680815 2.542000 17 11 5
0.958383 0.680143 2.523000 17 10 6
0.965600 0.689715 2.542000 15 10 7
0.958383 0.688976 2.523000 14 9 7
0.965600 0.698614 2.542000 16 9 7
0.958383 0.697809 2.523000 19 7 5
0.958383 0.702226 2.523000 18 5 3
0.958383 0.706642 2.523000 18 7 3
0.965600 0.716413 2.542000 17 5 3
0.965600 0.720863 2.542000 17 5 2
0.965600 0.725313 2.542000 17 4 2
0.958383 0.724308 2.523000 18 4 2
0.965600 0.734212 2.542000 9 2 2
0.965600 0.738662 2.542000 1 3 3
0.965600 0.743112 2.542000 4 3 4
0.683745 0.690047 1.800000 151 113 153
0.683745 0.693198 1.800000 155 120 155
0.683745 0.696349 1.800000 157 137 158
0.676528 0.692116 1.781000 159 135 160
0.891057 -0.208458 2.335000 80 44 33
0.891057 -0.204371 2.335000 76 34 26
0.897163 -0.201656 2.351000 84 50 19
0.903269 -0.198885 2.367000 93 83 68
0.903269 -0.194741 2.367000 138 99 118
0.903269 -0.190598 2.367000 183 158 145
0.909756 -0.187794 2.384000 158 130 172
0.909756 -0.183620 2.384000 132 70 92
0.909756 -0.179447 2.384000 101 39 13
0.909756 -0.175274 2.384000 70 1 26
0.897163 -0.008231 2.351000 96 49 44
0.903269 -0.004143 2.367000 93 50 41
0.909756 -0.000000 2.384000 91 52 31
0.909756 0.004173 2.384000 94 51 21
0.909756 0.008346 2.384000 98 48 32
0.909756 0.012520 2.384000 99 46 44
0.909756 0.016693 2.384000 100 46 39
0.909756 0.020866 2.384000 98 47 34
0.909756 0.025039 2.384000 96 47 37
0.903269 0.029004 2.367000 95 45 41
0.903269 0.033148 2.367000 94 42 35
0.903269 0.037291 2.367000 94 44 30
0.903269 0.041434 2.367000 94 47 25
0.903269 0.045578 2.367000 93 49 20
0.903269 0.049721 2.367000 92 49 29
0.903269 0.053865 2.367000 93 46 39
0.903269 0.058008 2.367000 94 44 30
0.903269 0.062152 2.367000 91 44 21
0.903269 0.066295 2.367000 87 45 23
0.903269 0.070438 2.367000 88 48 26
0.903269 0.074582 2.367000 88 49 30
0.903269 0.078725 2.367000 89 48 34
0.903269 0.082869 2.367000 89 48 41
0.903269 0.087012 2.367000 88 46 48
0.903269 0.091156 2.367000 87 47 37
0.903269 0.095299 2.367000 88 50 27
0.903269 0.099442 2.367000 90 53 29
0.903269 0.103586 2.367000 93 48 32
0.909756 0.108503 2.384000 97 45 26
0.909756 0.112676 2.384000 93 48 21
0.903269 0.116016 2.367000 90 53 26
0.903269 0.120160 2.367000 90 47 31
0.903269 0.124303 2.367000 91 44 32
0.903269 0.128446 2.367000 90 48 33
0.903269 0.132590 2.367000 89 50 35
0.903269 0.136733 2.367000 91 46 38
0.903269 0.140877 2.367000 93 45 45
0.903269 0.145020 2.367000 98 54 52
0.903269 0.149164 2.367000 104 73 64
0.903269 0.153307 2.367000 101 71 76
0.903269 0.157451 2.367000 97 67 74
0.976919 0.174770 2.560000 96 67 73
0.976919 0.179251 2.560000 96 64 73
0.976919 0.183733 2.560000 91 61 74
0.976919 0.188214 2.560000 86 60 79
0.976919 0.192695 2.560000 84 58 84
0.976919 0.197176 2.560000 81 55 63
0.984551 0.203233 2.580000 82 55 43
0.984551 0.207749 2.580000 83 55 49
0.976919 0.210620 2.560000 82 53 56
0.976919 0.215102 2.560000 82 56 55
0.976919 0.219583 2.560000 81 54 54
0.984551 0.225815 2.580000 81 55 58
0.984551 0.230331 2.580000 80 53 63
0.984551 0.234847 2.580000 79 54 54
0.976919 0.237508 2.560000 74 55 46
0.976919 0.241989 2.560000 70 56 52
0.976919 0.246471 2.560000 72 57 58
0.976919 0.250952 2.560000 74 59 53
0.976919 0.255433 2.560000 71 54 48
0.976919 0.259914 2.560000 69 50 56
0.976919 0.264396 2.560000 77 50 64
0.976919 0.268877 2.560000 85 48 62
0.970050 0.271436 2.542000 80 49 60
0.976919 0.277840 2.560000 75 51 56
0.976919 0.282321 2.560000 78 52 53
0.970050 0.284785 2.542000 81 53 56
0.976919 0.291283 2.560000 78 54 59
0.970050 0.293685 2.542000 75 55 57
0.970050 0.298135 2.542000 77 52 56
0.970050 0.302585 2.542000 79 52 56
0.970050 0.307034 2.542000 74 51 57
0.970050 0.311484 2.542000 69 49 57
0.970050 0.315934 2.542000 76 51 57
0.970050 0.320384 2.542000 82 53 61
0.970050 0.324833 2.542000 76 48 66
0.970050 0.329283 2.542000 70 49 60
0.970050 0.333733 2.542000 72 52 55
0.970050 0.338183 2.542000 75 53 55
0.970050 0.342633 2.542000 75 48 56
0.970050 0.347082 2.542000 76 44 52
0.970050 0.351532 2.542000 76 48 49
0.970050 0.355982 2.542000 76 50 52
0.970050 0.360432 2.542000 79 47 56
0.970050 0.364881 2.542000 82 42 62
0.970050 0.369331 2.542000 79 44 69
0.970050 0.373781 2.542000 77 46 64
0.970050 0.378231 2.542000 72 46 59
0.970050 0.382680 2.542000 67 45 59
0.970050 0.387130 2.542000 69 46 60
0.970050 0.391580 2.542000 72 47 56
0.976919 0.398834 2.560000 73 46 52
0.970050 0.400480 2.542000 75 46 52
0.962800 0.401903 2.523000 72 49 53
0.970050 0.409379 2.542000 69 50 51
0.976919 0.416759 2.560000 67 49 50
0.970050 0.418279 2.542000 65 49 49
0.970050 0.422728 2.542000 67 50 49
0.970050 0.427178 2.542000 69 50 52
0.970050 0.431628 2.542000 66 49 56
0.970050 0.436078 2.542000 64 50 52
0.970050 0.440527 2.542000 68 50 48
0.962800 0.441651 2.523000 72 51 49
0.962800 0.446068 2.523000 70 52 50
0.962800 0.450484 2.523000 68 53 52
0.962800 0.454901 2.523000 67 49 55
0.962800 0.459317 2.523000 66 47 51
0.962800 0.463734 2.523000 66 46 48
0.970050 0.471676 2.542000 67 46 47
0.970050 0.476126 2.542000 61 44 47
0.970050 0.480575 2.542000 54 44 45
0.970050 0.485025 2.542000 63 43 44
0.970050 0.489475 2.542000 73 42 44
0.984551 0.501308 2.580000 70 42 44
0.976919 0.501903 2.560000 68 44 57
0.970050 0.502824 2.542000 65 38 70
0.970050 0.507274 2.542000 61 35 56
0.970050 0.511724 2.542000 60 36 43
0.970050 0.516174 2.542000 58 36 37
0.970050 0.520623 2.542000 62 38 32
0.970050 0.525073 2.542000 65 40 21
0.970050 0.529523 2.542000 62 37 10
0.970050 0.533973 2.542000 60 32 20
0.970050 0.538422 2.542000 61 34 30
0.970050 0.542872 2.542000 63 35 33
0.976919 0.551198 2.560000 55 31 36
0.970050 0.551772 2.542000 47 31 38
0.970050 0.556221 2.542000 49 32 40
0.976919 0.564641 2.560000 50 31 39
0.970050 0.565121 2.542000 45 27 39
0.970050 0.569571 2.542000 40 28 32
0.970050 0.574021 2.542000 43 26 26
0.962800 0.574147 2.523000 46 25 22
0.962800 0.578563 2.523000 48 23 18
0.970050 0.587370 2.542000 51 25 29
0.962800 0.587396 2.523000 48 25 40
0.970050 0.596269 2.542000 45 27 20
0.962800 0.596229 2.523000 44 26 1
0.970050 0.605169 2.542000 43 28 7
0.962800 0.605062 2.523000 40 27 14
0.962800 0.609479 2.523000 37 24 25
0.962800 0.613895 2.523000 38 25 36
0.962800 0.618312 2.523000 39 25 21
0.962800 0.622728 2.523000 34 20 6
0.962800 0.627145 2.523000 30 21 14
0.962800 0.631561 2.523000 34 17 23
