ply
format ascii 1.0
element vertex 1293
property float x
property float y
property float z
property uchar red
property uchar green
property uchar blue
end_header
0.179846 0.715298 2.335000 70 58 86
0.176303 0.705214 2.289000 74 59 65
0.175148 0.704573 2.274000 72 58 44
0.173993 0.703880 2.259000 70 58 51
0.172837 0.703134 2.244000 73 56 58
0.171759 0.702651 2.230000 77 57 54
0.171759 0.706554 2.230000 73 53 51
0.170604 0.705679 2.215000 70 50 62
0.169525 0.705072 2.201000 73 53 74
0.169525 0.708925 2.201000 75 55 62
0.168447 0.708244 2.187000 70 55 50
0.168447 0.712072 2.187000 65 58 51
0.167446 0.711645 2.174000 69 57 53
0.166368 0.710843 2.160000 74 57 53
0.164288 0.705691 2.133000 76 56 53
0.162285 0.700778 2.107000 79 55 38
0.160360 0.696108 2.082000 75 55 23
0.160360 0.699752 2.082000 72 53 39
0.159359 0.699005 2.069000 73 54 56
0.159359 0.702626 2.069000 75 55 56
0.157510 0.698056 2.045000 73 53 56
0.156586 0.697518 2.033000 72 51 61
0.155661 0.696939 2.021000 71 51 67
0.154737 0.696317 2.009000 71 51 77
0.153890 0.696002 1.998000 72 54 87
0.152966 0.695299 1.986000 74 60 74
0.152118 0.694905 1.975000 67 57 62
0.152118 0.698362 1.975000 60 57 59
0.150347 0.693646 1.952000 64 53 56
0.149500 0.693135 1.941000 68 51 60
0.148729 0.692944 1.931000 67 53 65
0.147882 0.692358 1.920000 66 56 57
0.147035 0.691733 1.909000 69 53 49
0.146265 0.691434 1.899000 72 52 56
0.145418 0.690733 1.888000 72 53 64
0.145418 0.694038 1.888000 73 53 59
0.144647 0.693650 1.878000 71 55 54
0.143877 0.693226 1.868000 69 56 56
0.143107 0.692768 1.858000 67 52 58
0.142337 0.692274 1.848000 64 51 57
0.141566 0.691745 1.838000 68 52 57
0.140103 0.687779 1.819000 71 56 55
0.139333 0.687164 1.809000 73 51 54
0.137869 0.683080 1.790000 75 46 59
0.137176 0.682763 1.781000 68 45 65
0.135790 0.678949 1.763000 61 46 76
0.135097 0.678553 1.754000 67 52 88
0.306031 0.795681 3.885000 49 48 11
0.302644 0.793600 3.842000 52 44 11
0.299336 0.791576 3.800000 58 42 11
0.256956 0.753737 3.262000 63 48 46
0.256956 0.759448 3.262000 71 53 49
0.256956 0.765158 3.262000 79 50 49
0.254514 0.763542 3.231000 73 46 49
0.254514 0.769198 3.231000 68 48 45
0.252151 0.767659 3.201000 69 51 42
0.249866 0.766257 3.172000 71 51 50
0.247582 0.764753 3.143000 73 50 59
0.245376 0.763393 3.115000 76 52 48
0.243171 0.761935 3.087000 80 55 37
0.240965 0.760379 3.059000 85 54 43
0.238917 0.759225 3.033000 80 54 48
0.234742 0.751175 2.980000 75 54 60
0.232773 0.750046 2.955000 74 59 72
0.232773 0.755218 2.955000 73 55 63
0.230803 0.753958 2.930000 74 54 54
0.230803 0.759087 2.930000 75 54 50
0.228834 0.757695 2.905000 76 55 46
0.226944 0.756479 2.881000 78 55 41
0.221351 0.742755 2.810000 81 55 36
0.217806 0.735700 2.765000 84 54 55
0.216073 0.734648 2.743000 80 57 74
0.214419 0.733789 2.722000 76 57 66
0.212765 0.732856 2.701000 76 56 58
0.211110 0.731849 2.680000 76 57 54
0.209456 0.730769 2.659000 76 60 51
0.207881 0.729892 2.639000 76 60 51
0.206305 0.728945 2.619000 76 60 51
0.204730 0.727928 2.599000 76 59 54
0.203233 0.727123 2.580000 76 56 57
0.203233 0.731639 2.580000 77 52 62
0.200240 0.725313 2.542000 77 50 68
0.198743 0.724308 2.523000 78 53 54
0.197325 0.723526 2.505000 79 56 41
0.195907 0.722680 2.487000 80 56 49
0.194489 0.721772 2.469000 82 58 57
0.193071 0.720800 2.451000 84 57 60
0.191732 0.720061 2.434000 80 56 64
0.190393 0.719263 2.417000 76 54 59
0.189054 0.718405 2.400000 76 53 55
0.189054 0.722606 2.400000 77 55 55
0.186455 0.716814 2.367000 75 59 56
0.186455 0.720958 2.367000 74 57 64
0.185194 0.720200 2.351000 75 56 73
0.181492 0.709835 2.304000 76 56 61
0.179129 0.704573 2.274000 72 56 49
0.177947 0.703880 2.259000 68 56 59
0.176766 0.703134 2.244000 70 55 69
0.175663 0.702651 2.230000 72 55 65
0.175663 0.706554 2.230000 72 49 61
0.174481 0.705679 2.215000 73 51 64
0.174481 0.709557 2.215000 77 56 67
0.173378 0.708925 2.201000 81 55 59
0.172275 0.708244 2.187000 77 56 51
0.172275 0.712072 2.187000 73 57 47
0.171251 0.711645 2.174000 74 56 43
0.170149 0.710843 2.160000 76 54 55
0.168022 0.705691 2.133000 76 53 67
0.166998 0.705102 2.120000 76 54 55
0.165028 0.700454 2.095000 74 56 43
0.164004 0.699752 2.082000 73 55 48
0.162980 0.699005 2.069000 76 54 53
0.162980 0.702626 2.069000 80 55 51
0.161090 0.698056 2.045000 76 53 50
0.160144 0.697518 2.033000 72 52 57
0.160144 0.701077 2.033000 72 49 65
0.159199 0.700477 2.021000 73 51 71
0.157387 0.696002 1.998000 75 50 77
0.157387 0.699500 1.998000 78 54 70
0.156442 0.698775 1.986000 71 56 64
0.155576 0.698362 1.975000 64 54 58
0.153764 0.693646 1.952000 68 52 53
0.152897 0.693135 1.941000 72 51 54
0.152110 0.692944 1.931000 70 54 56
0.150377 0.688391 1.909000 69 54 42
0.150377 0.691733 1.909000 70 55 27
0.149589 0.691434 1.899000 72 56 40
0.148722 0.690733 1.888000 70 59 54
0.148722 0.694038 1.888000 69 56 54
0.147935 0.693650 1.878000 67 59 54
0.147147 0.693226 1.868000 65 57 52
0.146359 0.692768 1.858000 58 54 50
0.145572 0.692274 1.848000 51 53 53
0.144784 0.691745 1.838000 61 54 57
0.143996 0.691182 1.828000 72 54 54
0.143287 0.690963 1.819000 77 50 51
0.141003 0.683080 1.790000 83 46 55
0.139585 0.679313 1.772000 68 45 60
0.138876 0.678949 1.763000 53 50 65
0.137458 0.675072 1.745000 66 57 71
0.309369 0.793600 3.842000 53 44 15
0.305987 0.791576 3.800000 58 41 14
0.265162 0.760900 3.293000 64 50 45
0.265162 0.766665 3.293000 69 49 50
0.265162 0.772429 3.293000 75 49 49
0.262666 0.770868 3.262000 71 49 49
0.260170 0.769198 3.231000 67 48 44
0.257754 0.767659 3.201000 68 50 40
0.255419 0.766257 3.172000 69 51 51
0.253084 0.764753 3.143000 71 52 63
0.250829 0.763393 3.115000 72 55 50
0.250829 0.768846 3.115000 76 54 37
0.248575 0.767339 3.087000 80 54 44
0.244226 0.759225 3.033000 75 53 51
0.242052 0.757729 3.006000 71 54 66
0.237945 0.750046 2.955000 67 56 82
0.237945 0.755218 2.955000 63 58 68
0.235932 0.753958 2.930000 68 54 54
0.235932 0.759087 2.930000 73 56 49
0.233919 0.757695 2.905000 75 56 45
0.231987 0.756479 2.881000 76 56 33
0.226270 0.742755 2.810000 74 56 21
0.222646 0.735700 2.765000 72 55 42
0.220875 0.734648 2.743000 73 55 63
0.219184 0.733789 2.722000 74 56 56
0.217493 0.732856 2.701000 75 55 50
0.217493 0.737584 2.701000 76 57 48
0.214111 0.730769 2.659000 75 60 47
0.212500 0.729892 2.639000 74 62 46
0.210890 0.728945 2.619000 72 61 46
0.209279 0.727928 2.599000 70 62 50
0.207749 0.727123 2.580000 75 58 54
0.207749 0.731639 2.580000 79 54 56
0.204690 0.725313 2.542000 78 52 58
0.204690 0.729763 2.542000 77 52 35
0.201710 0.723526 2.505000 78 55 12
0.201710 0.727911 2.505000 79 58 31
0.200261 0.727034 2.487000 79 57 50
0.197362 0.720800 2.451000 78 59 51
0.195993 0.720061 2.434000 75 56 53
0.194624 0.719263 2.417000 71 54 49
0.193255 0.718405 2.400000 74 54 45
0.193255 0.722606 2.400000 76 56 49
0.190598 0.716814 2.367000 77 56 53
0.190598 0.720958 2.367000 79 55 56
0.189310 0.720200 2.351000 77 54 60
0.185525 0.709835 2.304000 76 53 57
0.184317 0.709220 2.289000 73 56 55
0.181901 0.703880 2.259000 70 58 68
0.180694 0.703134 2.244000 72 57 81
0.180694 0.707062 2.244000 74 59 76
0.179566 0.706554 2.230000 73 53 71
0.178358 0.705679 2.215000 72 51 66
0.177231 0.705072 2.201000 75 53 61
0.176104 0.704415 2.187000 78 56 57
0.176104 0.708244 2.187000 75 57 53
0.175057 0.707839 2.174000 73 58 43
0.175057 0.711645 2.174000 73 55 33
0.173930 0.710843 2.160000 74 52 57
0.170709 0.701391 2.120000 73 51 82
0.169662 0.700778 2.107000 72 55 72
0.168696 0.700454 2.095000 71 56 63
0.167649 0.699752 2.082000 71 58 56
0.166602 0.699005 2.069000 73 57 50
0.165636 0.698551 2.057000 75 58 47
0.164670 0.698056 2.045000 73 54 44
0.163703 0.697518 2.033000 71 55 54
0.163703 0.701077 2.033000 71 54 64
0.162737 0.700477 2.021000 71 54 66
0.160885 0.696002 1.998000 73 53 68
0.159919 0.695299 1.986000 74 53 67
0.159033 0.694905 1.975000 69 53 66
0.159033 0.698362 1.975000 64 52 58
0.156295 0.689737 1.941000 69 49 50
0.156295 0.693135 1.941000 74 47 49
0.155490 0.692944 1.931000 69 51 48
0.153718 0.688391 1.909000 65 51 27
0.152913 0.688109 1.899000 68 53 6
0.152913 0.691434 1.899000 72 58 25
0.152027 0.690733 1.888000 67 57 44
0.151222 0.690362 1.878000 63 56 49
0.151222 0.693650 1.878000 64 58 54
0.150417 0.693226 1.868000 65 59 48
0.149612 0.692768 1.858000 61 54 42
0.148807 0.692274 1.848000 57 56 50
0.147196 0.687982 1.828000 62 55 58
0.146471 0.687779 1.819000 68 56 53
0.146471 0.690963 1.819000 72 51 48
0.144136 0.683080 1.790000 76 46 51
0.142687 0.679313 1.772000 68 47 55
0.141237 0.675483 1.754000 60 52 55
0.140513 0.675072 1.745000 67 54 55
0.278907 0.771446 3.390000 66 45 35
0.273477 0.762245 3.324000 65 47 46
0.270927 0.760900 3.293000 65 47 48
0.270927 0.766665 3.293000 68 46 50
0.270927 0.772429 3.293000 71 49 50
0.265826 0.763542 3.231000 68 54 51
0.265826 0.769198 3.231000 66 52 48
0.260972 0.760705 3.172000 67 52 46
0.260972 0.766257 3.172000 68 52 51
0.258586 0.764753 3.143000 68 55 56
0.258586 0.770255 3.143000 69 54 44
0.256282 0.768846 3.115000 72 55 32
0.256282 0.774299 3.115000 76 51 40
0.253978 0.772743 3.087000 71 50 47
0.249535 0.764535 3.033000 67 53 58
0.245175 0.756391 2.980000 60 55 70
0.243118 0.755218 2.955000 53 54 63
0.241061 0.753958 2.930000 62 51 56
0.241061 0.759087 2.930000 72 55 51
0.239004 0.757695 2.905000 73 58 46
0.237030 0.756479 2.881000 75 57 41
0.229378 0.736940 2.788000 67 58 37
0.227486 0.735700 2.765000 60 56 52
0.225676 0.734648 2.743000 66 54 67
0.223948 0.733789 2.722000 73 54 59
0.222221 0.732856 2.701000 74 54 51
0.220493 0.731849 2.680000 76 56 45
0.218765 0.730769 2.659000 74 64 38
0.217120 0.729892 2.639000 72 63 43
0.215474 0.728945 2.619000 68 63 48
0.213829 0.727928 2.599000 65 61 48
0.212266 0.727123 2.580000 73 60 49
0.212266 0.731639 2.580000 82 57 53
0.209139 0.725313 2.542000 79 53 57
0.209139 0.729763 2.542000 76 55 45
0.206095 0.723526 2.505000 77 55 34
0.206095 0.727911 2.505000 79 56 41
0.204614 0.727034 2.487000 76 56 49
0.201652 0.720800 2.451000 73 57 50
0.200254 0.720061 2.434000 70 57 52
0.200254 0.724322 2.434000 67 54 50
0.198855 0.723494 2.417000 71 55 49
0.197456 0.722606 2.400000 76 55 53
0.194741 0.716814 2.367000 80 56 58
0.194741 0.720958 2.367000 84 54 63
0.193425 0.720200 2.351000 80 53 69
0.189558 0.709835 2.304000 76 54 56
0.188324 0.709220 2.289000 74 60 43
0.185856 0.703880 2.259000 73 58 57
0.184622 0.703134 2.244000 74 56 71
0.184622 0.707062 2.244000 76 56 68
0.183470 0.706554 2.230000 73 54 65
0.182236 0.705679 2.215000 71 52 64
0.181084 0.705072 2.201000 73 49 64
0.179932 0.704415 2.187000 76 54 61
0.179932 0.708244 2.187000 74 58 58
0.179932 0.712072 2.187000 73 57 51
0.178863 0.711645 2.174000 73 57 45
0.177711 0.710843 2.160000 73 51 59
0.174420 0.701391 2.120000 71 47 74
0.173350 0.700778 2.107000 69 52 71
0.172363 0.700454 2.095000 69 56 69
0.171293 0.699752 2.082000 69 57 63
0.170224 0.699005 2.069000 69 61 58
0.169237 0.698551 2.057000 70 57 53
0.168249 0.698056 2.045000 70 51 48
0.167262 0.697518 2.033000 70 55 53
0.166275 0.696939 2.021000 70 58 59
0.165287 0.696317 2.009000 70 57 61
0.164382 0.696002 1.998000 70 58 63
0.163395 0.695299 1.986000 71 54 68
0.162490 0.694905 1.975000 67 54 74
0.162490 0.698362 1.975000 64 50 64
0.160598 0.693646 1.952000 70 47 55
0.159693 0.693135 1.941000 77 49 53
0.158870 0.692944 1.931000 69 52 51
0.157965 0.692358 1.920000 61 53 38
0.157060 0.691733 1.909000 66 51 26
0.156237 0.691434 1.899000 72 55 36
0.155332 0.690733 1.888000 65 56 47
0.154510 0.690362 1.878000 58 56 49
0.153687 0.689956 1.868000 62 59 52
0.152864 0.689515 1.858000 66 55 43
0.152041 0.689039 1.848000 65 47 34
0.151219 0.688528 1.838000 64 52 53
0.150396 0.687982 1.828000 64 57 72
0.149655 0.687779 1.819000 64 55 57
0.148833 0.687164 1.809000 66 53 43
0.146529 0.679646 1.781000 69 48 48
0.145789 0.679313 1.772000 68 46 54
0.144308 0.675483 1.754000 67 50 45
0.143567 0.675072 1.745000 68 53 36
0.282069 0.758059 3.357000 66 44 15
0.282069 0.763936 3.357000 65 47 34
0.282069 0.769812 3.357000 67 47 53
0.279296 0.768064 3.324000 68 46 51
0.276691 0.766665 3.293000 69 47 50
0.276691 0.772429 3.293000 71 50 51
0.274086 0.770868 3.262000 68 52 53
0.271482 0.769198 3.231000 66 56 52
0.266524 0.760705 3.172000 61 52 52
0.266524 0.766257 3.172000 57 51 50
0.264087 0.764753 3.143000 63 53 49
0.264087 0.770255 3.143000 70 51 38
0.261735 0.768846 3.115000 75 51 28
0.261735 0.774299 3.115000 79 47 36
0.257029 0.765734 3.059000 73 51 44
0.254845 0.764535 3.033000 68 54 51
0.250391 0.756391 2.980000 65 55 58
0.248291 0.755218 2.955000 62 55 58
0.246190 0.753958 2.930000 67 55 58
0.246190 0.759087 2.930000 71 58 52
0.244090 0.757695 2.905000 73 57 47
0.242073 0.756479 2.881000 76 56 50
0.236107 0.742755 2.810000 73 56 53
0.234259 0.741820 2.788000 70 58 62
0.230478 0.734648 2.743000 72 56 71
0.228713 0.733789 2.722000 74 54 62
0.226949 0.732856 2.701000 75 53 53
0.225184 0.731849 2.680000 76 52 41
0.223420 0.730769 2.659000 75 58 30
0.221739 0.729892 2.639000 74 64 40
0.220059 0.728945 2.619000 71 61 51
0.218378 0.727928 2.599000 69 59 47
0.216782 0.727123 2.580000 73 59 44
0.216782 0.731639 2.580000 78 62 50
0.215101 0.730449 2.560000 75 60 57
0.213589 0.729763 2.542000 72 63 56
0.210480 0.723526 2.505000 78 58 56
0.210480 0.727911 2.505000 84 56 52
0.208968 0.727034 2.487000 80 55 49
0.205943 0.720800 2.451000 75 56 50
0.204514 0.720061 2.434000 72 55 51
0.203086 0.719263 2.417000 70 52 52
0.201658 0.718405 2.400000 73 54 54
0.200313 0.717789 2.384000 76 55 58
0.198885 0.716814 2.367000 78 55 63
0.197540 0.716084 2.351000 80 55 70
0.196196 0.715298 2.335000 74 52 78
0.193591 0.709835 2.304000 68 53 54
0.192331 0.709220 2.289000 70 56 31
0.191071 0.708554 2.274000 72 58 46
0.189810 0.707834 2.259000 72 56 62
0.188550 0.707062 2.244000 72 55 61
0.187373 0.706554 2.230000 69 54 60
0.186113 0.705679 2.215000 66 56 63
0.184937 0.705072 2.201000 70 55 67
0.183760 0.704415 2.187000 74 56 65
0.183760 0.708244 2.187000 73 57 63
0.183760 0.712072 2.187000 73 56 60
0.182668 0.711645 2.174000 74 53 58
0.182668 0.715450 2.174000 75 49 62
0.178131 0.701391 2.120000 72 49 66
0.176030 0.696787 2.095000 70 50 71
0.174938 0.696108 2.082000 69 55 76
0.174938 0.699752 2.082000 68 56 71
0.173846 0.699005 2.069000 71 58 66
0.173846 0.702626 2.069000 74 59 59
0.172837 0.702152 2.057000 72 55 52
0.171829 0.701636 2.045000 70 57 53
0.169813 0.696939 2.021000 71 58 54
0.168804 0.696317 2.009000 73 59 56
0.167880 0.696002 1.998000 72 55 58
0.166872 0.695299 1.986000 72 53 70
0.165947 0.694905 1.975000 68 52 82
0.165023 0.694473 1.964000 65 49 71
0.163091 0.689737 1.941000 70 48 60
0.163091 0.693135 1.941000 74 51 57
0.162250 0.692944 1.931000 69 54 54
0.161326 0.692358 1.920000 65 60 50
0.160402 0.691733 1.909000 69 56 47
0.159562 0.691434 1.899000 74 56 48
0.158637 0.690733 1.888000 69 55 50
0.157797 0.690362 1.878000 65 54 50
0.156957 0.689956 1.868000 66 55 50
0.156117 0.689515 1.858000 67 55 38
0.155276 0.689039 1.848000 66 50 26
0.154436 0.688528 1.838000 65 50 56
0.153596 0.687982 1.828000 64 54 87
0.153596 0.691182 1.828000 63 54 62
0.151999 0.687164 1.809000 64 51 38
0.149647 0.679646 1.781000 65 50 46
0.148134 0.675863 1.763000 66 50 54
0.147378 0.675483 1.754000 67 49 36
0.146622 0.675072 1.745000 71 51 18
0.340954 0.793239 3.975000 19 4 5
0.287945 0.763936 3.357000 65 45 41
0.287945 0.769812 3.357000 68 50 51
0.285114 0.768064 3.324000 72 49 52
0.282455 0.766665 3.293000 71 49 54
0.282455 0.772429 3.293000 71 50 55
0.279796 0.770868 3.262000 69 51 57
0.277137 0.769198 3.231000 67 52 61
0.272077 0.760705 3.172000 56 52 65
0.272077 0.766257 3.172000 46 53 55
0.269589 0.764753 3.143000 59 56 45
0.269589 0.770255 3.143000 72 54 40
0.267188 0.768846 3.115000 77 53 35
0.267188 0.774299 3.115000 83 51 40
0.262384 0.765734 3.059000 76 53 44
0.260154 0.764535 3.033000 69 54 51
0.255608 0.756391 2.980000 70 58 57
0.251319 0.748829 2.930000 72 55 63
0.251319 0.753958 2.930000 71 56 70
0.249175 0.752610 2.905000 71 58 61
0.247116 0.751436 2.881000 74 58 53
0.245058 0.750177 2.857000 77 56 58
0.239139 0.736940 2.788000 78 55 64
0.239139 0.741820 2.788000 80 57 64
0.235279 0.734648 2.743000 78 59 64
0.235279 0.739450 2.743000 76 56 59
0.233478 0.738554 2.722000 76 54 53
0.231677 0.737584 2.701000 76 54 49
0.228074 0.730769 2.659000 76 54 46
0.226359 0.729892 2.639000 76 58 58
0.224643 0.728945 2.619000 74 60 70
0.222928 0.727928 2.599000 73 57 64
0.221298 0.727123 2.580000 73 58 58
0.219583 0.725968 2.560000 74 59 62
0.219583 0.730449 2.560000 71 63 67
0.218039 0.729763 2.542000 69 61 63
0.214865 0.723526 2.505000 79 59 59
0.213321 0.722680 2.487000 90 55 56
0.211777 0.721772 2.469000 84 54 53
0.210233 0.720800 2.451000 78 56 53
0.208775 0.720061 2.434000 75 56 53
0.207317 0.719263 2.417000 73 56 52
0.205859 0.718405 2.400000 74 54 51
0.204486 0.717789 2.384000 76 54 56
0.203028 0.716814 2.367000 76 55 61
0.201656 0.716084 2.351000 76 54 67
0.201656 0.720200 2.351000 68 50 73
0.197624 0.709835 2.304000 60 53 60
0.196338 0.709220 2.289000 66 55 48
0.195051 0.708554 2.274000 72 56 57
0.193765 0.707834 2.259000 70 58 66
0.192478 0.707062 2.244000 69 56 65
0.191277 0.706554 2.230000 65 54 65
0.189991 0.705679 2.215000 62 56 67
0.188790 0.705072 2.201000 67 62 70
0.187589 0.704415 2.187000 73 57 71
0.187589 0.708244 2.187000 73 58 72
0.187589 0.712072 2.187000 73 55 66
0.186474 0.711645 2.174000 75 53 61
0.186474 0.715450 2.174000 77 51 65
0.181842 0.701391 2.120000 74 53 70
0.179698 0.696787 2.095000 72 54 79
0.179698 0.700454 2.095000 69 60 88
0.178583 0.699752 2.082000 67 58 77
0.177467 0.699005 2.069000 72 58 66
0.177467 0.702626 2.069000 78 57 55
0.176438 0.702152 2.057000 74 54 44
0.175409 0.701636 2.045000 70 55 49
0.173350 0.696939 2.021000 73 58 53
0.172321 0.696317 2.009000 77 55 57
0.171377 0.696002 1.998000 75 53 61
0.170348 0.695299 1.986000 73 52 68
0.169405 0.694905 1.975000 70 54 75
0.168461 0.694473 1.964000 67 50 69
0.166488 0.689737 1.941000 69 45 63
0.165631 0.689564 1.931000 72 48 60
0.165631 0.692944 1.931000 70 54 57
0.164687 0.692358 1.920000 69 58 54
0.163744 0.691733 1.909000 73 58 52
0.162886 0.691434 1.899000 77 55 52
0.161942 0.690733 1.888000 74 54 53
0.161085 0.690362 1.878000 72 52 53
0.160227 0.689956 1.868000 70 52 54
0.159369 0.689515 1.858000 69 52 49
0.159369 0.692768 1.858000 68 50 44
0.157654 0.688528 1.838000 67 51 60
0.156796 0.687982 1.828000 64 58 77
0.156796 0.691182 1.828000 62 53 62
0.155166 0.687164 1.809000 62 47 48
0.151992 0.676211 1.772000 62 50 51
0.150448 0.672413 1.754000 65 55 54
0.150448 0.675483 1.754000 68 52 48
0.149677 0.675072 1.745000 73 51 43
0.347912 0.793239 3.975000 18 4 5
0.293821 0.763936 3.357000 61 44 48
0.293821 0.769812 3.357000 66 50 49
0.288220 0.760900 3.293000 70 54 53
0.288220 0.766665 3.293000 71 50 58
0.288220 0.772429 3.293000 72 50 60
0.285507 0.770868 3.262000 72 50 62
0.282793 0.769198 3.231000 72 51 70
0.280168 0.767659 3.201000 64 52 78
0.277629 0.766257 3.172000 57 54 59
0.275091 0.764753 3.143000 65 56 41
0.275091 0.770255 3.143000 74 58 42
0.272640 0.768846 3.115000 77 55 43
0.272640 0.774299 3.115000 80 52 44
0.270190 0.772743 3.087000 75 51 45
0.265463 0.764535 3.033000 71 52 51
0.260825 0.756391 2.980000 72 54 57
0.256448 0.748829 2.930000 73 54 69
0.254260 0.747525 2.905000 73 56 82
0.252160 0.746392 2.881000 74 60 70
0.250059 0.745176 2.857000 74 58 59
0.248046 0.744138 2.834000 75 56 67
0.245945 0.742755 2.810000 73 56 75
0.244020 0.741820 2.788000 72 56 66
0.242007 0.740540 2.765000 73 58 58
0.240081 0.739450 2.743000 75 59 56
0.238243 0.738554 2.722000 76 56 54
0.234567 0.731849 2.680000 78 56 58
0.232729 0.730769 2.659000 77 55 62
0.230979 0.729892 2.639000 76 56 76
0.230979 0.734512 2.639000 72 55 90
0.229228 0.733530 2.619000 69 53 81
0.227477 0.732478 2.599000 72 53 72
0.225815 0.731639 2.580000 76 54 75
0.224064 0.730449 2.560000 74 60 78
0.222489 0.729763 2.542000 72 60 70
0.220826 0.728725 2.523000 78 57 63
0.219250 0.727911 2.505000 83 54 60
0.217675 0.727034 2.487000 80 55 58
0.216099 0.726094 2.469000 77 59 56
0.214524 0.725091 2.451000 71 58 55
0.213036 0.724322 2.434000 66 62 51
0.210060 0.718405 2.400000 72 57 48
0.208660 0.717789 2.384000 79 55 53
0.207172 0.716814 2.367000 78 55 59
0.205771 0.716084 2.351000 77 56 63
0.204371 0.715298 2.335000 72 54 68
0.201658 0.709835 2.304000 67 55 66
0.200345 0.709220 2.289000 69 54 65
0.200345 0.713227 2.289000 71 54 67
0.199032 0.712534 2.274000 71 58 70
0.197719 0.711788 2.259000 72 60 70
0.195181 0.706554 2.230000 69 56 70
0.193868 0.705679 2.215000 67 55 72
0.192643 0.705072 2.201000 69 55 74
0.191417 0.704415 2.187000 72 55 77
0.191417 0.708244 2.187000 70 55 81
0.191417 0.712072 2.187000 67 56 73
0.190279 0.711645 2.174000 71 53 65
0.189054 0.710843 2.160000 75 49 69
0.185553 0.701391 2.120000 72 51 74
0.183365 0.696787 2.095000 69 55 87
0.183365 0.700454 2.095000 65 57 101
0.182227 0.699752 2.082000 62 58 83
0.181089 0.699005 2.069000 67 56 66
0.181089 0.702626 2.069000 73 59 51
0.180039 0.702152 2.057000 70 55 37
0.178989 0.701636 2.045000 66 53 45
0.176888 0.696939 2.021000 71 54 53
0.175838 0.696317 2.009000 75 53 59
0.174875 0.696002 1.998000 74 53 65
0.173825 0.695299 1.986000 73 50 67
0.172862 0.694905 1.975000 72 52 69
0.171899 0.694473 1.964000 70 54 67
0.169886 0.689737 1.941000 72 48 66
0.169011 0.689564 1.931000 75 42 63
0.169011 0.692944 1.931000 71 53 61
0.168048 0.692358 1.920000 68 62 59
0.167085 0.691733 1.909000 67 58 57
0.166210 0.691434 1.899000 67 54 56
0.166210 0.694758 1.899000 69 52 56
0.165247 0.694038 1.888000 72 50 57
0.164372 0.693650 1.878000 70 52 58
0.163497 0.693226 1.868000 69 54 60
0.162621 0.692768 1.858000 67 49 63
0.161746 0.692274 1.848000 65 47 65
0.160871 0.691745 1.838000 63 53 67
0.159996 0.691182 1.828000 61 55 62
0.159208 0.690963 1.819000 61 51 58
0.155882 0.679646 1.781000 62 51 56
0.154307 0.675863 1.763000 64 54 54
0.153519 0.675483 1.754000 66 55 61
0.152731 0.675072 1.745000 70 51 68
0.354870 0.793239 3.975000 18 4 3
0.324963 0.790106 3.640000 67 43 43
0.324963 0.796478 3.640000 67 41 45
0.299698 0.763936 3.357000 58 49 43
0.299698 0.769812 3.357000 63 55 49
0.296752 0.768064 3.324000 69 53 59
0.293984 0.766665 3.293000 71 50 68
0.293984 0.772429 3.293000 73 50 65
0.291217 0.770868 3.262000 75 51 62
0.288449 0.769198 3.231000 77 51 62
0.285771 0.767659 3.201000 72 52 63
0.283182 0.766257 3.172000 68 53 43
0.280593 0.764753 3.143000 72 56 22
0.278093 0.763393 3.115000 76 56 34
0.275594 0.761935 3.087000 76 57 45
0.275594 0.767339 3.087000 77 53 48
0.270773 0.759225 3.033000 75 50 52
0.268362 0.757729 3.006000 73 52 54
0.263809 0.750046 2.955000 74 54 57
0.261577 0.748829 2.930000 75 54 63
0.259345 0.747525 2.905000 76 56 69
0.257203 0.746392 2.881000 77 57 60
0.255060 0.745176 2.857000 75 58 52
0.253007 0.744138 2.834000 74 57 56
0.250864 0.742755 2.810000 69 57 60
0.248900 0.741820 2.788000 64 57 57
0.246847 0.740540 2.765000 69 58 55
0.244883 0.739450 2.743000 74 57 60
0.243008 0.738554 2.722000 77 56 66
0.241133 0.737584 2.701000 81 55 62
0.237384 0.730769 2.659000 79 55 59
0.237384 0.735424 2.659000 77 55 67
0.235598 0.734512 2.639000 71 54 75
0.235598 0.739131 2.639000 65 51 71
0.233813 0.738114 2.619000 71 49 67
0.232027 0.737027 2.599000 78 54 67
0.228545 0.730449 2.560000 77 63 68
0.225242 0.724308 2.523000 76 60 64
0.223635 0.723526 2.505000 76 56 61
0.222028 0.722680 2.487000 77 55 59
0.222028 0.727034 2.487000 76 53 57
0.220421 0.726094 2.469000 76 55 61
0.218814 0.725091 2.451000 67 55 65
0.217297 0.724322 2.434000 59 57 60
0.214261 0.718405 2.400000 71 59 55
0.212833 0.717789 2.384000 83 55 58
0.211315 0.716814 2.367000 80 55 61
0.209887 0.716084 2.351000 78 55 62
0.208458 0.715298 2.335000 76 56 62
0.205691 0.709835 2.304000 74 56 67
0.205691 0.713868 2.304000 72 54 71
0.204352 0.713227 2.289000 71 55 72
0.203013 0.712534 2.274000 73 60 74
0.201673 0.711788 2.259000 75 59 77
0.200334 0.710990 2.244000 73 58 80
0.199084 0.710458 2.230000 72 53 75
0.196495 0.705072 2.201000 72 50 70
0.195246 0.704415 2.187000 72 53 70
0.195246 0.708244 2.187000 67 54 71
0.194085 0.707839 2.174000 62 55 63
0.192835 0.707062 2.160000 67 54 54
0.192835 0.710843 2.160000 73 50 63
0.189264 0.701391 2.120000 69 49 71
0.188103 0.700778 2.107000 66 54 79
0.187032 0.700454 2.095000 61 57 88
0.185872 0.699752 2.082000 57 55 76
0.184711 0.699005 2.069000 63 51 64
0.183640 0.698551 2.057000 69 54 53
0.182568 0.698056 2.045000 66 57 43
0.181497 0.697518 2.033000 63 56 49
0.181497 0.701077 2.033000 68 53 56
0.178372 0.692505 1.998000 74 54 59
0.178372 0.696002 1.998000 74 56 62
0.177301 0.695299 1.986000 74 53 64
0.176319 0.694905 1.975000 74 52 66
0.175337 0.694473 1.964000 74 52 68
0.174266 0.693646 1.952000 76 52 71
0.173284 0.693135 1.941000 78 50 67
0.172391 0.692944 1.931000 73 55 64
0.172391 0.696325 1.931000 68 60 62
0.170427 0.691733 1.909000 62 61 61
0.169534 0.691434 1.899000 57 56 66
0.168552 0.690733 1.888000 65 50 71
0.167659 0.690362 1.878000 73 50 64
0.166767 0.689956 1.868000 71 53 57
0.165874 0.689515 1.858000 69 50 59
0.164981 0.689039 1.848000 66 45 61
0.164088 0.688528 1.838000 63 48 64
0.163196 0.687982 1.828000 61 53 67
0.162392 0.687779 1.819000 60 53 69
0.162392 0.690963 1.819000 61 51 71
0.160696 0.686896 1.800000 62 52 53
0.158196 0.679313 1.772000 63 55 35
0.156589 0.675483 1.754000 65 54 46
0.156143 0.676619 1.749000 66 52 57
0.357732 0.784259 3.930000 18 3 1
0.331335 0.777362 3.640000 61 46 29
0.331335 0.783734 3.640000 63 44 40
0.331335 0.790106 3.640000 65 42 44
0.331335 0.796478 3.640000 68 41 49
0.324508 0.786307 3.565000 70 43 54
0.321140 0.784322 3.528000 69 43 59
0.317954 0.782656 3.493000 69 44 42
0.308578 0.765511 3.390000 65 47 26
0.308578 0.771446 3.390000 61 51 38
0.308578 0.777380 3.390000 64 53 50
0.302570 0.768064 3.324000 68 53 64
0.299749 0.766665 3.293000 68 50 79
0.299749 0.772429 3.293000 68 51 70
0.296927 0.770868 3.262000 71 50 62
0.294105 0.769198 3.231000 74 51 55
0.291374 0.767659 3.201000 72 52 49
0.288734 0.766257 3.172000 70 52 26
0.286095 0.764753 3.143000 74 54 4
0.283546 0.763393 3.115000 79 56 26
0.280997 0.761935 3.087000 78 54 48
0.278449 0.760379 3.059000 77 54 53
0.273624 0.752467 3.006000 77 53 59
0.271257 0.751175 2.980000 77 55 58
0.268982 0.750046 2.955000 74 53 57
0.266706 0.748829 2.930000 72 52 57
0.264430 0.747525 2.905000 76 53 57
0.262246 0.746392 2.881000 81 54 51
0.260061 0.745176 2.857000 78 55 45
0.257968 0.744138 2.834000 76 59 45
0.255783 0.742755 2.810000 73 58 45
0.253780 0.741820 2.788000 70 59 49
0.251687 0.740540 2.765000 73 58 53
0.249684 0.739450 2.743000 76 58 65
0.247773 0.738554 2.722000 78 55 78
0.245861 0.737584 2.701000 80 53 67
0.243950 0.736540 2.680000 78 55 57
0.242038 0.735424 2.659000 77 56 59
0.240218 0.734512 2.639000 74 53 61
0.240218 0.739131 2.639000 72 50 61
0.238397 0.738114 2.619000 77 49 62
0.236577 0.737027 2.599000 83 50 60
0.233027 0.730449 2.560000 74 58 58
0.231388 0.729763 2.542000 65 63 58
0.228020 0.723526 2.505000 70 59 59
0.226382 0.722680 2.487000 75 59 57
0.224743 0.721772 2.469000 77 54 56
0.223105 0.720800 2.451000 79 54 66
0.221557 0.720061 2.434000 72 55 76
0.220010 0.719263 2.417000 66 55 69
0.218462 0.718405 2.400000 73 54 62
0.217006 0.717789 2.384000 80 51 63
0.215458 0.716814 2.367000 78 52 64
0.214002 0.716084 2.351000 76 54 60
0.214002 0.720200 2.351000 74 55 57
0.209724 0.709835 2.304000 73 60 67
0.209724 0.713868 2.304000 71 55 78
0.208358 0.713227 2.289000 70 54 78
0.206993 0.712534 2.274000 73 56 78
0.205628 0.711788 2.259000 76 58 84
0.204262 0.710990 2.244000 77 53 91
0.202988 0.710458 2.230000 78 51 78
0.200348 0.705072 2.201000 76 52 66
0.199074 0.704415 2.187000 74 55 64
0.199074 0.708244 2.187000 70 55 62
0.197890 0.707839 2.174000 67 57 53
0.196616 0.707062 2.160000 71 54 44
0.196616 0.710843 2.160000 76 51 56
0.192975 0.701391 2.120000 73 52 69
0.191792 0.700778 2.107000 71 55 72
0.190699 0.700454 2.095000 67 55 75
0.189516 0.699752 2.082000 63 54 68
0.188333 0.699005 2.069000 67 51 62
0.187240 0.698551 2.057000 71 51 55
0.186148 0.698056 2.045000 69 56 49
0.185056 0.697518 2.033000 68 62 54
0.183964 0.696939 2.021000 71 56 59
0.181870 0.692505 1.998000 73 54 59
0.180778 0.691822 1.986000 71 55 60
0.180778 0.695299 1.986000 70 55 61
0.179776 0.694905 1.975000 72 53 63
0.178775 0.694473 1.964000 74 50 70
0.177683 0.693646 1.952000 75 52 77
0.176681 0.693135 1.941000 75 54 72
0.175771 0.692944 1.931000 73 57 67
0.175771 0.696325 1.931000 70 62 66
0.173769 0.691733 1.909000 66 61 65
0.172858 0.691434 1.899000 63 60 76
0.171857 0.690733 1.888000 68 54 87
0.170947 0.690362 1.878000 74 50 72
0.170037 0.689956 1.868000 74 52 57
0.169126 0.689515 1.858000 75 50 58
0.168216 0.689039 1.848000 69 48 59
0.167306 0.688528 1.838000 63 49 63
0.166396 0.687982 1.828000 62 52 68
0.165576 0.687779 1.819000 61 53 76
0.165576 0.690963 1.819000 57 52 84
0.163847 0.686896 1.800000 54 54 50
0.162117 0.682763 1.781000 59 55 17
0.160479 0.678949 1.763000 64 56 32
0.159660 0.678553 1.754000 66 53 47
0.368787 0.793239 3.975000 18 6 1
0.368787 0.800197 3.975000 30 12 1
0.339469 0.781420 3.659000 63 43 25
0.337706 0.783734 3.640000 63 46 40
0.337706 0.790106 3.640000 64 41 42
0.334181 0.788163 3.602000 68 41 44
0.330748 0.786307 3.565000 73 42 47
0.327315 0.784322 3.528000 72 45 50
0.324068 0.782656 3.493000 71 44 41
0.324068 0.788770 3.493000 67 45 33
0.314512 0.771446 3.390000 64 49 38
0.311451 0.769812 3.357000 65 54 42
0.308389 0.768064 3.324000 67 52 47
0.305513 0.766665 3.293000 65 49 52
0.302637 0.765158 3.262000 64 49 53
0.302637 0.770868 3.262000 67 47 55
0.299761 0.769198 3.231000 71 50 52
0.296978 0.767659 3.201000 71 53 48
0.294287 0.766257 3.172000 72 52 37
0.288999 0.757940 3.115000 77 54 26
0.286401 0.756531 3.087000 82 53 44
0.283803 0.755024 3.059000 80 52 63
0.281391 0.753916 3.033000 78 53 62
0.276474 0.745958 2.980000 79 54 60
0.274155 0.744873 2.955000 81 52 59
0.274155 0.750046 2.955000 75 51 57
0.271835 0.748829 2.930000 69 51 51
0.269516 0.747525 2.905000 77 51 44
0.267289 0.746392 2.881000 85 51 44
0.265062 0.745176 2.857000 81 52 45
0.262929 0.744138 2.834000 78 56 40
0.258661 0.736940 2.788000 77 58 36
0.258661 0.741820 2.788000 77 59 43
0.256527 0.740540 2.765000 77 60 50
0.254486 0.739450 2.743000 78 57 58
0.252538 0.738554 2.722000 78 55 66
0.248641 0.731849 2.680000 79 55 62
0.246693 0.730769 2.659000 78 58 57
0.246693 0.735424 2.659000 78 56 55
0.244837 0.734512 2.639000 78 55 54
0.244837 0.739131 2.639000 79 52 55
0.242982 0.738114 2.619000 84 50 56
0.241126 0.737027 2.599000 89 53 58
0.237508 0.730449 2.560000 72 58 59
0.235838 0.729763 2.542000 55 60 58
0.232405 0.723526 2.505000 64 60 58
0.230735 0.722680 2.487000 73 56 52
0.229065 0.721772 2.469000 77 51 46
0.227395 0.720800 2.451000 82 53 58
0.225818 0.720061 2.434000 78 56 69
0.224241 0.719263 2.417000 74 55 64
0.222664 0.718405 2.400000 76 51 59
0.221179 0.717789 2.384000 78 52 58
0.219602 0.716814 2.367000 76 51 57
0.218118 0.716084 2.351000 75 53 53
0.216633 0.715298 2.335000 73 53 50
0.213757 0.709835 2.304000 72 55 60
0.213757 0.713868 2.304000 70 52 70
0.212365 0.713227 2.289000 69 54 66
0.209582 0.707834 2.259000 73 55 63
0.208190 0.707062 2.244000 77 53 72
0.206892 0.706554 2.230000 80 47 81
0.206892 0.710458 2.230000 84 49 68
0.204201 0.705072 2.201000 80 52 55
0.202902 0.704415 2.187000 77 53 58
0.202902 0.708244 2.187000 74 55 61
0.201696 0.707839 2.174000 72 55 54
0.201696 0.711645 2.174000 76 55 47
0.200397 0.710843 2.160000 80 53 55
0.196686 0.701391 2.120000 78 54 63
0.195480 0.700778 2.107000 76 55 69
0.194367 0.700454 2.095000 72 54 74
0.193161 0.699752 2.082000 69 51 66
0.191955 0.699005 2.069000 71 51 57
0.190841 0.698551 2.057000 73 52 56
0.188615 0.693960 2.033000 73 54 55
0.188615 0.697518 2.033000 74 55 57
0.187501 0.696939 2.021000 73 55 59
0.185831 0.694238 2.003000 73 55 60
0.185367 0.696002 1.998000 69 55 60
0.184254 0.695299 1.986000 66 54 57
0.183234 0.694905 1.975000 70 55 53
0.183234 0.698362 1.975000 75 53 60
0.181100 0.693646 1.952000 74 55 67
0.180079 0.693135 1.941000 73 55 64
0.180079 0.696533 1.941000 73 58 61
0.179151 0.696325 1.931000 73 59 60
0.178131 0.695719 1.920000 71 61 59
0.176183 0.691434 1.899000 69 57 66
0.175162 0.690733 1.888000 72 56 73
0.174234 0.690362 1.878000 76 55 55
0.172379 0.686263 1.858000 78 57 38
0.172379 0.689515 1.858000 81 53 45
0.171451 0.689039 1.848000 72 51 52
0.170523 0.688528 1.838000 63 50 52
0.169595 0.687982 1.828000 63 53 53
0.168760 0.687779 1.819000 63 52 60
0.168760 0.690963 1.819000 54 50 68
0.166998 0.686896 1.800000 46 51 49
0.165235 0.682763 1.781000 55 56 29
0.164400 0.682415 1.772000 64 54 39
0.162730 0.678553 1.754000 67 53 50
0.375745 0.793239 3.975000 11 3 1
0.375745 0.800197 3.975000 23 10 1
0.347765 0.785691 3.679000 56 40 21
0.347765 0.792131 3.679000 58 41 41
0.347765 0.798571 3.679000 61 38 40
0.344078 0.796478 3.640000 60 40 40
0.336989 0.786307 3.565000 60 42 40
0.333491 0.784322 3.528000 62 44 41
0.330183 0.782656 3.493000 65 44 41
0.330183 0.788770 3.493000 65 45 41
0.323566 0.778955 3.423000 65 46 38
0.320447 0.777380 3.390000 69 49 35
0.314208 0.768064 3.324000 73 52 30
0.311277 0.766665 3.293000 70 51 25
0.311277 0.772429 3.293000 67 51 37
0.308347 0.770868 3.262000 69 50 49
0.308347 0.776578 3.262000 71 50 48
0.305417 0.774854 3.231000 70 52 48
0.299840 0.766257 3.172000 70 52 48
0.294452 0.757940 3.115000 73 53 48
0.289158 0.749669 3.059000 77 53 63
0.286700 0.748607 3.033000 76 52 79
0.286700 0.753916 3.033000 75 52 70
0.281690 0.745958 2.980000 76 53 62
0.279327 0.744873 2.955000 76 50 60
0.279327 0.750046 2.955000 73 51 58
0.276964 0.748829 2.930000 71 50 45
0.274601 0.747525 2.905000 76 49 32
0.272332 0.746392 2.881000 81 49 38
0.270064 0.745176 2.857000 79 51 45
0.267890 0.744138 2.834000 77 55 36
0.265621 0.742755 2.810000 77 57 28
0.265621 0.747674 2.810000 77 59 37
0.263541 0.746700 2.788000 79 59 47
0.261367 0.745381 2.765000 81 58 51
0.257302 0.738554 2.722000 78 56 55
0.255317 0.737584 2.701000 76 56 56
0.253332 0.736540 2.680000 73 56 58
0.251347 0.735424 2.659000 70 58 52
0.249457 0.734512 2.639000 74 55 47
0.249457 0.739131 2.639000 77 55 49
0.247566 0.738114 2.619000 80 55 51
0.245676 0.737027 2.599000 83 56 56
0.241989 0.730449 2.560000 74 57 61
0.240288 0.729763 2.542000 65 61 59
0.238492 0.728725 2.523000 69 59 57
0.235089 0.722680 2.487000 72 54 47
0.233387 0.721772 2.469000 75 53 37
0.231686 0.720800 2.451000 78 51 50
0.230079 0.720061 2.434000 76 55 63
0.228472 0.719263 2.417000 74 58 59
0.226865 0.718405 2.400000 73 54 56
0.225352 0.717789 2.384000 72 56 53
0.223745 0.716814 2.367000 73 54 50
0.222233 0.716084 2.351000 74 55 47
0.220721 0.715298 2.335000 73 57 44
0.217790 0.709835 2.304000 73 58 53
0.217790 0.713868 2.304000 72 56 62
0.216372 0.713227 2.289000 71 56 55
0.213536 0.707834 2.259000 74 55 49
0.212119 0.707062 2.244000 77 53 60
0.210795 0.706554 2.230000 79 49 71
0.210795 0.710458 2.230000 80 46 58
0.208054 0.705072 2.201000 78 50 45
0.206731 0.704415 2.187000 77 51 52
0.205502 0.704034 2.174000 74 53 60
0.205502 0.707839 2.174000 71 55 55
0.204178 0.707062 2.160000 74 54 50
0.202949 0.706565 2.147000 78 55 54
0.201626 0.705691 2.133000 74 56 58
0.200397 0.705102 2.120000 71 58 66
0.199168 0.704466 2.107000 70 53 74
0.196805 0.699752 2.082000 69 48 63
0.195576 0.699005 2.069000 70 51 53
0.193308 0.694476 2.045000 71 54 57
0.192173 0.693960 2.033000 73 52 62
0.192173 0.697518 2.033000 76 51 61
0.191039 0.696939 2.021000 74 54 60
0.189905 0.696317 2.009000 73 57 60
0.189338 0.697744 2.003000 71 55 61
0.188865 0.699500 1.998000 69 52 52
0.187731 0.698775 1.986000 71 53 44
0.186691 0.698362 1.975000 73 53 51
0.184517 0.693646 1.952000 73 54 58
0.183477 0.693135 1.941000 74 56 57
0.183477 0.696533 1.941000 73 56 56
0.182532 0.696325 1.931000 72 56 54
0.181492 0.695719 1.920000 71 55 53
0.180452 0.695075 1.909000 71 54 56
0.178467 0.690733 1.888000 73 55 60
0.177522 0.690362 1.878000 76 59 39
0.176576 0.689956 1.868000 75 56 19
0.175631 0.689515 1.858000 75 54 32
0.174686 0.689039 1.848000 69 51 45
0.173741 0.688528 1.838000 64 49 41
0.172795 0.687982 1.828000 64 52 38
0.171945 0.687779 1.819000 65 54 45
0.171945 0.690963 1.819000 61 51 53
0.169203 0.683080 1.790000 57 47 47
0.168353 0.682763 1.781000 60 51 42
0.167502 0.682415 1.772000 64 52 47
0.166651 0.682035 1.763000 66 53 53
0.382703 0.793239 3.975000 4 5 1
0.357960 0.794020 3.718000 50 42 29
0.354205 0.792131 3.679000 54 41 40
0.354205 0.798571 3.679000 58 40 42
0.350450 0.796478 3.640000 52 39 43
0.346792 0.794468 3.602000 47 42 40
0.339667 0.784322 3.528000 53 46 37
0.339667 0.790498 3.528000 60 46 31
0.336297 0.788770 3.493000 63 45 25
0.332928 0.786920 3.458000 67 47 31
0.326381 0.777380 3.390000 73 47 38
0.323204 0.775689 3.357000 79 51 37
0.317042 0.766665 3.293000 75 54 37
0.317042 0.772429 3.293000 71 52 45
0.314057 0.770868 3.262000 71 53 54
0.314057 0.776578 3.262000 72 51 51
0.311073 0.774854 3.231000 70 55 47
0.308184 0.773263 3.201000 68 52 48
0.294513 0.744315 3.059000 70 53 48
0.294513 0.749669 3.059000 72 54 53
0.289410 0.741943 3.006000 72 54 59
0.289410 0.747204 3.006000 73 53 59
0.286907 0.745958 2.980000 72 56 60
0.284500 0.744873 2.955000 72 53 58
0.284500 0.750046 2.955000 72 54 56
0.282093 0.748829 2.930000 73 50 48
0.279686 0.747525 2.905000 75 46 41
0.277376 0.746392 2.881000 78 48 47
0.275065 0.745176 2.857000 77 51 53
0.272850 0.744138 2.834000 77 54 49
0.270540 0.742755 2.810000 77 59 46
0.268422 0.741820 2.788000 77 59 47
0.266207 0.740540 2.765000 80 61 48
0.266207 0.745381 2.765000 84 58 43
0.262067 0.738554 2.722000 79 55 38
0.260046 0.737584 2.701000 74 55 48
0.258024 0.736540 2.680000 68 55 58
0.256002 0.735424 2.659000 63 55 46
0.254076 0.734512 2.639000 69 54 34
0.254076 0.739131 2.639000 76 56 43
0.252151 0.738114 2.619000 76 59 53
0.250225 0.737027 2.599000 77 57 61
0.246470 0.730449 2.560000 76 56 69
0.244737 0.729763 2.542000 76 59 65
0.241175 0.723526 2.505000 74 61 60
0.239442 0.722680 2.487000 72 58 59
0.237709 0.721772 2.469000 73 56 57
0.235976 0.720800 2.451000 75 54 60
0.234339 0.720061 2.434000 74 55 62
0.234339 0.724322 2.434000 74 55 58
0.231066 0.718405 2.400000 70 53 54
0.229526 0.717789 2.384000 66 54 53
0.227889 0.716814 2.367000 69 56 52
0.226348 0.716084 2.351000 73 57 50
0.224808 0.715298 2.335000 73 62 48
0.223364 0.714764 2.320000 74 60 57
0.221823 0.713868 2.304000 73 59 66
0.218935 0.708554 2.274000 73 55 61
0.217491 0.707834 2.259000 75 56 56
0.216047 0.707062 2.244000 78 54 68
0.214699 0.706554 2.230000 77 50 81
0.214699 0.710458 2.230000 77 49 71
0.211907 0.705072 2.201000 77 52 60
0.210559 0.704415 2.187000 77 52 60
0.209307 0.704034 2.174000 74 53 61
0.207959 0.703281 2.160000 71 52 49
0.206708 0.702807 2.147000 73 52 38
0.205360 0.701958 2.133000 76 55 47
0.204108 0.701391 2.120000 71 59 56
0.204108 0.705102 2.120000 67 57 70
0.202857 0.704466 2.107000 68 55 84
0.201701 0.704121 2.095000 70 51 61
0.199198 0.699005 2.069000 69 51 39
0.198043 0.698551 2.057000 69 52 48
0.195732 0.693960 2.033000 74 50 57
0.195732 0.697518 2.033000 79 52 59
0.194577 0.696939 2.021000 76 53 61
0.194577 0.700477 2.021000 73 55 63
0.193422 0.699834 2.009000 73 56 66
0.192362 0.699500 1.998000 73 53 60
0.191207 0.698775 1.986000 72 55 54
0.190148 0.698362 1.975000 71 53 56
0.187934 0.693646 1.952000 73 53 58
0.187934 0.697063 1.952000 76 55 58
0.186875 0.696533 1.941000 73 56 59
0.185912 0.696325 1.931000 71 54 60
0.184853 0.695719 1.920000 72 51 62
0.182831 0.691434 1.899000 74 53 62
0.181772 0.690733 1.888000 75 54 62
0.180809 0.690362 1.878000 76 56 50
0.179846 0.689956 1.868000 72 57 39
0.178884 0.689515 1.858000 69 52 45
0.177921 0.689039 1.848000 67 50 51
0.177921 0.692274 1.848000 65 51 46
0.175995 0.687982 1.828000 66 54 42
0.175129 0.687779 1.819000 67 54 49
0.174166 0.687164 1.809000 67 55 55
0.173299 0.686896 1.800000 68 50 52
0.171470 0.682763 1.781000 66 49 49
0.170604 0.682415 1.772000 65 51 51
0.170604 0.685517 1.772000 66 53 53
0.364468 0.794020 3.718000 52 46 37
0.360645 0.792131 3.679000 56 44 40
0.360645 0.798571 3.679000 60 45 43
0.356822 0.796478 3.640000 57 42 47
0.353097 0.794468 3.602000 54 43 40
0.349470 0.792548 3.565000 58 45 33
0.345843 0.790498 3.528000 62 49 21
0.345843 0.796674 3.528000 65 48 10
0.338981 0.786920 3.458000 67 50 25
0.332315 0.777380 3.390000 71 49 41
0.329080 0.775689 3.357000 75 52 45
0.322806 0.766665 3.293000 73 52 49
0.322806 0.772429 3.293000 72 53 54
0.319767 0.770868 3.262000 71 48 60
0.319767 0.776578 3.262000 71 46 53
0.316729 0.774854 3.231000 70 50 47
0.316729 0.780510 3.231000 70 51 48
0.297319 0.737988 3.033000 71 53 49
0.297319 0.743297 3.033000 73 56 44
0.297319 0.748607 3.033000 74 54 39
0.294672 0.747204 3.006000 75 53 49
0.292123 0.745958 2.980000 73 55 59
0.292123 0.751175 2.980000 71 55 56
0.289673 0.750046 2.955000 68 52 54
0.289673 0.755218 2.955000 66 51 52
0.287222 0.753958 2.930000 71 48 50
0.282419 0.746392 2.881000 77 48 55
0.280066 0.745176 2.857000 76 51 61
0.277811 0.744138 2.834000 76 54 62
0.275459 0.742755 2.810000 76 58 64
0.273302 0.741820 2.788000 76 58 57
0.273302 0.746700 2.788000 79 59 50
0.268891 0.739450 2.743000 81 60 35
0.266832 0.738554 2.722000 78 57 21
0.264774 0.737584 2.701000 75 54 39
0.262715 0.736540 2.680000 72 54 58
0.260657 0.735424 2.659000 69 54 39
0.258696 0.734512 2.639000 73 54 21
0.258696 0.739131 2.639000 77 56 38
0.256735 0.738114 2.619000 76 58 55
0.254775 0.737027 2.599000 76 59 66
0.250952 0.730449 2.560000 75 58 78
0.249187 0.729763 2.542000 73 58 71
0.245560 0.723526 2.505000 69 60 64
0.243796 0.722680 2.487000 65 62 71
0.242031 0.721772 2.469000 71 57 78
0.240267 0.720800 2.451000 76 54 70
0.238600 0.720061 2.434000 76 55 62
0.238600 0.724322 2.434000 76 57 57
0.235267 0.718405 2.400000 76 55 52
0.233699 0.717789 2.384000 76 54 53
0.232032 0.716814 2.367000 75 55 54
0.230464 0.716084 2.351000 74 56 53
0.228895 0.715298 2.335000 76 60 53
0.225857 0.709835 2.304000 79 64 61
0.225857 0.713868 2.304000 75 59 70
0.224386 0.713227 2.289000 72 51 66
0.222916 0.712534 2.274000 75 54 63
0.221445 0.711788 2.259000 78 57 77
0.219975 0.710990 2.244000 76 52 92
0.218602 0.710458 2.230000 74 50 84
0.217132 0.709557 2.215000 76 52 76
0.214387 0.704415 2.187000 79 55 69
0.213113 0.704034 2.174000 76 53 62
0.211741 0.703281 2.160000 73 49 44
0.210466 0.702807 2.147000 75 52 26
0.209094 0.701958 2.133000 77 56 40
0.207819 0.701391 2.120000 73 55 54
0.207819 0.705102 2.120000 69 56 74
0.206545 0.704466 2.107000 69 53 94
0.205369 0.704121 2.095000 69 52 60
0.204094 0.703397 2.082000 66 51 26
0.201644 0.698551 2.057000 64 54 39
0.200467 0.698056 2.045000 69 53 53
0.199291 0.697518 2.033000 75 55 57
0.198115 0.696939 2.021000 74 55 62
0.198115 0.700477 2.021000 73 54 66
0.196938 0.699834 2.009000 77 53 71
0.195860 0.699500 1.998000 81 51 68
0.194684 0.698775 1.986000 74 52 65
0.193605 0.698362 1.975000 67 52 62
0.191351 0.693646 1.952000 70 53 59
0.191351 0.697063 1.952000 74 55 60
0.190272 0.696533 1.941000 73 56 62
0.189292 0.696325 1.931000 71 55 66
0.187135 0.691733 1.909000 72 53 71
0.186155 0.691434 1.899000 72 54 68
0.185077 0.690733 1.888000 73 54 65
0.184097 0.690362 1.878000 74 56 62
0.183116 0.689956 1.868000 72 52 59
0.182136 0.689515 1.858000 70 49 58
0.181156 0.689039 1.848000 69 50 57
0.180175 0.688528 1.838000 69 51 52
0.179195 0.687982 1.828000 69 53 47
0.178313 0.687779 1.819000 69 55 52
0.177333 0.687164 1.809000 69 52 58
0.176450 0.686896 1.800000 70 50 57
0.174588 0.682763 1.781000 69 49 56
0.174588 0.685881 1.781000 68 51 55
0.173706 0.685517 1.772000 70 51 54
0.370976 0.787512 3.718000 56 41 37
0.370976 0.794020 3.718000 55 44 39
0.367085 0.792131 3.679000 59 47 42
0.367085 0.798571 3.679000 63 46 47
0.363194 0.796478 3.640000 62 42 53
0.359402 0.794468 3.602000 62 42 46
0.355710 0.792548 3.565000 63 45 39
0.352019 0.790498 3.528000 65 48 31
0.352019 0.796674 3.528000 66 51 23
0.348526 0.794885 3.493000 68 48 34
0.341542 0.784947 3.423000 69 48 46
0.338249 0.783314 3.390000 71 48 51
0.331664 0.773882 3.324000 72 51 56
0.328571 0.772429 3.293000 73 49 64
0.325477 0.770868 3.262000 72 42 73
0.325477 0.776578 3.262000 71 47 63
0.322384 0.774854 3.231000 71 50 52
0.322384 0.780510 3.231000 72 52 50
0.310810 0.757940 3.115000 73 53 48
0.302628 0.743297 3.033000 75 54 46
0.302628 0.748607 3.033000 76 56 44
0.302628 0.753916 3.033000 78 55 50
0.299934 0.752467 3.006000 74 56 56
0.297340 0.751175 2.980000 70 53 50
0.294845 0.750046 2.955000 65 51 44
0.292351 0.748829 2.930000 60 50 47
0.292351 0.753958 2.930000 68 47 50
0.287462 0.746392 2.881000 76 49 56
0.285067 0.745176 2.857000 76 51 62
0.282772 0.744138 2.834000 76 54 69
0.280378 0.742755 2.810000 76 61 76
0.278182 0.741820 2.788000 76 58 64
0.278182 0.746700 2.788000 77 59 52
0.273692 0.739450 2.743000 79 60 44
0.271597 0.738554 2.722000 77 60 37
0.267406 0.731849 2.680000 76 57 56
0.267406 0.736540 2.680000 76 56 76
0.265311 0.735424 2.659000 76 54 54
0.263315 0.734512 2.639000 77 53 33
0.263315 0.739131 2.639000 78 56 44
0.261320 0.738114 2.619000 77 60 55
0.259324 0.737027 2.599000 76 60 62
0.255433 0.730449 2.560000 73 59 69
0.253637 0.729763 2.542000 71 59 66
0.249945 0.723526 2.505000 65 60 63
0.248149 0.722680 2.487000 59 59 66
0.246353 0.721772 2.469000 68 58 70
0.244557 0.720800 2.451000 78 54 62
0.242861 0.720061 2.434000 78 55 55
0.242861 0.724322 2.434000 79 55 45
0.239468 0.718405 2.400000 83 56 34
0.237872 0.717789 2.384000 87 55 43
0.236176 0.716814 2.367000 81 54 52
0.234579 0.716084 2.351000 76 56 55
0.232983 0.715298 2.335000 80 59 59
0.229890 0.709835 2.304000 84 61 66
0.228393 0.709220 2.289000 78 63 74
0.226896 0.708554 2.274000 72 56 60
0.226896 0.712534 2.274000 75 55 46
0.223903 0.707062 2.244000 79 57 65
0.223903 0.710990 2.244000 75 54 84
0.222506 0.710458 2.230000 71 51 80
0.219612 0.705072 2.201000 76 51 77
0.218216 0.704415 2.187000 81 54 73
0.216918 0.704034 2.174000 78 55 70
0.215522 0.703281 2.160000 76 52 64
0.214224 0.702807 2.147000 77 52 58
0.214224 0.706565 2.147000 78 52 57
0.211530 0.701391 2.120000 75 52 57
0.211530 0.705102 2.120000 72 51 70
0.210233 0.704466 2.107000 70 50 84
0.209036 0.704121 2.095000 68 49 63
0.207739 0.703397 2.082000 63 49 42
0.206442 0.702626 2.069000 59 53 47
0.205244 0.702152 2.057000 65 54 52
0.204047 0.701636 2.045000 72 54 60
0.202850 0.701077 2.033000 73 58 68
0.201652 0.700477 2.021000 74 54 75
0.200455 0.699834 2.009000 81 54 82
0.199357 0.699500 1.998000 89 52 74
0.198160 0.698775 1.986000 76 51 67
0.197063 0.698362 1.975000 63 52 61
0.195965 0.697910 1.964000 68 54 55
0.194768 0.697063 1.952000 73 56 57
0.193670 0.696533 1.941000 72 59 60
0.192672 0.696325 1.931000 72 55 68
0.190477 0.691733 1.909000 71 53 77
0.189479 0.691434 1.899000 71 53 73
0.188382 0.690733 1.888000 71 54 69
