ply
format ascii 1.0
element vertex 1272
property float x
property float y
property float z
property uchar red
property uchar green
property uchar blue
end_header
1.036615 0.268362 3.006000 86 60 67
1.036615 0.273624 3.006000 86 58 67
1.036615 0.278886 3.006000 86 58 66
1.036615 0.284148 3.006000 86 58 76
1.036615 0.289410 3.006000 85 57 86
1.036615 0.294672 3.006000 85 55 78
1.045926 0.302628 3.033000 91 54 71
1.036615 0.305196 3.006000 97 57 64
1.036615 0.310458 3.006000 90 56 57
1.045926 0.318556 3.033000 84 54 65
1.045926 0.323865 3.033000 78 54 73
1.045926 0.329175 3.033000 73 55 63
1.045926 0.334484 3.033000 78 55 53
1.045926 0.339793 3.033000 83 56 58
1.036615 0.342030 3.006000 84 60 64
1.036615 0.347292 3.006000 85 59 65
1.036615 0.352554 3.006000 85 60 66
1.027649 0.354721 2.980000 85 58 66
1.036615 0.363078 3.006000 86 56 66
1.027649 0.365154 2.980000 87 57 67
1.027649 0.370371 2.980000 86 57 69
1.019027 0.372437 2.955000 85 58 66
1.027649 0.380804 2.980000 90 56 62
1.027649 0.386020 2.980000 96 53 63
1.027649 0.391237 2.980000 90 50 64
1.019027 0.393127 2.955000 84 53 59
1.019027 0.398300 2.955000 81 54 53
1.027649 0.406886 2.980000 78 59 61
1.036615 0.415698 3.006000 81 64 69
1.036615 0.420960 3.006000 84 57 69
1.036615 0.426222 3.006000 86 54 70
1.036615 0.431484 3.006000 89 55 71
1.036615 0.436746 3.006000 91 58 72
1.036615 0.442008 3.006000 94 57 70
1.036615 0.447270 3.006000 90 60 69
1.036615 0.452532 3.006000 86 59 67
1.027649 0.453835 2.980000 86 62 65
1.027649 0.459051 2.980000 87 59 69
1.027649 0.464268 2.980000 86 59 74
1.027649 0.469484 2.980000 86 56 69
1.027649 0.474701 2.980000 93 54 65
1.027649 0.479917 2.980000 100 55 63
1.027649 0.485134 2.980000 91 56 61
1.027649 0.490350 2.980000 82 52 58
1.027649 0.495567 2.980000 82 46 55
1.027649 0.500783 2.980000 83 49 53
1.027649 0.506000 2.980000 77 48 51
1.027649 0.511216 2.980000 72 48 52
1.036615 0.520938 3.006000 81 47 53
1.036615 0.526200 3.006000 90 48 59
1.036615 0.531462 3.006000 80 51 65
1.036615 0.536724 3.006000 70 50 59
1.027649 0.537299 2.980000 60 49 52
1.027649 0.542515 2.980000 51 48 58
1.027649 0.547732 2.980000 62 50 65
1.027649 0.552948 2.980000 74 46 58
1.027649 0.558165 2.980000 74 44 51
1.036615 0.568296 3.006000 74 45 52
1.036615 0.573559 3.006000 70 46 53
1.036615 0.578820 3.006000 67 44 55
1.027649 0.579031 2.980000 70 41 58
1.036615 0.589344 3.006000 74 40 55
1.027649 0.589464 2.980000 71 41 52
1.027649 0.594680 2.980000 68 41 50
1.027649 0.599896 2.980000 65 41 48
1.019027 0.600037 2.955000 62 39 46
1.019027 0.605209 2.955000 62 38 45
1.019027 0.610382 2.955000 62 37 46
1.027649 0.620762 2.980000 62 34 47
1.019027 0.620728 2.955000 63 35 45
1.019027 0.625900 2.955000 68 41 43
1.027649 0.636412 2.980000 73 33 41
1.027649 0.641628 2.980000 52 31 40
1.027649 0.646845 2.980000 32 33 35
1.027649 0.652061 2.980000 39 34 31
1.027649 0.657278 2.980000 47 32 32
1.027649 0.662494 2.980000 53 29 33
1.027649 0.667711 2.980000 59 28 30
1.019027 0.667282 2.955000 52 29 27
1.019027 0.672455 2.955000 46 22 26
1.019027 0.677628 2.955000 44 17 26
1.019027 0.682800 2.955000 42 18 26
1.019027 0.687973 2.955000 43 17 26
1.019027 0.693146 2.955000 45 17 27
1.019027 0.698318 2.955000 40 18 29
1.019027 0.703491 2.955000 35 17 24
1.027649 0.714659 2.980000 33 17 19
1.019027 0.713836 2.955000 32 15 25
1.019027 0.719009 2.955000 37 9 31
1.019027 0.724182 2.955000 42 7 22
1.019027 0.729355 2.955000 33 3 14
1.019027 0.734527 2.955000 25 5 10
1.010406 0.733442 2.930000 26 9 6
1.010406 0.738571 2.930000 28 7 10
1.010406 0.743700 2.930000 35 8 15
1.010406 0.748829 2.930000 42 13 16
0.740390 0.702807 2.147000 146 157 115
0.735562 0.701958 2.133000 154 132 131
0.735562 0.705691 2.133000 153 120 148
0.731079 0.705102 2.120000 152 124 146
0.726596 0.704466 2.107000 155 128 145
0.722458 0.704121 2.095000 159 128 151
0.722458 0.707789 2.095000 160 128 157
0.717975 0.707041 2.082000 162 128 158
0.709353 0.702152 2.057000 165 127 159
0.705215 0.701636 2.045000 168 130 162
0.701077 0.701077 2.033000 170 133 165
0.701077 0.704636 2.033000 173 136 168
0.696939 0.704014 2.021000 178 140 172
0.696939 0.707552 2.021000 183 139 176
0.684869 0.698775 1.986000 178 141 180
0.681076 0.698362 1.975000 174 146 184
0.677283 0.697910 1.964000 175 151 189
0.673144 0.697063 1.952000 177 148 187
0.669351 0.696533 1.941000 178 150 186
0.665902 0.696325 1.931000 180 149 188
0.662109 0.695719 1.920000 181 147 191
0.658316 0.695075 1.909000 183 149 189
0.654867 0.694758 1.899000 180 151 188
0.651074 0.694038 1.888000 177 152 191
0.651074 0.697343 1.888000 181 154 195
0.647626 0.696937 1.878000 186 157 197
0.644177 0.696496 1.868000 189 168 198
0.640729 0.696020 1.858000 192 159 197
0.630383 0.687982 1.828000 194 154 197
0.627280 0.687779 1.819000 196 159 205
0.623831 0.687164 1.809000 196 164 213
0.617279 0.683080 1.790000 197 162 213
0.614175 0.682763 1.781000 199 166 213
0.614175 0.685881 1.781000 201 167 214
0.611072 0.685517 1.772000 203 170 215
0.607968 0.685121 1.763000 205 171 216
0.950721 -0.196866 2.743000 108 45 20
0.950721 -0.192065 2.743000 108 12 37
0.950721 -0.187263 2.743000 148 78 54
0.950721 -0.182462 2.743000 189 158 116
0.950721 -0.177660 2.743000 157 130 178
0.950721 -0.172858 2.743000 125 67 89
0.943443 -0.166770 2.722000 90 19 1
0.966318 -0.004880 2.788000 107 52 38
0.966318 -0.000000 2.788000 108 56 39
0.966318 0.004880 2.788000 105 57 40
0.966318 0.009761 2.788000 103 56 32
0.958346 0.014520 2.765000 109 51 24
0.958346 0.019361 2.765000 115 52 21
0.958346 0.024201 2.765000 108 54 19
0.958346 0.029041 2.765000 102 56 16
0.958346 0.033881 2.765000 99 47 14
0.958346 0.038721 2.765000 96 45 8
0.958346 0.043561 2.765000 97 48 2
0.958346 0.048401 2.765000 98 54 24
0.958346 0.053241 2.765000 97 52 46
0.958346 0.058082 2.765000 96 50 25
0.966318 0.063445 2.788000 95 48 4
0.958346 0.067762 2.765000 95 47 6
0.958346 0.072602 2.765000 102 44 9
0.966318 0.078086 2.788000 108 44 9
0.958346 0.082282 2.765000 104 46 9
0.958346 0.087122 2.765000 100 46 10
0.958346 0.091963 2.765000 97 46 11
0.958346 0.096803 2.765000 95 46 12
0.958346 0.101643 2.765000 98 45 14
0.958346 0.106483 2.765000 101 45 15
0.958346 0.111323 2.765000 97 46 17
0.958346 0.116163 2.765000 94 49 17
0.958346 0.121003 2.765000 97 44 17
0.958346 0.125843 2.765000 100 40 17
0.958346 0.130684 2.765000 98 40 17
0.958346 0.135524 2.765000 97 39 18
0.958346 0.140364 2.765000 95 43 20
0.950721 0.144049 2.743000 93 48 32
0.950721 0.148850 2.743000 96 62 45
0.958346 0.154884 2.765000 98 71 60
0.958346 0.159724 2.765000 100 73 76
0.958346 0.164565 2.765000 102 73 66
1.006870 0.177982 2.905000 97 69 56
1.032865 0.187794 2.980000 92 69 72
1.032865 0.193010 2.980000 95 69 89
1.032865 0.198227 2.980000 99 67 80
1.032865 0.203443 2.980000 95 63 72
1.032865 0.208660 2.980000 91 64 67
1.032865 0.213876 2.980000 89 57 63
1.032865 0.219093 2.980000 87 53 61
1.032865 0.224309 2.980000 83 53 60
1.032865 0.229526 2.980000 79 53 65
1.032865 0.234742 2.980000 84 55 71
1.032865 0.239959 2.980000 89 55 71
1.041877 0.247314 3.006000 86 53 72
1.041877 0.252576 3.006000 83 50 67
1.032865 0.255608 2.980000 81 52 62
1.032865 0.260825 2.980000 79 55 65
1.032865 0.266041 2.980000 81 54 68
1.032865 0.271258 2.980000 82 53 62
1.032865 0.276474 2.980000 80 58 56
1.032865 0.281691 2.980000 78 62 64
1.032865 0.286907 2.980000 80 58 73
1.041877 0.294672 3.006000 82 55 70
1.041877 0.299934 3.006000 87 53 67
1.032865 0.302556 2.980000 92 55 65
1.032865 0.307773 2.980000 89 53 63
1.041877 0.315720 3.006000 86 52 71
1.041877 0.320982 3.006000 82 53 79
1.032865 0.323423 2.980000 78 55 61
1.041877 0.331506 3.006000 82 54 43
1.041877 0.336768 3.006000 87 55 52
1.032865 0.339072 2.980000 85 58 61
1.032865 0.344288 2.980000 83 61 61
1.032865 0.349505 2.980000 82 60 62
1.032865 0.354721 2.980000 82 60 62
1.032865 0.359938 2.980000 82 60 63
1.032865 0.365154 2.980000 83 59 65
1.032865 0.370371 2.980000 82 59 67
1.024200 0.372437 2.955000 80 59 62
1.032865 0.380804 2.980000 85 56 57
1.024200 0.382782 2.955000 90 54 60
1.032865 0.391237 2.980000 86 53 63
1.024200 0.393127 2.955000 83 54 59
1.024200 0.398300 2.955000 81 58 55
1.024200 0.403473 2.955000 80 61 59
1.024200 0.408646 2.955000 81 59 63
1.024200 0.413818 2.955000 83 53 67
1.024200 0.418991 2.955000 85 53 71
1.032865 0.427752 2.980000 88 53 73
1.032865 0.432969 2.980000 89 56 75
1.032865 0.438185 2.980000 91 58 71
1.032865 0.443402 2.980000 89 58 67
1.032865 0.448618 2.980000 87 58 68
1.032865 0.453835 2.980000 86 57 69
1.024200 0.455200 2.955000 86 56 68
1.024200 0.460373 2.955000 85 55 68
1.032865 0.469484 2.980000 84 56 66
1.032865 0.474701 2.980000 87 57 64
1.032865 0.479917 2.980000 91 61 61
1.032865 0.485134 2.980000 85 57 58
1.032865 0.490350 2.980000 80 57 58
1.032865 0.495567 2.980000 80 51 58
1.032865 0.500783 2.980000 80 50 64
1.032865 0.506000 2.980000 77 49 71
1.032865 0.511216 2.980000 74 50 64
1.032865 0.516433 2.980000 79 47 58
1.032865 0.521649 2.980000 84 46 64
1.024200 0.522446 2.955000 79 49 71
1.024200 0.527618 2.955000 73 53 62
1.024200 0.532791 2.955000 71 49 53
1.024200 0.537964 2.955000 70 46 54
1.024200 0.543137 2.955000 73 47 56
1.024200 0.548309 2.955000 77 46 53
1.024200 0.553482 2.955000 75 46 50
1.032865 0.563381 2.980000 72 46 52
1.032865 0.568598 2.980000 68 45 54
1.032865 0.573814 2.980000 64 46 49
1.032865 0.579031 2.980000 68 42 44
1.032865 0.584247 2.980000 72 40 48
1.032865 0.589464 2.980000 70 42 53
1.032865 0.594680 2.980000 67 43 50
1.024200 0.594864 2.955000 65 42 47
1.024200 0.600037 2.955000 64 40 46
1.024200 0.605209 2.955000 62 38 46
1.024200 0.610382 2.955000 61 40 50
1.024200 0.615555 2.955000 61 37 54
1.024200 0.620728 2.955000 61 35 49
1.024200 0.625900 2.955000 63 35 44
1.024200 0.631073 2.955000 65 33 41
1.024200 0.636246 2.955000 52 32 39
1.024200 0.641418 2.955000 39 35 38
1.024200 0.646591 2.955000 43 33 38
1.024200 0.651764 2.955000 47 32 36
1.032865 0.662494 2.980000 50 28 35
1.032865 0.667711 2.980000 53 26 31
1.024200 0.667282 2.955000 49 27 28
1.024200 0.672455 2.955000 45 26 27
1.024200 0.677628 2.955000 42 23 26
1.024200 0.682800 2.955000 39 23 26
1.024200 0.687973 2.955000 41 19 27
1.024200 0.693146 2.955000 42 18 34
1.024200 0.698318 2.955000 39 16 41
1.024200 0.703491 2.955000 37 16 33
1.024200 0.708664 2.955000 34 18 25
1.024200 0.713836 2.955000 31 23 33
1.024200 0.719009 2.955000 33 14 42
1.024200 0.724182 2.955000 36 10 28
1.024200 0.729355 2.955000 26 5 14
1.024200 0.734527 2.955000 17 4 8
1.024200 0.739700 2.955000 21 4 3
1.015535 0.738571 2.930000 25 3 7
1.006870 0.737355 2.905000 27 8 11
1.024200 0.755218 2.955000 30 12 12
0.744148 0.702807 2.147000 121 89 80
0.739296 0.701958 2.133000 153 128 114
0.734790 0.701391 2.120000 150 131 148
0.730284 0.700778 2.107000 148 126 141
0.726125 0.700454 2.095000 152 122 134
0.726125 0.704121 2.095000 156 124 143
0.726125 0.707789 2.095000 156 126 152
0.721619 0.707041 2.082000 157 129 149
0.712954 0.702152 2.057000 160 128 146
0.712954 0.705753 2.057000 164 126 152
0.708795 0.705215 2.045000 166 131 159
0.704636 0.704636 2.033000 169 134 163
0.704636 0.708195 2.033000 171 137 167
0.700477 0.707552 2.021000 174 137 172
0.692505 0.702997 1.998000 172 141 177
0.688346 0.702252 1.986000 170 145 179
0.684533 0.701819 1.975000 173 146 181
0.676561 0.697063 1.952000 176 140 181
0.672749 0.696533 1.941000 177 148 182
0.669283 0.696325 1.931000 179 154 186
0.665470 0.695719 1.920000 182 152 190
0.661657 0.695075 1.909000 185 148 186
0.658192 0.694758 1.899000 184 149 183
0.654379 0.694038 1.888000 184 147 188
0.654379 0.697343 1.888000 185 153 193
0.650913 0.696937 1.878000 186 156 194
0.647447 0.696496 1.868000 188 158 195
0.643981 0.696020 1.858000 191 154 190
0.633583 0.687982 1.828000 192 153 185
0.630464 0.687779 1.819000 193 153 198
0.626998 0.687164 1.809000 194 161 212
0.620412 0.683080 1.790000 194 160 211
0.617293 0.682763 1.781000 194 163 210
0.617293 0.685881 1.781000 194 166 211
0.614173 0.685517 1.772000 198 167 213
0.611054 0.685121 1.763000 202 171 214
0.948207 -0.200124 2.722000 118 52 21
0.955523 -0.196866 2.743000 116 53 17
0.955523 -0.192065 2.743000 114 51 56
0.955523 -0.187263 2.743000 154 65 95
0.955523 -0.182462 2.743000 194 139 131
0.948207 -0.176300 2.722000 157 157 167
0.948207 -0.171535 2.722000 121 67 84
0.940892 -0.165484 2.701000 91 8 1
0.963186 -0.004840 2.765000 107 53 28
0.963186 -0.000000 2.765000 106 56 37
0.955523 0.004802 2.743000 102 62 46
0.955523 0.009603 2.743000 99 55 38
0.955523 0.014405 2.743000 104 46 30
0.955523 0.019207 2.743000 109 51 30
0.955523 0.024008 2.743000 106 53 30
0.955523 0.028810 2.743000 103 50 24
0.955523 0.033611 2.743000 101 45 17
0.955523 0.038413 2.743000 100 45 12
0.955523 0.043215 2.743000 100 45 6
0.955523 0.048016 2.743000 101 49 18
0.955523 0.052818 2.743000 98 53 30
0.955523 0.057620 2.743000 96 49 17
0.963186 0.062922 2.765000 93 45 5
0.963186 0.067762 2.765000 91 44 7
0.955523 0.072024 2.743000 96 41 9
0.963186 0.077442 2.765000 101 43 9
0.955523 0.081628 2.743000 99 44 8
0.963186 0.087122 2.765000 97 44 7
0.955523 0.091231 2.743000 94 47 6
0.955523 0.096032 2.743000 91 47 16
0.955523 0.100834 2.743000 93 46 25
0.963186 0.106483 2.765000 96 47 23
0.963186 0.111323 2.765000 95 49 21
0.963186 0.116163 2.765000 95 46 26
0.963186 0.121003 2.765000 95 44 31
0.963186 0.125843 2.765000 95 42 22
0.955523 0.129644 2.743000 95 40 14
0.955523 0.134445 2.743000 96 41 12
0.955523 0.139247 2.743000 92 45 10
0.955523 0.144049 2.743000 88 51 29
0.955523 0.148850 2.743000 91 64 47
0.955523 0.153652 2.743000 95 72 62
0.955523 0.158454 2.743000 94 76 76
0.963186 0.164565 2.765000 93 73 70
0.963186 0.169405 2.765000 88 68 65
1.020664 0.184643 2.930000 84 68 74
1.029373 0.191391 2.955000 87 71 83
1.029373 0.196564 2.955000 90 65 79
1.029373 0.201736 2.955000 88 60 74
1.038082 0.208660 2.980000 86 60 70
1.038082 0.213876 2.980000 85 55 67
1.038082 0.219093 2.980000 85 57 59
1.029373 0.222427 2.955000 79 55 52
1.029373 0.227600 2.955000 73 57 61
1.029373 0.232773 2.955000 83 60 71
1.038082 0.239959 2.980000 94 55 74
1.038082 0.245175 2.980000 88 54 78
1.038082 0.250392 2.980000 82 52 72
1.038082 0.255608 2.980000 77 55 67
1.038082 0.260825 2.980000 73 55 66
1.038082 0.266041 2.980000 76 50 66
1.038082 0.271258 2.980000 79 54 57
1.038082 0.276474 2.980000 75 60 49
1.038082 0.281691 2.980000 71 61 59
1.038082 0.286907 2.980000 75 60 70
1.038082 0.292123 2.980000 79 55 68
1.038082 0.297340 2.980000 83 50 67
1.038082 0.302556 2.980000 87 52 63
1.029373 0.305191 2.955000 87 50 59
1.038082 0.312990 2.980000 88 52 66
1.038082 0.318206 2.980000 85 53 74
1.029373 0.320709 2.955000 83 53 63
1.038082 0.328639 2.980000 87 54 52
1.038082 0.333856 2.980000 92 56 57
1.038082 0.339072 2.980000 87 58 63
1.038082 0.344288 2.980000 82 60 63
1.038082 0.349505 2.980000 80 62 63
1.029373 0.351746 2.955000 79 61 62
1.038082 0.359938 2.980000 79 65 60
1.038082 0.365154 2.980000 80 63 63
1.029373 0.367264 2.955000 78 61 65
1.029373 0.372437 2.955000 76 58 62
1.029373 0.377609 2.955000 80 58 59
1.029373 0.382782 2.955000 84 55 61
1.029373 0.387955 2.955000 83 54 64
1.029373 0.393127 2.955000 83 56 60
1.029373 0.398300 2.955000 82 63 57
1.029373 0.403473 2.955000 82 60 60
1.029373 0.408646 2.955000 82 60 63
1.029373 0.413818 2.955000 83 55 66
1.029373 0.418991 2.955000 85 55 69
1.029373 0.424164 2.955000 87 55 73
1.029373 0.429337 2.955000 88 56 77
1.029373 0.434509 2.955000 89 57 72
1.029373 0.439682 2.955000 88 58 67
1.029373 0.444855 2.955000 88 57 70
1.029373 0.450027 2.955000 87 54 73
1.029373 0.455200 2.955000 86 53 72
1.029373 0.460373 2.955000 84 51 71
1.029373 0.465546 2.955000 83 55 69
1.029373 0.470718 2.955000 82 58 67
1.029373 0.475891 2.955000 82 57 62
1.029373 0.481064 2.955000 80 56 58
1.029373 0.486237 2.955000 79 57 53
1.029373 0.491409 2.955000 78 54 48
1.029373 0.496582 2.955000 78 52 55
1.029373 0.501755 2.955000 77 51 63
1.029373 0.506927 2.955000 77 48 59
1.029373 0.512100 2.955000 78 46 55
1.029373 0.517273 2.955000 79 47 59
1.029373 0.522446 2.955000 78 48 64
1.029373 0.527618 2.955000 77 50 56
1.029373 0.532791 2.955000 83 49 48
1.029373 0.537964 2.955000 89 47 52
1.029373 0.543137 2.955000 85 49 56
1.029373 0.548309 2.955000 81 48 54
1.029373 0.553482 2.955000 76 49 52
1.029373 0.558655 2.955000 71 47 55
1.038082 0.568598 2.980000 66 45 58
1.038082 0.573814 2.980000 61 44 51
1.038082 0.579031 2.980000 66 43 44
1.038082 0.584247 2.980000 71 42 48
1.029373 0.584518 2.955000 69 44 53
1.029373 0.589691 2.955000 67 43 49
1.029373 0.594864 2.955000 66 45 46
1.029373 0.600037 2.955000 66 40 40
1.029373 0.605209 2.955000 63 37 35
1.029373 0.610382 2.955000 60 37 43
1.029373 0.615555 2.955000 59 39 50
1.029373 0.620728 2.955000 59 37 47
1.029373 0.625900 2.955000 58 34 43
1.029373 0.631073 2.955000 58 33 43
1.029373 0.636246 2.955000 52 32 42
1.029373 0.641418 2.955000 47 32 44
1.029373 0.646591 2.955000 47 31 47
1.029373 0.651764 2.955000 47 30 42
1.038082 0.662494 2.980000 47 27 38
1.038082 0.667711 2.980000 47 27 33
1.029373 0.667282 2.955000 45 30 29
1.029373 0.672455 2.955000 44 29 28
1.029373 0.677628 2.955000 40 29 27
1.029373 0.682800 2.955000 37 26 25
1.029373 0.687973 2.955000 38 21 24
1.020664 0.687281 2.930000 40 17 28
1.020664 0.692410 2.930000 39 15 33
1.020664 0.697539 2.930000 39 14 27
1.029373 0.708664 2.955000 34 17 22
1.029373 0.713836 2.955000 30 18 26
1.029373 0.719009 2.955000 30 14 31
1.029373 0.724182 2.955000 30 10 21
1.020664 0.723184 2.930000 20 5 12
1.020664 0.728313 2.930000 10 4 9
1.020664 0.733442 2.930000 16 3 6
1.020664 0.738571 2.930000 22 4 8
1.011955 0.737355 2.905000 20 9 11
1.020664 0.748829 2.930000 18 13 11
0.963186 0.750221 2.765000 24 15 10
0.955523 0.749053 2.743000 27 11 15
0.743029 0.698224 2.133000 96 73 40
0.743029 0.701958 2.133000 152 92 81
0.738501 0.701391 2.120000 148 151 121
0.733972 0.700778 2.107000 145 130 130
0.729792 0.700454 2.095000 149 112 140
0.729792 0.704121 2.095000 153 120 143
0.729792 0.707789 2.095000 152 123 147
0.725264 0.707041 2.082000 152 124 146
0.720735 0.706248 2.069000 156 133 145
0.716555 0.705753 2.057000 161 127 150
0.712375 0.705215 2.045000 163 133 156
0.708194 0.704636 2.033000 165 129 159
0.704014 0.704014 2.021000 165 138 162
0.699834 0.703351 2.009000 166 139 167
0.696002 0.702997 1.998000 166 141 172
0.687990 0.698362 1.975000 167 144 174
0.684159 0.697910 1.964000 171 149 176
0.679978 0.697063 1.952000 175 147 178
0.676146 0.696533 1.941000 177 150 180
0.672663 0.696325 1.931000 179 150 185
0.668831 0.695719 1.920000 183 160 189
0.664999 0.695075 1.909000 188 153 190
0.661516 0.694758 1.899000 189 150 191
0.657684 0.694038 1.888000 191 151 191
0.654200 0.693650 1.878000 189 157 192
0.650717 0.693226 1.868000 187 155 191
0.647233 0.692768 1.858000 188 154 190
0.647233 0.696020 1.858000 190 154 189
0.636783 0.687982 1.828000 190 154 188
0.633648 0.687779 1.819000 191 157 197
0.633648 0.690963 1.819000 191 168 207
0.627029 0.686896 1.800000 192 163 207
0.623546 0.686214 1.790000 189 162 208
0.620411 0.685881 1.781000 187 164 210
0.620411 0.688999 1.781000 193 164 212
0.614140 0.685121 1.763000 200 168 213
0.938268 -0.197036 2.680000 112 48 12
0.945620 -0.193852 2.701000 115 54 14
0.945620 -0.189124 2.701000 118 75 75
0.945620 -0.184396 2.701000 159 109 136
0.952972 -0.181065 2.722000 200 177 146
0.952972 -0.176300 2.722000 153 129 156
0.952972 -0.171535 2.722000 106 39 78
0.952972 -0.166770 2.722000 91 28 1
0.968027 -0.009680 2.765000 109 58 37
0.968027 -0.004840 2.765000 108 55 19
0.968027 -0.000000 2.765000 107 54 36
0.952972 0.004765 2.722000 104 58 53
0.952972 0.009530 2.722000 102 58 44
0.945620 0.014184 2.701000 105 51 36
0.952972 0.019060 2.722000 108 54 39
0.960324 0.024008 2.743000 108 51 42
0.960324 0.028810 2.743000 108 46 31
0.952972 0.033354 2.722000 104 46 21
0.945620 0.037825 2.701000 101 47 16
0.952972 0.042884 2.722000 101 47 11
0.952972 0.047649 2.722000 101 47 12
0.952972 0.052413 2.722000 98 49 14
0.952972 0.057178 2.722000 96 50 10
0.960324 0.062421 2.743000 94 47 7
0.960324 0.067223 2.743000 93 46 8
0.952972 0.071473 2.722000 97 43 10
0.960324 0.076826 2.743000 100 44 9
0.952972 0.081003 2.722000 98 43 8
0.960324 0.086429 2.743000 96 42 5
0.952972 0.090532 2.722000 94 45 2
0.952972 0.095297 2.722000 93 50 19
0.952972 0.100062 2.722000 94 47 37
0.952972 0.104827 2.722000 95 48 31
0.952972 0.109592 2.722000 95 47 26
0.952972 0.114357 2.722000 95 45 35
0.952972 0.119122 2.722000 92 44 45
0.952972 0.123886 2.722000 90 44 28
0.952972 0.128651 2.722000 93 43 12
0.960324 0.134445 2.743000 95 41 6
0.960324 0.139247 2.743000 93 45 1
0.960324 0.144049 2.743000 92 49 25
0.952972 0.147711 2.722000 94 59 50
0.952972 0.152476 2.722000 96 80 63
0.960324 0.158454 2.743000 95 78 77
0.960324 0.163255 2.743000 94 77 75
0.968027 0.169405 2.765000 91 69 74
1.034546 0.186218 2.955000 88 67 76
1.034546 0.191391 2.955000 89 66 78
1.034546 0.196564 2.955000 91 63 77
1.034546 0.201736 2.955000 89 61 77
1.034546 0.206909 2.955000 87 63 74
1.034546 0.212082 2.955000 86 61 71
1.034546 0.217255 2.955000 85 65 57
1.034546 0.222427 2.955000 81 61 44
1.034546 0.227600 2.955000 78 60 57
1.034546 0.232773 2.955000 84 57 71
1.034546 0.237946 2.955000 89 53 77
1.034546 0.243118 2.955000 86 51 84
1.034546 0.248291 2.955000 84 49 78
1.034546 0.253464 2.955000 81 55 72
1.034546 0.258636 2.955000 79 62 68
1.034546 0.263809 2.955000 81 57 65
1.034546 0.268982 2.955000 82 56 53
1.034546 0.274155 2.955000 80 60 42
1.034546 0.279327 2.955000 78 62 54
1.034546 0.284500 2.955000 79 61 67
1.043298 0.292123 2.980000 81 57 67
1.034546 0.294846 2.955000 83 56 68
1.034546 0.300018 2.955000 86 56 61
1.034546 0.305191 2.955000 85 54 55
1.034546 0.310364 2.955000 85 54 62
1.034546 0.315536 2.955000 82 51 69
1.034546 0.320709 2.955000 79 50 65
1.034546 0.325882 2.955000 83 54 61
1.034546 0.331055 2.955000 87 58 63
1.034546 0.336227 2.955000 84 58 65
1.034546 0.341400 2.955000 82 60 65
1.034546 0.346573 2.955000 81 61 65
1.034546 0.351746 2.955000 80 60 61
1.034546 0.356918 2.955000 81 63 58
1.034546 0.362091 2.955000 82 67 61
1.034546 0.367264 2.955000 82 60 64
1.025793 0.369286 2.930000 83 55 62
1.034546 0.377609 2.955000 83 53 61
1.034546 0.382782 2.955000 84 55 63
1.034546 0.387955 2.955000 84 52 65
1.034546 0.393127 2.955000 84 54 62
1.025793 0.394930 2.930000 83 57 60
1.034546 0.403473 2.955000 83 59 62
1.034546 0.408646 2.955000 84 57 64
1.034546 0.413818 2.955000 85 54 66
1.034546 0.418991 2.955000 86 54 68
1.034546 0.424164 2.955000 88 57 73
1.034546 0.429337 2.955000 88 57 79
1.034546 0.434509 2.955000 88 59 73
1.034546 0.439682 2.955000 90 60 68
1.034546 0.444855 2.955000 92 60 73
1.034546 0.450027 2.955000 90 55 78
1.025793 0.451349 2.930000 88 53 76
1.025793 0.456478 2.930000 85 54 74
1.025793 0.461607 2.930000 83 55 72
1.034546 0.470718 2.955000 81 56 71
1.034546 0.475891 2.955000 78 54 64
1.034546 0.481064 2.955000 73 57 58
1.034546 0.486237 2.955000 68 61 48
1.034546 0.491409 2.955000 72 56 38
1.034546 0.496582 2.955000 75 54 46
1.034546 0.501755 2.955000 77 51 55
1.034546 0.506927 2.955000 80 48 53
1.034546 0.512100 2.955000 79 47 52
1.034546 0.517273 2.955000 78 49 55
1.034546 0.522446 2.955000 78 48 58
1.034546 0.527618 2.955000 77 51 50
1.034546 0.532791 2.955000 81 49 43
1.025793 0.533412 2.930000 84 47 50
1.025793 0.538542 2.930000 81 48 57
1.034546 0.548309 2.955000 79 49 55
1.034546 0.553482 2.955000 75 49 54
1.034546 0.558655 2.955000 71 49 58
1.034546 0.563828 2.955000 70 45 63
1.034546 0.569000 2.955000 68 43 54
1.034546 0.574173 2.955000 68 44 45
1.034546 0.579346 2.955000 69 44 49
1.034546 0.584518 2.955000 64 42 53
1.034546 0.589691 2.955000 59 42 49
1.034546 0.594864 2.955000 63 43 45
1.034546 0.600037 2.955000 68 41 35
1.034546 0.605209 2.955000 65 38 25
1.034546 0.610382 2.955000 62 34 36
1.034546 0.615555 2.955000 65 38 47
1.034546 0.620728 2.955000 67 41 45
1.034546 0.625900 2.955000 63 36 43
1.034546 0.631073 2.955000 58 34 44
1.034546 0.636246 2.955000 55 32 46
1.034546 0.641418 2.955000 51 32 51
1.034546 0.646591 2.955000 50 31 56
1.034546 0.651764 2.955000 49 31 48
1.034546 0.656937 2.955000 44 27 41
1.034546 0.662109 2.955000 40 28 36
1.034546 0.667282 2.955000 42 30 31
1.025793 0.666766 2.930000 45 31 29
1.025793 0.671895 2.930000 41 30 28
1.025793 0.677023 2.930000 38 33 24
1.025793 0.682153 2.930000 39 23 21
1.025793 0.687281 2.930000 40 14 23
1.025793 0.692410 2.930000 38 11 25
1.025793 0.697539 2.930000 36 9 22
1.025793 0.702668 2.930000 33 14 19
1.025793 0.707797 2.930000 30 18 20
1.025793 0.712926 2.930000 30 14 21
1.025793 0.718055 2.930000 30 11 15
1.025793 0.723184 2.930000 21 7 10
1.025793 0.728313 2.930000 12 6 9
1.025793 0.733442 2.930000 17 4 9
1.025793 0.738571 2.930000 23 4 10
1.017041 0.737355 2.905000 18 9 11
1.025793 0.748829 2.930000 14 16 10
0.968027 0.745381 2.765000 22 14 9
0.968027 0.750221 2.765000 23 12 9
0.960324 0.749053 2.743000 24 12 15
0.751665 0.702807 2.147000 81 25 1
0.742212 0.697679 2.120000 109 17 48
0.742212 0.701391 2.120000 127 107 95
0.737661 0.700778 2.107000 145 131 120
0.733460 0.700454 2.095000 147 128 146
0.733460 0.704121 2.095000 150 122 144
0.733460 0.707789 2.095000 149 118 143
0.728908 0.707041 2.082000 148 114 143
0.724357 0.706248 2.069000 152 119 144
0.720156 0.705753 2.057000 156 116 148
0.715955 0.705215 2.045000 157 118 153
0.711753 0.704636 2.033000 158 114 155
0.707552 0.704014 2.021000 160 132 158
0.703351 0.703351 2.009000 163 141 162
0.699500 0.702997 1.998000 164 141 167
0.691448 0.698362 1.975000 165 141 169
0.687596 0.697910 1.964000 168 146 172
0.683395 0.697063 1.952000 171 151 175
0.679544 0.696533 1.941000 173 146 179
0.676043 0.696325 1.931000 175 139 184
0.668341 0.691733 1.909000 182 151 189
0.664840 0.691434 1.899000 189 156 194
0.664840 0.694758 1.899000 189 151 199
0.660989 0.694038 1.888000 188 151 195
0.653987 0.689956 1.868000 186 154 191
0.657488 0.696937 1.878000 185 156 188
0.650486 0.692768 1.858000 186 155 185
0.646985 0.692274 1.848000 188 156 188
0.643484 0.691745 1.838000 189 155 191
0.636832 0.687779 1.819000 190 153 196
0.636832 0.690963 1.819000 192 159 202
0.630180 0.686896 1.800000 194 165 204
0.626679 0.686214 1.790000 192 162 206
0.623528 0.685881 1.781000 190 164 208
0.623528 0.688999 1.781000 193 163 211
0.620377 0.688619 1.772000 197 162 213
0.942959 -0.197036 2.680000 107 46 24
0.942959 -0.192345 2.680000 114 42 28
0.950348 -0.189124 2.701000 122 90 78
0.950348 -0.184396 2.701000 164 122 128
0.950348 -0.179668 2.701000 206 146 126
0.950348 -0.174940 2.701000 149 145 124
0.950348 -0.170212 2.701000 92 57 62
0.950348 -0.165484 2.701000 92 17 1
0.950348 -0.160755 2.701000 92 43 8
0.957737 -0.009530 2.722000 111 57 36
0.957737 -0.004765 2.722000 109 58 24
0.957737 -0.000000 2.722000 108 58 34
0.957737 0.004765 2.722000 107 58 45
0.957737 0.009530 2.722000 106 55 40
0.950348 0.014184 2.701000 107 48 36
0.957737 0.019060 2.722000 108 53 37
0.957737 0.023824 2.722000 110 52 38
0.957737 0.028589 2.722000 113 49 31
0.950348 0.033097 2.701000 108 49 25
0.950348 0.037825 2.701000 103 50 18
0.950348 0.042553 2.701000 102 50 11
0.957737 0.047649 2.722000 102 47 12
0.957737 0.052413 2.722000 99 47 12
0.957737 0.057178 2.722000 96 48 12
0.957737 0.061943 2.722000 96 49 12
0.965126 0.067223 2.743000 96 46 17
0.965126 0.072024 2.743000 98 42 22
0.957737 0.076238 2.722000 100 44 16
0.950348 0.080378 2.701000 97 45 11
0.957737 0.085768 2.722000 95 44 8
0.950348 0.089834 2.701000 95 44 6
0.950348 0.094562 2.701000 95 47 17
0.950348 0.099290 2.701000 94 46 27
0.950348 0.104018 2.701000 94 46 24
0.950348 0.108746 2.701000 94 48 20
0.957737 0.114357 2.722000 95 44 25
0.957737 0.119122 2.722000 90 44 31
0.957737 0.123886 2.722000 86 46 21
0.957737 0.128651 2.722000 90 48 12
0.957737 0.133416 2.722000 95 45 9
0.965126 0.139247 2.743000 95 46 7
0.957737 0.142946 2.722000 96 47 21
0.957737 0.147711 2.722000 97 45 35
0.957737 0.152476 2.722000 98 69 59
0.957737 0.157240 2.722000 97 79 83
0.965126 0.163255 2.743000 96 75 80
0.957737 0.166770 2.722000 94 66 78
1.039718 0.186218 2.955000 93 65 77
1.030922 0.189772 2.930000 92 65 76
1.039718 0.196564 2.955000 92 63 78
1.039718 0.201736 2.955000 90 61 80
1.039718 0.206909 2.955000 88 62 81
1.039718 0.212082 2.955000 86 64 82
1.039718 0.217255 2.955000 85 64 71
1.039718 0.222427 2.955000 84 64 60
1.039718 0.227600 2.955000 84 61 67
1.039718 0.232773 2.955000 84 58 73
1.030922 0.235932 2.930000 85 54 77
1.030922 0.241061 2.930000 85 51 81
1.030922 0.246190 2.930000 86 51 76
1.030922 0.251319 2.930000 86 56 72
1.030922 0.256448 2.930000 86 59 70
1.030922 0.261577 2.930000 86 62 68
1.030922 0.266706 2.930000 86 60 61
1.030922 0.271835 2.930000 85 63 54
1.030922 0.276964 2.930000 85 64 62
1.030922 0.282093 2.930000 84 67 69
1.030922 0.287222 2.930000 84 62 69
1.030922 0.292351 2.930000 84 61 69
1.030922 0.297480 2.930000 85 59 65
1.030922 0.302609 2.930000 84 59 62
1.030922 0.307738 2.930000 83 56 66
1.022126 0.310197 2.905000 79 50 70
1.030922 0.317996 2.930000 76 53 66
1.030922 0.323125 2.930000 79 55 63
1.039718 0.331055 2.955000 83 58 65
1.030922 0.333383 2.930000 82 58 67
1.030922 0.338512 2.930000 82 60 67
1.030922 0.343641 2.930000 82 64 68
1.030922 0.348770 2.930000 82 62 68
1.030922 0.353899 2.930000 83 62 68
1.030922 0.359028 2.930000 85 62 68
1.030922 0.364157 2.930000 87 58 69
1.030922 0.369286 2.930000 90 54 67
1.030922 0.374415 2.930000 87 47 66
1.030922 0.379544 2.930000 84 50 65
1.030922 0.384673 2.930000 84 47 65
1.030922 0.389801 2.930000 85 52 65
1.030922 0.394930 2.930000 84 54 66
1.030922 0.400059 2.930000 84 56 64
1.039718 0.408646 2.955000 85 56 62
1.039718 0.413818 2.955000 87 53 65
1.030922 0.415446 2.930000 88 53 68
1.039718 0.424164 2.955000 89 55 71
1.039718 0.429337 2.955000 88 58 75
1.030922 0.430833 2.930000 87 60 72
1.030922 0.435962 2.930000 92 64 69
1.030922 0.441091 2.930000 97 58 70
1.030922 0.446220 2.930000 93 55 71
1.030922 0.451349 2.930000 90 56 71
1.030922 0.456478 2.930000 87 58 72
1.030922 0.461607 2.930000 84 57 68
1.030922 0.466736 2.930000 79 58 65
1.030922 0.471865 2.930000 75 57 61
1.039718 0.481064 2.955000 66 58 57
1.039718 0.486237 2.955000 58 58 52
1.039718 0.491409 2.955000 65 56 47
1.039718 0.496582 2.955000 73 55 51
1.039718 0.501755 2.955000 78 53 55
1.039718 0.506927 2.955000 83 48 55
1.030922 0.507768 2.930000 80 45 54
1.030922 0.512897 2.930000 78 46 56
1.030922 0.518026 2.930000 78 47 58
1.030922 0.523155 2.930000 78 50 51
1.030922 0.528284 2.930000 79 49 45
1.030922 0.533412 2.930000 80 48 50
1.030922 0.538542 2.930000 78 49 55
1.030922 0.543670 2.930000 77 48 51
1.030922 0.548799 2.930000 74 50 48
1.039718 0.558655 2.955000 72 48 53
1.039718 0.563828 2.955000 74 44 58
1.039718 0.569000 2.955000 76 44 52
1.039718 0.574173 2.955000 71 48 47
1.039718 0.579346 2.955000 67 45 53
1.039718 0.584518 2.955000 59 41 59
1.039718 0.589691 2.955000 51 43 52
1.039718 0.594864 2.955000 60 44 46
1.039718 0.600037 2.955000 70 43 40
1.039718 0.605209 2.955000 67 41 34
1.030922 0.605218 2.930000 65 38 42
1.030922 0.610347 2.930000 70 38 50
1.030922 0.615476 2.930000 76 39 47
1.030922 0.620605 2.930000 67 36 43
1.030922 0.625734 2.930000 59 35 45
1.030922 0.630863 2.930000 57 30 46
1.030922 0.635992 2.930000 56 31 48
1.039718 0.646591 2.955000 53 31 51
1.039718 0.651764 2.955000 51 30 47
1.039718 0.656937 2.955000 42 25 43
1.039718 0.662109 2.955000 34 27 40
1.030922 0.661637 2.930000 40 32 37
1.030922 0.666766 2.930000 46 31 38
1.030922 0.671895 2.930000 42 29 39
1.030922 0.677023 2.930000 39 29 34
1.030922 0.682153 2.930000 40 24 30
1.030922 0.687281 2.930000 41 15 28
1.030922 0.692410 2.930000 37 9 27
1.030922 0.697539 2.930000 34 10 23
1.030922 0.702668 2.930000 32 12 19
1.030922 0.707797 2.930000 31 15 18
1.030922 0.712926 2.930000 30 16 18
1.030922 0.718055 2.930000 30 12 15
1.030922 0.723184 2.930000 22 7 13
1.030922 0.728313 2.930000 15 6 11
1.030922 0.733442 2.930000 19 5 10
1.030922 0.738571 2.930000 24 5 9
1.022126 0.737355 2.905000 17 9 9
1.022126 0.742440 2.905000 11 11 7
1.005237 0.740175 2.857000 3 12 8
0.997144 0.739177 2.834000 12 15 12
0.988700 0.737836 2.810000 21 17 15
0.980959 0.736940 2.788000 25 17 19
0.972867 0.735700 2.765000 30 15 17
0.980959 0.746700 2.788000 26 14 16
0.980959 0.751581 2.788000 23 12 14
0.980959 0.756461 2.788000 22 10 12
0.965126 0.749053 2.743000 21 12 15
0.745923 0.701391 2.120000 106 129 48
0.737127 0.696787 2.095000 146 119 90
0.737127 0.700454 2.095000 146 150 133
0.737127 0.704121 2.095000 147 129 134
0.737127 0.707789 2.095000 145 116 136
0.732553 0.707041 2.082000 144 115 138
0.723757 0.702152 2.057000 147 113 141
0.723757 0.705753 2.057000 151 113 144
0.719534 0.705215 2.045000 151 112 148
0.715312 0.704636 2.033000 152 118 152
0.711090 0.704014 2.021000 156 136 156
0.711090 0.707552 2.021000 160 136 160
0.702997 0.702997 1.998000 161 142 163
0.694905 0.698362 1.975000 163 140 166
0.691034 0.697910 1.964000 165 143 169
0.686812 0.697063 1.952000 167 145 173
0.682942 0.696533 1.941000 169 145 178
0.679423 0.696325 1.931000 171 142 182
0.671683 0.691733 1.909000 181 150 187
0.668164 0.691434 1.899000 191 150 190
0.668164 0.694758 1.899000 188 148 194
0.660775 0.690362 1.878000 186 150 192
0.657257 0.689956 1.868000 184 153 190
0.657257 0.693226 1.868000 183 154 188
0.653738 0.692768 1.858000 185 155 186
0.653738 0.696020 1.858000 187 156 189
0.650220 0.695509 1.848000 188 158 191
0.643183 0.691182 1.828000 190 154 197
0.640016 0.690963 1.819000 193 151 202
0.636498 0.690331 1.809000 197 157 205
0.629812 0.686214 1.790000 195 159 207
0.626646 0.685881 1.781000 194 160 209
0.626646 0.688999 1.781000 194 163 211
0.623479 0.688619 1.772000 194 162 211
0.947651 -0.201728 2.680000 106 51 30
0.947651 -0.197036 2.680000 104 42 36
0.947651 -0.192345 2.680000 126 62 43
0.947651 -0.187654 2.680000 147 123 81
0.947651 -0.182962 2.680000 171 133 120
0.947651 -0.178271 2.680000 196 143 106
0.947651 -0.173580 2.680000 141 106 92
0.955076 -0.170212 2.701000 87 28 46
0.955076 -0.165484 2.701000 88 35 1
0.962502 -0.014295 2.722000 113 55 42
0.962502 -0.009530 2.722000 110 54 36
0.955076 -0.004728 2.701000 108 59 30
0.962502 -0.000000 2.722000 106 63 33
0.962502 0.004765 2.722000 106 58 37
0.955076 0.009456 2.701000 107 56 36
0.955076 0.014184 2.701000 106 55 36
0.955076 0.018913 2.701000 105 59 35
0.947651 0.023457 2.680000 104 54 34
0.962502 0.028589 2.722000 104 50 32
0.955076 0.033097 2.701000 103 51 30
0.947651 0.037531 2.680000 102 57 21
0.955076 0.042553 2.701000 104 51 12
0.955076 0.047281 2.701000 106 47 11
0.955076 0.052009 2.701000 102 47 11
0.955076 0.056737 2.701000 97 49 14
0.955076 0.061465 2.701000 94 49 17
0.955076 0.066193 2.701000 92 47 25
0.955076 0.070922 2.701000 97 45 34
0.947651 0.075062 2.680000 102 46 24
0.947651 0.079753 2.680000 98 45 14
0.947651 0.084444 2.680000 94 45 12
0.947651 0.089136 2.680000 94 46 11
0.947651 0.093827 2.680000 94 49 14
0.947651 0.098518 2.680000 93 46 18
0.955076 0.104018 2.701000 91 45 16
0.955076 0.108746 2.701000 93 44 15
0.955076 0.113474 2.701000 95 42 16
0.955076 0.118203 2.701000 92 45 17
0.955076 0.122931 2.701000 90 50 14
0.955076 0.127659 2.701000 93 49 12
0.962502 0.133416 2.722000 96 48 13
0.962502 0.138181 2.722000 97 47 14
0.962502 0.142946 2.722000 98 49 17
0.962502 0.147711 2.722000 99 56 21
0.962502 0.152476 2.722000 101 72 55
0.962502 0.157240 2.722000 103 76 89
0.969928 0.163255 2.743000 105 79 86
0.969928 0.168057 2.743000 99 70 83
1.027211 0.183067 2.905000 94 64 78
1.036051 0.189772 2.930000 92 65 74
1.036051 0.194901 2.930000 91 63 78
1.036051 0.200030 2.930000 90 61 83
1.036051 0.205159 2.930000 88 60 88
1.036051 0.210288 2.930000 87 61 93
1.044891 0.217255 2.955000 85 64 85
1.036051 0.220546 2.930000 85 63 77
1.036051 0.225675 2.930000 85 62 76
1.036051 0.230804 2.930000 86 59 76
1.036051 0.235932 2.930000 86 56 77
1.036051 0.241061 2.930000 86 53 79
1.036051 0.246190 2.930000 86 51 75
1.036051 0.251319 2.930000 87 55 72
1.036051 0.256448 2.930000 88 58 72
1.036051 0.261577 2.930000 90 60 72
1.036051 0.266706 2.930000 92 59 69
1.036051 0.271835 2.930000 90 62 67
1.036051 0.276964 2.930000 88 65 69
1.036051 0.282093 2.930000 87 65 72
1.027211 0.284771 2.905000 86 66 71
1.027211 0.289857 2.905000 86 63 70
1.027211 0.294942 2.905000 85 63 69
1.027211 0.300027 2.905000 85 61 69
1.036051 0.307738 2.930000 86 61 70
1.018725 0.307635 2.881000 86 56 72
1.018725 0.312678 2.881000 87 58 68
1.027211 0.320368 2.905000 85 58 65
1.027211 0.325453 2.905000 84 61 67
1.018725 0.327807 2.881000 84 58 69
1.018725 0.332851 2.881000 83 60 70
1.018725 0.337894 2.881000 83 61 72
1.018725 0.342937 2.881000 83 63 75
1.018725 0.347980 2.881000 84 63 78
1.027211 0.355964 2.905000 85 64 76
1.027211 0.361049 2.905000 84 60 74
1.027211 0.366135 2.905000 84 58 72
1.027211 0.371220 2.905000 84 55 71
1.027211 0.376305 2.905000 84 53 68
1.027211 0.381390 2.905000 83 51 66
1.036051 0.389801 2.930000 83 54 69
1.036051 0.394930 2.930000 83 56 72
1.036051 0.400059 2.930000 83 56 66
1.036051 0.405188 2.930000 84 54 60
1.036051 0.410317 2.930000 86 51 64
1.036051 0.415446 2.930000 88 52 69
1.036051 0.420575 2.930000 90 53 70
1.036051 0.425704 2.930000 84 57 71
1.036051 0.430833 2.930000 78 59 71
1.036051 0.435962 2.930000 85 59 71
1.036051 0.441091 2.930000 93 55 67
1.036051 0.446220 2.930000 91 58 64
1.036051 0.451349 2.930000 89 60 67
1.036051 0.456478 2.930000 86 58 71
1.036051 0.461607 2.930000 84 59 65
1.036051 0.466736 2.930000 80 60 59
1.044891 0.475891 2.955000 76 61 57
1.044891 0.481064 2.955000 71 59 56
1.044891 0.486237 2.955000 67 59 56
1.036051 0.487252 2.930000 71 57 56
1.044891 0.496582 2.955000 75 57 56
1.036051 0.497510 2.930000 78 53 56
1.036051 0.502639 2.930000 81 49 56
1.036051 0.507768 2.930000 80 46 57
1.036051 0.512897 2.930000 78 44 58
1.036051 0.518026 2.930000 79 48 59
1.036051 0.523155 2.930000 81 54 53
1.036051 0.528284 2.930000 79 50 47
1.036051 0.533412 2.930000 78 47 50
1.036051 0.538542 2.930000 77 47 53
1.036051 0.543670 2.930000 77 46 48
1.036051 0.548799 2.930000 76 49 43
1.036051 0.553928 2.930000 75 51 48
1.036051 0.559057 2.930000 78 46 54
1.036051 0.564186 2.930000 82 43 51
1.044891 0.574173 2.955000 76 47 49
1.044891 0.579346 2.955000 71 50 57
1.036051 0.579573 2.930000 67 45 65
1.036051 0.584702 2.930000 63 45 56
1.044891 0.594864 2.955000 70 45 47
1.036051 0.594960 2.930000 78 46 45
1.036051 0.600089 2.930000 69 43 44
1.036051 0.605218 2.930000 60 41 49
1.036051 0.610347 2.930000 65 40 54
1.036051 0.615476 2.930000 71 42 49
1.036051 0.620605 2.930000 66 41 44
1.036051 0.625734 2.930000 61 41 45
1.044891 0.636246 2.955000 59 37 47
1.044891 0.641418 2.955000 57 34 46
1.044891 0.646591 2.955000 57 35 46
1.044891 0.651764 2.955000 56 36 45
1.044891 0.656937 2.955000 50 30 45
1.044891 0.662109 2.955000 43 26 44
1.036051 0.661637 2.930000 45 31 44
1.036051 0.666766 2.930000 48 34 47
1.036051 0.671895 2.930000 45 30 50
1.027211 0.671247 2.905000 42 30 44
1.027211 0.676332 2.905000 44 23 39
1.027211 0.681417 2.905000 47 14 34
1.027211 0.686503 2.905000 37 11 29
1.027211 0.691588 2.905000 27 10 24
1.036051 0.702668 2.930000 29 12 19
1.036051 0.707797 2.930000 31 17 17
1.036051 0.712926 2.930000 33 17 15
1.036051 0.718055 2.930000 35 15 16
1.036051 0.723184 2.930000 26 9 17
1.036051 0.728313 2.930000 18 8 14
1.036051 0.733442 2.930000 21 7 11
1.036051 0.738571 2.930000 24 4 9
1.018725 0.731263 2.881000 20 6 7
1.018725 0.736306 2.881000 15 9 4
1.018725 0.741349 2.881000 12 10 1
1.010238 0.740175 2.857000 9 10 5
1.002105 0.739177 2.834000 16 13 9
1.002105 0.744138 2.834000 23 16 14
0.993619 0.742755 2.810000 27 15 19
0.985840 0.741820 2.788000 32 15 20
0.985840 0.746700 2.788000 28 13 22
0.985840 0.751581 2.788000 24 13 18
0.977707 0.750221 2.765000 22 13 15
0.969928 0.749053 2.743000 19 12 16
0.962502 0.748083 2.722000 13 15 17
0.740794 0.700454 2.095000 137 120 120
0.740794 0.704121 2.095000 151 130 125
0.740794 0.707789 2.095000 147 128 130
0.736197 0.707041 2.082000 143 120 134
0.727357 0.702152 2.057000 145 114 138
0.723114 0.701636 2.045000 146 112 140
0.723114 0.705215 2.045000 146 111 143
0.718871 0.704636 2.033000 146 110 149
0.714628 0.704014 2.021000 156 122 155
0.710384 0.703351 2.009000 166 126 157
0.706495 0.702997 1.998000 167 135 160
0.698362 0.698362 1.975000 168 134 163
0.694472 0.697910 1.964000 167 141 167
0.690229 0.697063 1.952000 166 141 172
0.686340 0.696533 1.941000 168 139 177
0.682804 0.696325 1.931000 169 137 181
0.675024 0.691733 1.909000 176 144 185
0.671488 0.691434 1.899000 182 147 187
0.667599 0.690733 1.888000 182 147 189
0.664063 0.690362 1.878000 182 149 189
0.664063 0.693650 1.878000 178 153 190
0.660527 0.693226 1.868000 174 155 189
0.656991 0.692768 1.858000 179 156 188
0.656991 0.696020 1.858000 184 156 190
0.653455 0.695509 1.848000 186 157 192
0.646383 0.691182 1.828000 188 157 197
0.643200 0.690963 1.819000 191 154 203
0.639664 0.690331 1.809000 193 153 206
0.632946 0.686214 1.790000 193 155 209
0.632946 0.689347 1.790000 194 155 210
0.629763 0.688999 1.781000 194 159 211
0.623399 0.685121 1.763000 194 159 210
0.952342 -0.201728 2.680000 105 56 16
0.952342 -0.197036 2.680000 102 41 32
0.952342 -0.192345 2.680000 137 41 49
0.952342 -0.187654 2.680000 173 113 98
0.952342 -0.182962 2.680000 179 144 148
0.952342 -0.178271 2.680000 186 127 98
0.952342 -0.173580 2.680000 134 109 47
0.952342 -0.168888 2.680000 82 53 24
0.952342 -0.164197 2.680000 84 41 1
0.967267 -0.014295 2.722000 109 54 36
0.967267 -0.009530 2.722000 110 56 33
0.959805 -0.004728 2.701000 107 63 31
0.959805 -0.000000 2.701000 105 61 34
0.959805 0.004728 2.701000 106 57 37
0.959805 0.009456 2.701000 108 57 36
0.952342 0.014074 2.680000 105 58 35
0.952342 0.018765 2.680000 102 59 31
0.952342 0.023457 2.680000 98 55 28
0.959805 0.028369 2.701000 95 52 27
0.952342 0.032839 2.680000 98 51 26
0.952342 0.037531 2.680000 101 52 18
0.952342 0.042222 2.680000 106 51 11
0.959805 0.047281 2.701000 111 47 10
0.959805 0.052009 2.701000 105 46 10
0.959805 0.056737 2.701000 99 48 12
0.959805 0.061465 2.701000 93 51 14
0.959805 0.066193 2.701000 88 48 17
0.959805 0.070922 2.701000 96 45 21
0.952342 0.075062 2.680000 105 44 16
0.952342 0.079753 2.680000 99 46 11
0.952342 0.084444 2.680000 94 46 10
0.952342 0.089136 2.680000 94 47 9
0.952342 0.093827 2.680000 94 47 10
0.952342 0.098518 2.680000 91 47 10
0.952342 0.103210 2.680000 89 45 11
0.952342 0.107901 2.680000 92 43 13
0.952342 0.112592 2.680000 95 43 12
0.952342 0.117284 2.680000 94 47 12
0.952342 0.121975 2.680000 94 48 9
0.959805 0.127659 2.701000 95 50 6
0.959805 0.132387 2.701000 97 47 9
0.959805 0.137115 2.701000 98 47 13
0.959805 0.141843 2.701000 100 50 13
0.959805 0.146571 2.701000 102 58 14
0.959805 0.151299 2.701000 105 67 46
0.959805 0.156027 2.701000 110 76 78
0.967267 0.162005 2.722000 115 77 77
0.974729 0.168057 2.743000 105 72 75
1.050064 0.186218 2.955000 95 69 75
1.032296 0.188153 2.905000 93 68 75
1.041180 0.194901 2.930000 91 65 76
1.041180 0.200030 2.930000 90 63 78
1.041180 0.205159 2.930000 89 61 82
1.041180 0.210288 2.930000 87 59 86
1.041180 0.215417 2.930000 86 62 81
1.041180 0.220546 2.930000 86 64 76
1.032296 0.223749 2.905000 87 64 75
1.032296 0.228834 2.905000 87 62 74
1.032296 0.233919 2.905000 88 60 78
1.032296 0.239005 2.905000 87 56 81
1.032296 0.244090 2.905000 87 57 77
1.032296 0.249175 2.905000 89 57 73
1.032296 0.254260 2.905000 91 60 71
1.032296 0.259345 2.905000 94 62 70
1.032296 0.264431 2.905000 98 61 69
1.032296 0.269516 2.905000 95 63 69
1.041180 0.276964 2.930000 92 64 70
1.032296 0.279686 2.905000 90 64 71
1.032296 0.284771 2.905000 89 64 73
1.032296 0.289857 2.905000 87 62 76
1.032296 0.294942 2.905000 86 61 73
1.032296 0.300027 2.905000 87 63 71
1.032296 0.305112 2.905000 89 59 71
1.023768 0.307635 2.881000 93 58 71
1.023768 0.312678 2.881000 98 58 67
1.023768 0.317721 2.881000 92 59 63
1.023768 0.322764 2.881000 86 58 66
1.023768 0.327807 2.881000 85 56 68
1.023768 0.332851 2.881000 85 58 69
1.023768 0.337894 2.881000 85 60 69
1.023768 0.342937 2.881000 85 63 71
1.023768 0.347980 2.881000 85 63 72
1.023768 0.353023 2.881000 85 63 72
1.023768 0.358067 2.881000 82 62 73
1.023768 0.363110 2.881000 79 61 71
1.023768 0.368153 2.881000 82 62 69
1.023768 0.373196 2.881000 85 56 68
1.023768 0.378239 2.881000 83 51 68
1.032296 0.386475 2.905000 81 56 74
1.032296 0.391561 2.905000 81 63 79
1.032296 0.396646 2.905000 82 58 72
1.023768 0.398412 2.881000 83 54 65
1.041180 0.410317 2.930000 85 53 69
1.032296 0.411902 2.905000 88 53 72
1.032296 0.416987 2.905000 92 56 72
1.032296 0.422072 2.905000 80 58 71
1.041180 0.430833 2.930000 69 60 71
1.041180 0.435962 2.930000 79 61 71
1.041180 0.441091 2.930000 89 59 64
1.041180 0.446220 2.930000 88 62 57
1.041180 0.451349 2.930000 88 58 62
1.041180 0.456478 2.930000 86 55 67
1.041180 0.461607 2.930000 84 59 64
1.041180 0.466736 2.930000 81 64 61
1.041180 0.471865 2.930000 78 62 59
1.041180 0.476994 2.930000 77 60 57
1.041180 0.482123 2.930000 76 58 57
1.041180 0.487252 2.930000 76 59 56
1.041180 0.492381 2.930000 77 56 55
1.041180 0.497510 2.930000 78 53 55
1.041180 0.502639 2.930000 80 51 58
1.041180 0.507768 2.930000 79 49 62
1.041180 0.512897 2.930000 79 48 59
1.032296 0.513606 2.905000 81 50 57
1.041180 0.523155 2.930000 84 51 47
1.041180 0.528284 2.930000 80 51 38
1.032296 0.528861 2.905000 76 47 46
1.032296 0.533946 2.905000 76 47 54
1.032296 0.539032 2.905000 77 49 50
1.032296 0.544117 2.905000 78 51 46
1.041180 0.553928 2.930000 79 51 51
1.041180 0.559057 2.930000 83 49 56
1.041180 0.564186 2.930000 88 45 52
1.041180 0.569315 2.930000 82 47 48
1.041180 0.574444 2.930000 76 48 54
1.041180 0.579573 2.930000 75 46 60
1.041180 0.584702 2.930000 75 47 55
1.041180 0.589831 2.930000 80 48 50
1.041180 0.594960 2.930000 86 46 48
1.041180 0.600089 2.930000 70 44 46
1.041180 0.605218 2.930000 55 44 48
1.041180 0.610347 2.930000 60 42 50
1.041180 0.615476 2.930000 66 44 43
1.041180 0.620605 2.930000 64 45 35
1.032296 0.620395 2.905000 63 43 39
1.041180 0.630863 2.930000 61 43 43
1.032296 0.630565 2.905000 59 41 43
1.041180 0.641121 2.930000 60 39 43
1.041180 0.646250 2.930000 62 37 42
1.041180 0.651379 2.930000 57 34 41
1.041180 0.656508 2.930000 53 32 35
1.032296 0.655991 2.905000 51 32 29
1.032296 0.661076 2.905000 50 30 35
1.032296 0.666162 2.905000 48 30 41
1.032296 0.671247 2.905000 46 31 39
1.032296 0.676332 2.905000 49 26 36
1.032296 0.681417 2.905000 53 20 33
1.032296 0.686503 2.905000 37 12 30
1.032296 0.691588 2.905000 21 11 24
1.041180 0.702668 2.930000 26 12 18
1.032296 0.701758 2.905000 31 15 17
1.041180 0.712926 2.930000 35 20 16
1.041180 0.718055 2.930000 40 15 17
1.041180 0.723184 2.930000 30 9 18
1.041180 0.728313 2.930000 21 11 15
1.041180 0.733442 2.930000 23 12 11
