ply
format ascii 1.0
element vertex 1200
property float x
property float y
property float z
property uchar red
property uchar green
property uchar blue
end_header
-0.388222 0.657530 1.998000 149 111 136
-0.383753 0.653418 1.975000 152 115 140
-0.379284 0.649226 1.952000 155 116 146
-0.377147 0.648965 1.941000 156 119 151
-0.375204 0.649001 1.931000 157 117 147
-0.375204 0.652382 1.931000 154 119 142
-0.373067 0.652026 1.920000 151 118 144
-0.370929 0.651632 1.909000 152 115 146
-0.368986 0.651543 1.899000 153 116 145
-0.362963 0.644177 1.868000 152 118 145
-0.361020 0.643981 1.858000 151 116 145
-0.359077 0.643750 1.848000 151 111 146
-0.359077 0.646985 1.848000 152 111 144
-0.357134 0.646701 1.838000 152 117 143
-0.355191 0.646383 1.828000 152 120 144
-0.353442 0.646384 1.819000 152 115 145
-0.353442 0.649569 1.819000 152 117 146
-0.351499 0.649164 1.809000 153 119 147
-0.349750 0.649086 1.800000 154 118 150
-0.349750 0.652236 1.800000 157 119 154
-0.347807 0.651746 1.790000 160 120 151
-0.346058 0.651587 1.781000 157 124 149
-0.339063 0.641471 1.745000 155 123 146
-0.339063 0.644525 1.745000 147 121 143
-0.337314 0.644240 1.736000 140 119 142
-0.335760 0.644296 1.728000 146 120 140
-0.334011 0.643950 1.719000 152 120 142
-0.332457 0.643948 1.711000 158 117 145
-0.330708 0.643540 1.702000 164 121 148
-0.327599 0.640442 1.686000 161 124 151
-0.325850 0.639958 1.677000 158 124 151
-0.324296 0.639827 1.669000 156 124 151
-0.322742 0.639668 1.661000 155 123 151
-0.322742 0.642576 1.661000 156 124 151
-0.321187 0.642374 1.653000 158 125 148
-0.765406 0.737573 3.975000 128 89 108
-0.731709 0.725057 3.800000 128 90 111
-0.723814 0.723814 3.759000 128 90 110
-0.708410 0.714850 3.679000 128 93 109
-0.708410 0.721290 3.679000 128 96 109
-0.693583 0.712499 3.602000 128 95 110
-0.693583 0.718804 3.602000 128 96 112
-0.686459 0.717661 3.565000 131 94 115
-0.679334 0.716389 3.528000 135 94 119
-0.672595 0.715396 3.493000 132 94 123
-0.672595 0.721511 3.493000 129 96 119
-0.665855 0.720334 3.458000 131 97 115
-0.646407 0.705172 3.357000 133 97 116
-0.634084 0.697492 3.293000 136 94 117
-0.628114 0.696636 3.262000 138 95 116
-0.628114 0.702346 3.262000 136 97 115
-0.622145 0.701328 3.231000 134 97 117
-0.622145 0.706983 3.231000 136 97 119
-0.616369 0.706022 3.201000 138 97 118
-0.610785 0.705179 3.172000 137 97 117
-0.605200 0.704233 3.143000 137 98 117
-0.599809 0.703412 3.115000 141 100 118
-0.589026 0.696122 3.059000 145 102 117
-0.584019 0.695514 3.033000 140 101 117
-0.578820 0.694584 3.006000 136 101 119
-0.573814 0.693793 2.980000 139 102 122
-0.569000 0.693146 2.955000 141 102 123
-0.564186 0.692410 2.930000 141 100 124
-0.559372 0.691588 2.905000 140 100 129
-0.545701 0.679646 2.834000 139 105 134
-0.541080 0.678809 2.810000 139 109 130
-0.541080 0.683728 2.810000 138 107 126
-0.536843 0.683255 2.788000 137 106 127
-0.536843 0.688136 2.788000 136 105 128
-0.532415 0.687299 2.765000 136 105 127
-0.528178 0.686632 2.743000 138 101 127
-0.520091 0.680847 2.701000 141 94 124
-0.520091 0.685575 2.701000 143 101 121
-0.516047 0.684936 2.680000 145 101 124
-0.512004 0.684223 2.659000 145 104 128
-0.508153 0.683696 2.639000 144 106 128
-0.500450 0.677883 2.599000 144 106 128
-0.492941 0.672192 2.560000 144 105 125
-0.489475 0.671916 2.542000 144 108 123
-0.489475 0.676365 2.542000 143 111 126
-0.485816 0.675726 2.523000 142 110 129
-0.485816 0.680143 2.523000 141 111 132
-0.482350 0.679676 2.505000 144 111 135
-0.475418 0.674230 2.469000 146 113 137
-0.468679 0.668933 2.434000 147 111 139
-0.465405 0.668492 2.417000 148 110 133
-0.462132 0.667991 2.400000 148 109 128
-0.459051 0.667711 2.384000 148 111 134
-0.455778 0.667093 2.367000 145 112 141
-0.452697 0.666699 2.351000 142 112 139
-0.452697 0.670815 2.351000 147 111 137
-0.449616 0.670337 2.335000 152 112 141
-0.446728 0.670092 2.320000 149 109 146
-0.440758 0.665145 2.289000 147 110 131
-0.437870 0.664767 2.274000 146 112 116
-0.434982 0.664336 2.259000 144 114 123
-0.429398 0.659711 2.230000 145 114 131
-0.426509 0.659151 2.215000 146 114 133
-0.423814 0.658838 2.201000 146 115 136
-0.421118 0.658475 2.187000 147 116 138
-0.418615 0.658367 2.174000 148 115 141
-0.418615 0.662172 2.174000 149 115 142
-0.415919 0.661689 2.160000 149 116 143
-0.415919 0.665470 2.160000 150 117 142
-0.410720 0.660886 2.133000 151 117 142
-0.408217 0.660569 2.120000 152 116 139
-0.405713 0.660206 2.107000 152 116 137
-0.405713 0.663895 2.107000 152 117 131
-0.403403 0.663781 2.095000 149 118 126
-0.398396 0.659165 2.069000 147 120 134
-0.396086 0.658943 2.057000 148 119 142
-0.391464 0.654813 2.033000 150 120 142
-0.389154 0.654486 2.021000 145 115 143
-0.389154 0.658024 2.021000 140 111 138
-0.386843 0.657633 2.009000 144 110 134
-0.384725 0.657530 1.998000 149 112 138
-0.380296 0.653418 1.975000 152 113 143
-0.375867 0.649226 1.952000 155 115 151
-0.375867 0.652643 1.952000 155 116 160
-0.373749 0.652362 1.941000 155 117 152
-0.371824 0.652382 1.931000 152 117 145
-0.369706 0.652026 1.920000 150 117 148
-0.367588 0.651632 1.909000 151 119 151
-0.361618 0.644338 1.878000 152 116 149
-0.359693 0.644177 1.868000 150 118 148
-0.357767 0.643981 1.858000 149 122 149
-0.355842 0.643750 1.848000 152 116 151
-0.355842 0.646985 1.848000 155 108 149
-0.353916 0.646701 1.838000 153 118 147
-0.351991 0.646383 1.828000 152 124 148
-0.350258 0.646384 1.819000 150 119 149
-0.348332 0.645998 1.809000 148 118 148
-0.348332 0.649164 1.809000 150 119 148
-0.346599 0.649086 1.800000 153 120 149
-0.344673 0.648613 1.790000 154 120 151
-0.342940 0.648469 1.781000 154 122 149
-0.341208 0.648294 1.772000 155 125 147
-0.336009 0.641471 1.745000 155 127 144
-0.334276 0.641201 1.736000 150 123 141
-0.334276 0.644240 1.736000 146 121 138
-0.332735 0.644296 1.728000 149 121 136
-0.331002 0.643950 1.719000 152 122 139
-0.331002 0.646959 1.719000 155 119 143
-0.329462 0.646943 1.711000 158 121 146
-0.326188 0.643480 1.694000 157 124 150
-0.324648 0.643393 1.686000 157 125 150
-0.322915 0.642894 1.677000 155 124 151
-0.321374 0.642749 1.669000 154 125 151
-0.319834 0.642576 1.661000 153 126 151
-0.318293 0.642374 1.653000 153 127 151
-0.758448 0.737573 3.975000 122 90 104
-0.749862 0.736103 3.930000 125 93 108
-0.733071 0.726346 3.842000 129 92 105
-0.725057 0.725057 3.800000 128 92 103
-0.717234 0.723814 3.759000 128 92 105
-0.701970 0.721290 3.679000 131 96 107
-0.694529 0.720016 3.640000 131 97 107
-0.687278 0.718804 3.602000 132 95 106
-0.680218 0.717661 3.565000 136 96 105
-0.666480 0.709282 3.493000 141 96 110
-0.666480 0.715396 3.493000 134 95 115
-0.666480 0.721511 3.493000 127 97 113
-0.659802 0.720334 3.458000 131 101 111
-0.640531 0.705172 3.357000 135 96 117
-0.634234 0.704058 3.324000 138 91 123
-0.622404 0.696636 3.262000 142 94 121
-0.622404 0.702346 3.262000 140 97 118
-0.616490 0.701328 3.231000 138 97 120
-0.616490 0.706983 3.231000 137 98 122
-0.610765 0.706022 3.201000 137 98 116
-0.605232 0.705179 3.172000 136 100 111
-0.599699 0.704233 3.143000 135 101 115
-0.594356 0.703412 3.115000 141 103 119
-0.583671 0.696122 3.059000 148 103 119
-0.578710 0.695514 3.033000 141 104 119
-0.573558 0.694584 3.006000 134 102 122
-0.568598 0.693793 2.980000 138 102 126
-0.563827 0.693146 2.955000 142 102 124
-0.554287 0.686503 2.905000 142 99 123
-0.549708 0.685874 2.881000 143 100 126
-0.540740 0.679646 2.834000 140 103 130
-0.536161 0.678809 2.810000 138 106 128
-0.536161 0.683728 2.810000 138 105 126
-0.531963 0.683255 2.788000 139 105 127
-0.531963 0.688136 2.788000 140 105 129
-0.523377 0.681830 2.743000 142 105 131
-0.519370 0.681375 2.722000 142 104 132
-0.515363 0.680847 2.701000 142 103 128
-0.511356 0.680244 2.680000 146 111 125
-0.511356 0.684936 2.680000 150 106 127
-0.507349 0.684223 2.659000 147 106 129
-0.503533 0.683696 2.639000 145 106 130
-0.495901 0.677883 2.599000 144 106 130
-0.488460 0.672192 2.560000 143 107 127
-0.485025 0.671916 2.542000 143 109 125
-0.485025 0.676365 2.542000 143 110 127
-0.481400 0.675726 2.523000 140 108 130
-0.481400 0.680143 2.523000 138 109 132
-0.477965 0.679676 2.505000 142 110 134
-0.474531 0.679145 2.487000 146 111 138
-0.467662 0.673605 2.451000 146 110 142
-0.464418 0.673193 2.434000 146 109 136
-0.461175 0.672723 2.417000 147 109 131
-0.454878 0.667711 2.384000 148 110 135
-0.451634 0.667093 2.367000 145 110 139
-0.448582 0.666699 2.351000 142 112 137
-0.448582 0.670815 2.351000 149 112 136
-0.445529 0.670337 2.335000 156 110 139
-0.439614 0.665470 2.304000 152 109 142
-0.436752 0.665145 2.289000 148 111 133
-0.433890 0.664767 2.274000 146 113 125
-0.428165 0.659925 2.244000 145 113 129
-0.425494 0.659711 2.230000 145 113 133
-0.425494 0.663615 2.230000 146 116 136
-0.419961 0.658838 2.201000 148 120 140
-0.417289 0.658475 2.187000 150 116 141
-0.417289 0.662304 2.187000 150 115 142
-0.414809 0.662172 2.174000 151 116 144
-0.412138 0.661689 2.160000 151 119 146
-0.409657 0.661465 2.147000 152 117 144
-0.406986 0.660886 2.133000 152 117 142
-0.404506 0.660569 2.120000 153 116 140
-0.402025 0.660206 2.107000 153 114 139
-0.402025 0.663895 2.107000 153 116 136
-0.399736 0.663781 2.095000 149 120 134
-0.394775 0.659165 2.069000 145 120 139
-0.392485 0.658943 2.057000 146 121 144
-0.387906 0.654813 2.033000 148 116 147
-0.387906 0.658372 2.033000 147 110 150
-0.385616 0.658024 2.021000 146 110 143
-0.383326 0.657633 2.009000 148 113 136
-0.378938 0.653581 1.986000 150 112 139
-0.376839 0.653418 1.975000 152 112 142
-0.374740 0.653217 1.964000 155 114 148
-0.370352 0.648965 1.941000 154 116 154
-0.370352 0.652362 1.941000 154 116 150
-0.368444 0.652382 1.931000 151 116 146
-0.366345 0.652026 1.920000 149 120 150
-0.364246 0.651632 1.909000 150 129 153
-0.362338 0.651543 1.899000 151 120 150
-0.358331 0.647626 1.878000 149 118 147
-0.356423 0.647447 1.868000 148 121 148
-0.354515 0.647233 1.858000 153 124 149
-0.352607 0.646985 1.848000 159 120 151
-0.352607 0.650220 1.848000 155 123 152
-0.350699 0.649919 1.838000 152 123 151
-0.348791 0.649583 1.828000 148 122 150
-0.347073 0.649569 1.819000 144 120 149
-0.345165 0.649164 1.809000 148 119 149
-0.343448 0.649086 1.800000 153 120 150
-0.341540 0.648613 1.790000 151 120 152
-0.339823 0.648469 1.781000 149 123 150
-0.338106 0.648294 1.772000 152 127 148
-0.332954 0.641471 1.745000 156 126 146
-0.331237 0.641201 1.736000 154 126 145
-0.331237 0.644240 1.736000 152 121 146
-0.329710 0.644296 1.728000 152 121 147
-0.327993 0.643950 1.719000 152 121 146
-0.327993 0.646959 1.719000 152 118 146
-0.326467 0.646943 1.711000 152 120 149
-0.324749 0.646519 1.702000 154 126 152
-0.321696 0.643393 1.686000 156 125 150
-0.319979 0.642894 1.677000 155 124 148
-0.318453 0.642749 1.669000 154 126 146
-0.318453 0.645670 1.669000 151 130 144
-0.316926 0.645483 1.661000 148 126 148
-0.751490 0.737573 3.975000 125 89 101
-0.742982 0.736103 3.930000 128 92 101
-0.726345 0.726346 3.842000 131 95 98
-0.718405 0.725057 3.800000 130 93 95
-0.710654 0.723814 3.759000 130 92 100
-0.688157 0.720016 3.640000 132 96 105
-0.673977 0.711421 3.565000 132 93 100
-0.666983 0.710213 3.528000 135 96 96
-0.660366 0.709282 3.493000 138 99 101
-0.660366 0.715396 3.493000 134 97 107
-0.653749 0.714281 3.458000 131 96 107
-0.653749 0.720334 3.458000 134 97 107
-0.634654 0.705172 3.357000 137 96 118
-0.628415 0.704058 3.324000 139 94 130
-0.616694 0.696636 3.262000 141 96 126
-0.610834 0.695672 3.231000 139 97 122
-0.610834 0.701328 3.231000 138 98 123
-0.605162 0.700419 3.201000 137 98 125
-0.605162 0.706022 3.201000 137 99 115
-0.599679 0.705179 3.172000 136 101 106
-0.594197 0.704233 3.143000 136 103 113
-0.588903 0.703412 3.115000 139 103 120
-0.583610 0.702493 3.087000 142 105 121
-0.578316 0.701476 3.059000 139 104 122
-0.568296 0.694584 3.006000 136 103 126
-0.563381 0.693793 2.980000 139 103 130
-0.558655 0.693146 2.955000 142 105 126
-0.549202 0.686503 2.905000 144 102 123
-0.544665 0.685874 2.881000 146 101 124
-0.535779 0.679646 2.834000 143 103 126
-0.531242 0.678809 2.810000 140 107 126
-0.531242 0.683728 2.810000 140 106 126
-0.531242 0.688647 2.810000 140 107 128
-0.527083 0.688136 2.788000 142 107 131
-0.522734 0.687299 2.765000 145 107 134
-0.514605 0.681375 2.722000 144 105 138
-0.510635 0.680847 2.701000 143 106 133
-0.506665 0.680244 2.680000 145 107 129
-0.506665 0.684936 2.680000 147 108 130
-0.502695 0.684223 2.659000 146 107 131
-0.498914 0.683696 2.639000 144 109 132
-0.495132 0.683100 2.619000 144 108 133
-0.487759 0.677444 2.580000 145 110 130
-0.483978 0.676673 2.560000 146 111 127
-0.480575 0.676365 2.542000 148 112 129
-0.476983 0.675726 2.523000 145 109 131
-0.476983 0.680143 2.523000 143 109 132
-0.476983 0.684559 2.523000 145 111 134
-0.470177 0.679145 2.487000 147 112 140
-0.463371 0.673605 2.451000 148 110 146
-0.460157 0.673193 2.434000 149 109 140
-0.456944 0.672723 2.417000 148 109 134
-0.450705 0.667711 2.384000 148 110 136
-0.447491 0.667093 2.367000 146 112 138
-0.444466 0.666699 2.351000 144 114 136
-0.444466 0.670815 2.351000 148 112 135
-0.441441 0.670337 2.335000 153 110 136
-0.438605 0.670092 2.320000 150 111 138
-0.435580 0.669503 2.304000 148 114 136
-0.432745 0.669152 2.289000 147 114 134
-0.424237 0.659925 2.244000 146 113 134
-0.421590 0.659711 2.230000 145 114 135
-0.421590 0.663615 2.230000 143 117 139
-0.416108 0.658838 2.201000 145 116 144
-0.416108 0.662690 2.201000 147 115 143
-0.413461 0.662304 2.187000 146 116 143
-0.411003 0.662172 2.174000 145 118 146
-0.408357 0.661689 2.160000 150 118 150
-0.408357 0.665470 2.160000 155 117 146
-0.403252 0.660886 2.133000 151 118 142
-0.400794 0.660569 2.120000 148 118 141
-0.398337 0.660206 2.107000 153 116 141
-0.396068 0.660114 2.095000 157 116 141
-0.391153 0.655543 2.069000 153 118 142
-0.391153 0.659165 2.069000 148 121 144
-0.388884 0.658943 2.057000 149 119 146
-0.386615 0.658678 2.045000 149 115 152
-0.384347 0.658372 2.033000 149 111 158
-0.382078 0.658024 2.021000 148 109 148
-0.379809 0.657633 2.009000 149 111 139
-0.375461 0.653581 1.986000 150 111 140
-0.373382 0.653418 1.975000 152 113 141
-0.369033 0.649226 1.952000 155 116 144
-0.366954 0.648965 1.941000 156 115 148
-0.366954 0.652362 1.941000 157 115 148
-0.365063 0.652382 1.931000 154 116 148
-0.362984 0.652026 1.920000 151 120 152
-0.360904 0.651632 1.909000 152 121 156
-0.356934 0.647769 1.888000 154 118 151
-0.353153 0.644177 1.868000 152 119 146
-0.353153 0.647447 1.868000 150 121 147
-0.351262 0.647233 1.858000 154 124 148
-0.349372 0.646985 1.848000 158 127 153
-0.349372 0.650220 1.848000 155 124 158
-0.347481 0.649919 1.838000 153 123 155
-0.345591 0.649583 1.828000 153 123 152
-0.341999 0.645998 1.809000 153 124 151
-0.340297 0.645935 1.800000 154 122 150
-0.338407 0.645480 1.790000 155 122 151
-0.338407 0.648613 1.790000 154 122 153
-0.336705 0.648469 1.781000 153 125 151
-0.333302 0.645002 1.763000 155 125 150
-0.329899 0.641471 1.745000 157 127 149
-0.328198 0.641201 1.736000 155 123 149
-0.326685 0.641271 1.728000 154 118 153
-0.324984 0.640940 1.719000 155 122 158
-0.324984 0.643950 1.719000 157 126 154
-0.324984 0.646959 1.719000 151 121 150
-0.323471 0.646943 1.711000 145 115 152
-0.321770 0.646519 1.702000 151 123 155
-0.320258 0.646446 1.694000 157 125 150
-0.318745 0.646344 1.686000 155 124 146
-0.317044 0.645830 1.677000 154 125 142
-0.315531 0.645670 1.669000 153 127 138
-0.314019 0.645483 1.661000 153 127 145
-0.744532 0.737573 3.975000 128 90 103
-0.736103 0.736103 3.930000 130 91 105
-0.719620 0.726346 3.842000 133 94 103
-0.719620 0.733071 3.842000 132 95 101
-0.711753 0.731709 3.800000 132 94 104
-0.660807 0.710213 3.528000 134 96 103
-0.654251 0.709282 3.493000 136 98 105
-0.654251 0.715396 3.493000 135 99 108
-0.654251 0.721511 3.493000 135 96 109
-0.647696 0.720334 3.458000 137 96 111
-0.628778 0.705172 3.357000 139 96 118
-0.622597 0.704058 3.324000 139 95 125
-0.610984 0.696636 3.262000 140 97 123
-0.605178 0.695672 3.231000 139 100 121
-0.605178 0.701328 3.231000 138 98 122
-0.599559 0.700419 3.201000 138 97 123
-0.594127 0.699626 3.172000 138 99 117
-0.594127 0.705179 3.172000 137 102 111
-0.588695 0.704233 3.143000 137 102 116
-0.583450 0.703412 3.115000 137 103 122
-0.578206 0.702493 3.087000 137 103 122
-0.572962 0.701476 3.059000 138 104 123
-0.563034 0.694584 3.006000 139 104 125
-0.558165 0.693793 2.980000 141 104 127
-0.553482 0.693146 2.955000 143 104 122
-0.544117 0.686503 2.905000 146 105 118
-0.535126 0.680160 2.857000 149 103 122
-0.530818 0.679646 2.834000 146 103 126
-0.526323 0.678809 2.810000 143 105 126
-0.526323 0.683728 2.810000 142 106 127
-0.526323 0.688647 2.810000 141 107 129
-0.522202 0.688136 2.788000 145 110 131
-0.517894 0.687299 2.765000 149 107 132
-0.513774 0.686632 2.743000 147 105 133
-0.505907 0.680847 2.701000 145 106 129
-0.501974 0.680244 2.680000 145 106 126
-0.498040 0.679569 2.659000 145 106 128
-0.498040 0.684223 2.659000 144 107 131
-0.494294 0.683696 2.639000 144 108 131
-0.490548 0.683100 2.619000 145 109 131
-0.483243 0.677444 2.580000 147 110 124
-0.479497 0.676673 2.560000 150 114 118
-0.476126 0.676365 2.542000 153 111 124
-0.472567 0.675726 2.523000 151 109 131
-0.472567 0.680143 2.523000 149 111 131
-0.472567 0.684559 2.523000 148 113 131
-0.465824 0.679145 2.487000 148 113 136
-0.459081 0.673605 2.451000 150 110 141
-0.455897 0.673193 2.434000 152 110 138
-0.452713 0.672723 2.417000 150 108 136
-0.446532 0.667711 2.384000 149 111 136
-0.443347 0.667093 2.367000 147 115 137
-0.443347 0.671236 2.367000 146 114 134
-0.440351 0.670815 2.351000 148 113 132
-0.437354 0.670337 2.335000 150 112 136
-0.434544 0.670092 2.320000 149 114 140
-0.431547 0.669503 2.304000 148 113 138
-0.428738 0.669152 2.289000 148 116 136
-0.423119 0.664336 2.259000 148 114 136
-0.420309 0.663853 2.244000 144 113 135
-0.417687 0.663615 2.230000 141 114 139
-0.414877 0.663028 2.215000 142 113 142
-0.412255 0.662690 2.201000 144 113 141
-0.409633 0.662304 2.187000 142 116 141
-0.407198 0.662172 2.174000 140 117 141
-0.407198 0.665978 2.174000 149 118 141
-0.404576 0.665470 2.160000 158 118 140
-0.399518 0.660886 2.133000 151 121 140
-0.397083 0.660569 2.120000 144 119 139
-0.394649 0.660206 2.107000 153 117 137
-0.392401 0.660114 2.095000 162 116 140
-0.387531 0.655543 2.069000 157 117 143
-0.387531 0.659165 2.069000 152 119 144
-0.385283 0.658943 2.057000 151 119 146
-0.383036 0.658678 2.045000 151 115 150
-0.383036 0.662258 2.045000 151 110 153
-0.378540 0.658024 2.021000 151 108 147
-0.376293 0.657633 2.009000 151 111 140
-0.371985 0.653581 1.986000 151 113 141
-0.369924 0.653418 1.975000 153 114 142
-0.367864 0.653217 1.964000 155 115 145
-0.365617 0.652643 1.952000 157 114 147
-0.363556 0.652362 1.941000 160 114 147
-0.361683 0.652382 1.931000 156 116 148
-0.359623 0.652026 1.920000 153 117 150
-0.357562 0.651632 1.909000 155 118 153
-0.351756 0.644338 1.878000 157 119 146
-0.349883 0.644177 1.868000 155 120 140
-0.348010 0.643981 1.858000 153 122 142
-0.348010 0.647233 1.858000 155 127 145
-0.346137 0.646985 1.848000 157 126 149
-0.346137 0.650220 1.848000 156 126 153
-0.344264 0.649919 1.838000 155 124 151
-0.342391 0.649583 1.828000 159 126 150
-0.340705 0.649569 1.819000 163 124 149
-0.337146 0.645935 1.800000 160 123 148
-0.335273 0.645480 1.790000 158 123 152
-0.335273 0.648613 1.790000 157 123 156
-0.333588 0.648469 1.781000 157 124 153
-0.330216 0.645002 1.763000 157 124 151
-0.326845 0.641471 1.745000 158 124 151
-0.325159 0.641201 1.736000 157 121 150
-0.323660 0.641271 1.728000 156 121 152
-0.323660 0.644296 1.728000 159 124 155
-0.321975 0.643950 1.719000 163 125 152
-0.321975 0.646959 1.719000 151 128 150
-0.320476 0.646943 1.711000 139 121 151
-0.318791 0.646519 1.702000 148 128 153
-0.317292 0.646446 1.694000 158 125 151
-0.315794 0.646344 1.686000 156 123 149
-0.314108 0.645830 1.677000 155 124 150
-0.312610 0.645670 1.669000 156 126 152
-0.311111 0.645483 1.661000 158 125 153
-0.737573 0.737573 3.975000 129 91 106
-0.729223 0.736103 3.930000 132 92 109
-0.712895 0.726346 3.842000 135 95 108
-0.712895 0.733071 3.842000 133 94 108
-0.697494 0.723814 3.759000 131 96 107
-0.648137 0.709282 3.493000 136 100 109
-0.648137 0.715396 3.493000 135 98 109
-0.648137 0.721511 3.493000 135 96 112
-0.641642 0.720334 3.458000 137 97 115
-0.616778 0.698240 3.324000 139 97 117
-0.611026 0.697492 3.293000 140 97 120
-0.605274 0.696636 3.262000 141 98 120
-0.599522 0.695672 3.231000 139 98 121
-0.599522 0.701328 3.231000 137 98 121
-0.593955 0.700419 3.201000 136 98 121
-0.593955 0.706022 3.201000 135 98 119
-0.588574 0.705179 3.172000 137 101 117
-0.583193 0.704233 3.143000 138 103 120
-0.577998 0.703412 3.115000 138 103 124
-0.572802 0.702493 3.087000 138 103 124
-0.567607 0.701476 3.059000 139 104 125
-0.557772 0.694584 3.006000 141 106 124
-0.552948 0.693793 2.980000 141 105 124
-0.548309 0.693146 2.955000 141 104 118
-0.539032 0.686503 2.905000 143 104 113
-0.530125 0.680160 2.857000 145 104 119
-0.525857 0.679646 2.834000 142 103 126
-0.521404 0.678809 2.810000 139 105 127
-0.521404 0.683728 2.810000 140 106 129
-0.521404 0.688647 2.810000 142 108 130
-0.517322 0.688136 2.788000 144 108 131
-0.513054 0.687299 2.765000 147 108 130
-0.505075 0.681375 2.722000 146 106 129
-0.501179 0.680847 2.701000 144 109 126
-0.497282 0.680244 2.680000 144 107 123
-0.493386 0.679569 2.659000 144 106 127
-0.489675 0.679077 2.639000 144 108 131
-0.489675 0.683696 2.639000 145 110 130
-0.485963 0.683100 2.619000 146 109 129
-0.478727 0.677444 2.580000 146 110 119
-0.475016 0.676673 2.560000 148 111 110
-0.471676 0.676365 2.542000 150 111 120
-0.471676 0.680815 2.542000 148 110 131
-0.468150 0.680143 2.523000 147 113 130
-0.468150 0.684559 2.523000 147 115 129
-0.461470 0.679145 2.487000 147 117 132
-0.458131 0.678552 2.469000 151 113 136
-0.451636 0.673193 2.434000 155 114 137
-0.448482 0.672723 2.417000 152 111 139
-0.445327 0.672192 2.400000 149 113 137
-0.439204 0.667093 2.367000 148 115 136
-0.439204 0.671236 2.367000 147 116 132
-0.436235 0.670815 2.351000 148 113 129
-0.433266 0.670337 2.335000 148 113 135
-0.430483 0.670092 2.320000 149 111 142
-0.427514 0.669503 2.304000 149 111 140
-0.424731 0.669152 2.289000 149 113 139
-0.419164 0.664336 2.259000 149 114 137
-0.416381 0.663853 2.244000 150 114 136
-0.413783 0.663615 2.230000 151 113 138
-0.408402 0.658838 2.201000 149 112 141
-0.408402 0.662690 2.201000 147 110 140
-0.405805 0.662304 2.187000 146 114 139
-0.403392 0.662172 2.174000 146 118 135
-0.403392 0.665978 2.174000 150 118 132
-0.400795 0.665470 2.160000 155 119 135
-0.398382 0.665223 2.147000 151 120 139
-0.393372 0.660569 2.120000 148 121 136
-0.390960 0.660206 2.107000 153 118 134
-0.388734 0.660114 2.095000 158 116 139
-0.383909 0.655543 2.069000 156 118 144
-0.383909 0.659165 2.069000 153 120 145
-0.381683 0.658943 2.057000 153 119 147
-0.379456 0.658678 2.045000 153 119 148
-0.379456 0.662258 2.045000 152 112 149
-0.375003 0.658024 2.021000 152 103 145
-0.372776 0.657633 2.009000 151 110 142
-0.370735 0.657530 1.998000 151 116 143
-0.366467 0.653418 1.975000 151 117 144
-0.364426 0.653217 1.964000 150 118 145
-0.362200 0.652643 1.952000 153 116 147
-0.360159 0.652362 1.941000 156 114 147
-0.358303 0.652382 1.931000 152 116 148
-0.356262 0.652026 1.920000 149 116 149
-0.352365 0.648219 1.899000 152 118 150
-0.348469 0.644338 1.878000 155 120 142
-0.346613 0.644177 1.868000 155 119 134
-0.346613 0.647447 1.868000 154 120 138
-0.344758 0.647233 1.858000 155 123 142
-0.344758 0.650486 1.858000 157 126 145
-0.342902 0.650220 1.848000 155 124 149
-0.341046 0.649919 1.838000 154 123 148
-0.339191 0.649583 1.828000 157 123 148
-0.335665 0.645998 1.809000 161 124 147
-0.333995 0.645935 1.800000 159 123 147
-0.333995 0.649086 1.800000 158 124 153
-0.332140 0.648613 1.790000 159 123 159
-0.330470 0.648469 1.781000 161 124 156
-0.327130 0.645002 1.763000 159 124 153
-0.323790 0.641471 1.745000 158 126 152
-0.322120 0.641201 1.736000 157 122 152
-0.322120 0.644240 1.736000 156 124 152
-0.320636 0.644296 1.728000 158 124 152
-0.318966 0.643950 1.719000 160 124 151
-0.317481 0.643948 1.711000 153 122 150
-0.317481 0.646943 1.711000 147 114 150
-0.315811 0.646519 1.702000 154 122 151
-0.314327 0.646446 1.694000 162 126 151
-0.312842 0.646344 1.686000 159 123 152
-0.311172 0.645830 1.677000 157 122 159
-0.309688 0.645670 1.669000 160 124 166
-0.308204 0.645483 1.661000 163 124 162
-0.730615 0.737573 3.975000 130 91 107
-0.722344 0.736103 3.930000 133 93 110
-0.714073 0.734475 3.885000 137 93 112
-0.698450 0.725057 3.800000 134 93 115
-0.690914 0.723814 3.759000 131 95 113
-0.669041 0.707272 3.640000 132 97 111
-0.648455 0.722565 3.528000 135 99 112
-0.642022 0.721511 3.493000 135 98 113
-0.629156 0.713044 3.423000 137 99 115
-0.610960 0.698240 3.324000 139 99 116
-0.605262 0.697492 3.293000 140 100 118
-0.599564 0.696636 3.262000 142 99 119
-0.599564 0.702346 3.262000 139 99 120
-0.593866 0.701328 3.231000 137 98 120
-0.588352 0.700419 3.201000 135 99 120
-0.588352 0.706022 3.201000 133 100 120
-0.583022 0.705179 3.172000 136 103 120
-0.572545 0.697960 3.115000 140 102 121
-0.572545 0.703412 3.115000 139 103 123
-0.567398 0.702493 3.087000 139 102 124
-0.562252 0.701476 3.059000 141 103 125
-0.552510 0.694584 3.006000 143 104 125
-0.547732 0.693793 2.980000 141 107 125
-0.543136 0.693146 2.955000 140 106 124
-0.533946 0.686503 2.905000 140 106 124
-0.525124 0.680160 2.857000 141 104 126
-0.520896 0.679646 2.834000 138 102 128
-0.516485 0.678809 2.810000 136 104 129
-0.516485 0.683728 2.810000 139 105 130
-0.516485 0.688647 2.810000 143 108 132
-0.512441 0.688136 2.788000 144 108 133
-0.508214 0.687299 2.765000 146 107 131
-0.500310 0.681375 2.722000 145 105 129
-0.496451 0.680847 2.701000 144 106 128
-0.492591 0.680244 2.680000 143 108 126
-0.488731 0.679569 2.659000 143 108 129
-0.485055 0.679077 2.639000 145 110 132
-0.485055 0.683696 2.639000 147 110 132
-0.481379 0.683100 2.619000 146 109 131
-0.474211 0.677444 2.580000 146 110 129
-0.470535 0.676673 2.560000 147 112 126
-0.470535 0.681155 2.560000 148 110 128
-0.467226 0.680815 2.542000 146 108 130
-0.467226 0.685265 2.542000 145 113 128
-0.463734 0.684559 2.523000 145 119 126
-0.457117 0.679145 2.487000 146 117 131
-0.450500 0.673605 2.451000 152 114 136
-0.447375 0.673193 2.434000 159 113 138
-0.444251 0.672723 2.417000 154 112 140
-0.441126 0.672192 2.400000 150 114 138
-0.438185 0.671884 2.384000 149 116 137
-0.435061 0.671236 2.367000 149 116 136
-0.432120 0.670815 2.351000 148 113 135
-0.429179 0.670337 2.335000 147 112 142
-0.426422 0.670092 2.320000 149 107 149
-0.423481 0.669503 2.304000 151 109 145
-0.420724 0.669152 2.289000 150 111 141
-0.415210 0.664336 2.259000 150 114 140
-0.412453 0.663853 2.244000 155 118 139
-0.409880 0.663615 2.230000 161 115 143
-0.404549 0.658838 2.201000 156 114 147
-0.404549 0.662690 2.201000 151 113 144
-0.401976 0.662304 2.187000 151 114 142
-0.399587 0.662172 2.174000 152 117 140
-0.399587 0.665978 2.174000 152 118 138
-0.397013 0.665470 2.160000 153 116 140
-0.394624 0.665223 2.147000 152 120 142
-0.392051 0.664620 2.133000 152 120 140
-0.387272 0.660206 2.107000 153 121 139
-0.385066 0.660114 2.095000 155 118 142
-0.380287 0.655543 2.069000 155 119 145
-0.378082 0.655342 2.057000 155 119 146
-0.378082 0.658943 2.057000 155 120 147
-0.375876 0.658678 2.045000 155 119 148
-0.373670 0.658372 2.033000 154 118 149
-0.371465 0.658024 2.021000 153 110 145
-0.367237 0.654032 1.998000 152 112 141
-0.365032 0.653581 1.986000 152 117 143
-0.363010 0.653418 1.975000 149 120 146
-0.360988 0.653217 1.964000 146 118 147
-0.358783 0.652643 1.952000 149 118 148
-0.358783 0.656060 1.952000 152 117 145
-0.354923 0.652382 1.931000 149 118 143
-0.352901 0.652026 1.920000 146 118 145
-0.349041 0.648219 1.899000 150 119 148
-0.345181 0.644338 1.878000 154 119 144
-0.343343 0.644177 1.868000 155 117 140
-0.343343 0.647447 1.868000 156 118 142
-0.341505 0.647233 1.858000 156 119 143
-0.341505 0.650486 1.858000 157 121 145
-0.339667 0.650220 1.848000 155 121 148
-0.337829 0.649919 1.838000 154 120 147
-0.334337 0.646384 1.819000 156 120 147
-0.332499 0.645998 1.809000 159 122 143
-0.330845 0.645935 1.800000 158 124 140
-0.329006 0.645480 1.790000 158 122 145
-0.329006 0.648613 1.790000 161 122 151
-0.327352 0.648469 1.781000 165 123 151
-0.324044 0.645002 1.763000 162 125 151
-0.321471 0.642941 1.749000 159 122 151
-0.320735 0.644525 1.745000 157 119 152
-0.319081 0.644240 1.736000 156 122 152
-0.317611 0.644296 1.728000 156 125 152
-0.315957 0.643950 1.719000 157 123 153
-0.314486 0.643948 1.711000 156 123 153
-0.314486 0.646943 1.711000 156 117 153
-0.312832 0.646519 1.702000 161 120 153
-0.311361 0.646446 1.694000 166 121 152
-0.309891 0.646344 1.686000 163 122 152
-0.308237 0.645830 1.677000 160 122 158
-0.306766 0.645670 1.669000 164 125 163
-0.305296 0.645483 1.661000 168 123 161
-0.723657 0.737573 3.975000 129 91 109
-0.715464 0.736103 3.930000 132 92 111
-0.707272 0.734475 3.885000 135 94 117
-0.691798 0.725057 3.800000 132 93 123
-0.684334 0.723814 3.759000 129 94 119
-0.665036 0.709798 3.653000 135 95 115
-0.642280 0.722565 3.528000 135 97 115
-0.623164 0.713044 3.423000 134 99 116
-0.605141 0.698240 3.324000 135 102 116
-0.599497 0.697492 3.293000 140 101 116
-0.593854 0.696636 3.262000 146 102 118
-0.593854 0.702346 3.262000 143 100 120
-0.588210 0.701328 3.231000 140 99 119
-0.582749 0.700419 3.201000 138 100 119
-0.582749 0.706022 3.201000 136 101 121
-0.572190 0.698731 3.143000 138 100 123
-0.567092 0.697960 3.115000 140 100 123
-0.567092 0.703412 3.115000 141 100 123
-0.561995 0.702493 3.087000 142 101 124
-0.556897 0.701476 3.059000 146 102 126
-0.547248 0.694584 3.006000 150 102 126
-0.547248 0.699847 3.006000 146 104 126
-0.537964 0.693146 2.955000 142 107 130
-0.528861 0.686503 2.905000 142 105 135
-0.520123 0.680160 2.857000 143 105 133
-0.515935 0.679646 2.834000 141 104 131
-0.511566 0.678809 2.810000 140 104 131
-0.511566 0.683728 2.810000 144 107 132
-0.511566 0.688647 2.810000 148 112 134
-0.507561 0.688136 2.788000 146 109 136
-0.503374 0.687299 2.765000 145 108 133
-0.495546 0.681375 2.722000 142 107 130
-0.491723 0.680847 2.701000 140 105 130
-0.487899 0.680244 2.680000 141 107 130
-0.484076 0.679569 2.659000 143 109 132
-0.480435 0.679077 2.639000 147 108 134
-0.476794 0.678515 2.619000 152 111 134
-0.473153 0.677883 2.599000 149 110 134
-0.469694 0.677444 2.580000 147 112 138
-0.466053 0.676673 2.560000 147 111 143
-0.466053 0.681155 2.560000 146 112 136
-0.462776 0.680815 2.542000 144 111 130
-0.459317 0.680143 2.523000 141 114 126
-0.456040 0.679676 2.505000 143 117 123
-0.449486 0.674230 2.469000 146 118 129
-0.446210 0.673605 2.451000 150 114 136
-0.443115 0.673193 2.434000 155 112 138
-0.436925 0.667991 2.400000 152 113 141
-0.434012 0.667711 2.384000 150 117 139
-0.430917 0.667093 2.367000 148 118 138
-0.430917 0.671236 2.367000 146 120 140
-0.428004 0.670815 2.351000 147 115 142
-0.425092 0.670337 2.335000 149 115 149
-0.422361 0.670092 2.320000 152 110 156
-0.419448 0.669503 2.304000 155 108 150
-0.416717 0.669152 2.289000 148 110 144
-0.408525 0.659925 2.244000 141 113 143
-0.408525 0.663853 2.244000 149 116 143
-0.405976 0.663615 2.230000 157 117 148
-0.403245 0.663028 2.215000 154 115 153
-0.400697 0.662690 2.201000 151 114 149
-0.398148 0.662304 2.187000 150 115 146
-0.395781 0.662172 2.174000 150 120 145
-0.395781 0.665978 2.174000 151 116 144
-0.393232 0.665470 2.160000 153 109 144
-0.390866 0.665223 2.147000 152 118 145
-0.388317 0.664620 2.133000 152 120 145
-0.383584 0.660206 2.107000 155 117 145
-0.381399 0.660114 2.095000 158 116 145
-0.376666 0.655543 2.069000 157 118 146
-0.374481 0.655342 2.057000 156 120 146
-0.372296 0.655098 2.045000 158 119 147
-0.370112 0.654813 2.033000 161 120 148
-0.367927 0.654486 2.021000 156 113 149
-0.365743 0.654116 2.009000 152 107 144
-0.363740 0.654032 1.998000 153 115 140
-0.361555 0.653581 1.986000 153 121 144
-0.359553 0.653418 1.975000 152 120 149
-0.359553 0.656875 1.975000 151 118 149
-0.357550 0.656655 1.964000 154 118 149
-0.355366 0.656060 1.952000 157 121 143
-0.353363 0.655760 1.941000 153 120 138
-0.351543 0.655762 1.931000 150 121 142
-0.347537 0.651632 1.909000 152 121 147
-0.341894 0.644338 1.878000 155 120 147
-0.341894 0.647626 1.878000 158 118 147
-0.340073 0.647447 1.868000 161 119 146
-0.338253 0.647233 1.858000 158 119 145
-0.338253 0.650486 1.858000 156 120 146
-0.336432 0.650220 1.848000 154 121 147
-0.334612 0.649919 1.838000 153 119 146
-0.331153 0.646384 1.819000 155 120 146
-0.329332 0.645998 1.809000 157 121 139
-0.327694 0.645935 1.800000 156 121 133
-0.325873 0.645480 1.790000 156 121 138
-0.324235 0.645352 1.781000 158 122 144
-0.324235 0.648469 1.781000 161 123 147
-0.322596 0.648294 1.772000 159 123 150
-0.319319 0.644779 1.754000 157 121 151
-0.317681 0.644525 1.745000 157 118 152
-0.316042 0.644240 1.736000 157 120 152
-0.314586 0.644296 1.728000 158 122 153
-0.314586 0.647321 1.728000 160 123 155
-0.312947 0.646959 1.719000 158 118 157
-0.311491 0.646943 1.711000 157 112 156
-0.309853 0.646519 1.702000 160 117 155
-0.308396 0.646446 1.694000 163 119 154
-0.306940 0.646344 1.686000 160 119 153
-0.305301 0.645830 1.677000 158 121 157
-0.303845 0.645670 1.669000 161 123 161
-0.302388 0.645483 1.661000 165 126 160
-0.716698 0.737573 3.975000 128 93 107
-0.708585 0.736103 3.930000 130 93 110
-0.700471 0.734475 3.885000 133 92 115
-0.692718 0.733071 3.842000 130 92 120
-0.677753 0.723814 3.759000 128 94 118
-0.660985 0.712324 3.666000 138 96 116
-0.636104 0.722565 3.528000 136 96 115
-0.599322 0.692421 3.324000 132 100 115
-0.593733 0.691728 3.293000 132 101 116
-0.593733 0.697492 3.293000 141 101 117
-0.588144 0.696636 3.262000 150 102 118
-0.588144 0.702346 3.262000 146 103 119
-0.582554 0.701328 3.231000 143 101 116
-0.577145 0.700419 3.201000 141 104 113
-0.577145 0.706022 3.201000 139 101 121
-0.566688 0.698731 3.143000 140 99 129
-0.561639 0.697960 3.115000 141 99 122
-0.556591 0.697089 3.087000 143 98 116
-0.556591 0.702493 3.087000 146 101 120
-0.551542 0.701476 3.059000 151 104 125
-0.546854 0.700823 3.033000 157 102 126
-0.541986 0.699847 3.006000 150 103 127
-0.537298 0.699010 2.980000 144 104 130
-0.528283 0.692410 2.930000 144 105 133
-0.515121 0.680160 2.857000 145 105 131
-0.510974 0.679646 2.834000 145 105 130
-0.506647 0.678809 2.810000 145 106 129
-0.506647 0.683728 2.810000 149 108 129
-0.506647 0.688647 2.810000 153 110 131
-0.502681 0.688136 2.788000 148 111 134
-0.498534 0.687299 2.765000 144 110 130
-0.490781 0.681375 2.722000 140 110 126
-0.486994 0.680847 2.701000 136 108 128
-0.483208 0.680244 2.680000 139 107 130
-0.479422 0.679569 2.659000 143 107 133
-0.475816 0.679077 2.639000 150 105 136
-0.475816 0.683696 2.639000 157 108 135
-0.472210 0.683100 2.619000 153 109 133
-0.465178 0.677444 2.580000 149 111 136
-0.461572 0.676673 2.560000 147 111 138
-0.461572 0.681155 2.560000 145 111 134
-0.458326 0.680815 2.542000 141 110 131
-0.454901 0.680143 2.523000 138 113 130
-0.448410 0.674792 2.487000 142 117 130
-0.445164 0.674230 2.469000 146 116 133
-0.445164 0.678552 2.469000 149 115 137
-0.438854 0.673193 2.434000 152 114 141
-0.435789 0.672723 2.417000 151 113 145
-0.432724 0.672192 2.400000 150 115 140
-0.426774 0.667093 2.367000 146 119 135
-0.423889 0.666699 2.351000 143 117 139
-0.423889 0.670815 2.351000 147 115 143
-0.421004 0.670337 2.335000 151 114 146
-0.421004 0.674424 2.335000 155 113 149
-0.418299 0.674153 2.320000 159 111 146
-0.412710 0.669152 2.289000 146 111 143
-0.404597 0.659925 2.244000 133 113 142
-0.402072 0.659711 2.230000 143 116 142
-0.402072 0.663615 2.230000 153 116 143
-0.399368 0.663028 2.215000 152 116 144
-0.396844 0.662690 2.201000 151 114 145
-0.394319 0.662304 2.187000 150 114 145
-0.391975 0.662172 2.174000 149 116 145
-0.391975 0.665978 2.174000 151 117 146
-0.389451 0.665470 2.160000 153 116 145
-0.387107 0.665223 2.147000 153 125 144
-0.384583 0.664620 2.133000 153 119 146
-0.379895 0.660206 2.107000 157 113 147
-0.375388 0.656018 2.082000 161 116 147
-0.373044 0.655543 2.069000 159 119 147
-0.370880 0.655342 2.057000 157 119 146
-0.368717 0.655098 2.045000 162 118 146
-0.368717 0.658678 2.045000 167 115 148
-0.366553 0.658372 2.033000 159 109 151
-0.362226 0.654116 2.009000 152 111 145
-0.360242 0.654032 1.998000 153 121 140
-0.358079 0.653581 1.986000 155 120 146
-0.356095 0.653418 1.975000 156 121 152
-0.356095 0.656875 1.975000 157 118 151
-0.354112 0.656655 1.964000 159 117 150
-0.349965 0.652362 1.941000 162 118 146
-0.349965 0.655760 1.941000 158 120 143
-0.348162 0.655762 1.931000 154 122 146
-0.344196 0.651632 1.909000 155 125 149
-0.342393 0.651543 1.899000 156 121 151
-0.340409 0.651074 1.888000 161 119 153
-0.336803 0.647447 1.868000 166 121 150
-0.335000 0.647233 1.858000 160 121 147
-0.335000 0.650486 1.858000 155 122 148
-0.333197 0.650220 1.848000 153 125 149
-0.331394 0.649919 1.838000 152 121 151
-0.327968 0.646384 1.819000 153 121 153
-0.326165 0.645998 1.809000 155 121 147
-0.324543 0.645935 1.800000 154 120 140
-0.322740 0.645480 1.790000 154 121 142
-0.321117 0.645352 1.781000 155 123 145
-0.321117 0.648469 1.781000 157 125 150
-0.319494 0.648294 1.772000 156 126 155
-0.316249 0.644779 1.754000 155 121 153
-0.314626 0.644525 1.745000 156 115 151
-0.313003 0.644240 1.736000 158 118 153
-0.313003 0.647279 1.736000 160 120 154
-0.311561 0.647321 1.728000 163 119 157
-0.309938 0.646959 1.719000 161 115 160
-0.308496 0.646943 1.711000 159 116 157
-0.306873 0.646519 1.702000 159 118 154
-0.305431 0.646446 1.694000 160 117 152
-0.303988 0.646344 1.686000 158 117 150
-0.302366 0.645830 1.677000 156 120 147
-0.300923 0.645670 1.669000 159 122 144
-0.299481 0.645483 1.661000 163 124 149
-0.709740 0.730615 3.975000 130 94 102
-0.709740 0.737573 3.975000 130 94 106
-0.701706 0.736103 3.930000 132 92 110
-0.693671 0.734475 3.885000 134 91 113
-0.678494 0.725057 3.800000 132 93 117
-0.671173 0.723814 3.759000 131 97 117
-0.656889 0.714850 3.679000 136 96 118
-0.649926 0.713644 3.640000 142 96 118
-0.643141 0.712499 3.602000 137 95 118
-0.643141 0.718804 3.602000 132 94 113
-0.636534 0.717661 3.565000 134 96 109
-0.629928 0.722565 3.528000 136 97 116
-0.593504 0.692421 3.324000 135 100 114
-0.587969 0.691728 3.293000 135 102 116
-0.582433 0.690926 3.262000 140 102 119
-0.582433 0.696636 3.262000 146 103 119
-0.576898 0.695672 3.231000 143 101 119
-0.571542 0.694816 3.201000 141 100 113
-0.571542 0.700419 3.201000 139 100 108
-0.566364 0.699626 3.172000 138 101 121
-0.561186 0.698731 3.143000 137 99 135
-0.556186 0.697960 3.115000 137 99 122
-0.551187 0.697089 3.087000 141 101 109
-0.551187 0.702493 3.087000 145 104 117
-0.541545 0.695514 3.033000 148 103 125
-0.541545 0.700823 3.033000 152 102 127
-0.536724 0.699847 3.006000 148 103 129
-0.532082 0.699010 2.980000 144 104 130
-0.518691 0.686503 2.905000 144 105 132
-0.510120 0.680160 2.857000 145 106 130
-0.506014 0.679646 2.834000 145 106 129
-0.506014 0.684607 2.834000 145 107 127
-0.501728 0.683728 2.810000 147 108 126
-0.501728 0.688647 2.810000 149 110 129
-0.497800 0.688136 2.788000 146 110 133
-0.493694 0.687299 2.765000 144 111 128
-0.489765 0.686632 2.743000 141 110 123
-0.486016 0.686140 2.722000 139 110 127
-0.482266 0.685575 2.701000 141 108 131
-0.478517 0.684936 2.680000 143 107 135
-0.474767 0.684223 2.659000 147 107 139
-0.471196 0.683696 2.639000 152 108 136
-0.467625 0.683100 2.619000 150 110 133
-0.464054 0.682433 2.599000 148 113 133
-0.460662 0.681960 2.580000 147 112 134
-0.457091 0.681155 2.560000 147 111 133
-0.453877 0.680815 2.542000 147 111 132
-0.453877 0.685265 2.542000 147 113 134
-0.444056 0.674792 2.487000 147 114 137
-0.440843 0.674230 2.469000 147 115 138
-0.437629 0.673605 2.451000 150 115 139
-0.431558 0.668492 2.417000 152 117 144
-0.428522 0.667991 2.400000 153 115 149
-0.428522 0.672192 2.400000 153 113 140
-0.425666 0.671884 2.384000 150 116 132
-0.422630 0.671236 2.367000 147 117 138
-0.419773 0.670815 2.351000 148 115 144
-0.416917 0.670337 2.335000 149 115 143
-0.416917 0.674424 2.335000 152 113 143
-0.414238 0.674153 2.320000 155 112 143
-0.411382 0.673537 2.304000 148 112 143
-0.403347 0.664336 2.259000 142 115 142
-0.400669 0.663853 2.244000 148 117 141
-0.398169 0.663615 2.230000 153 118 138
-0.395491 0.663028 2.215000 153 114 136
-0.395491 0.666906 2.215000 153 112 140
-0.392991 0.666543 2.201000 152 115 145
-0.388170 0.662172 2.174000 151 116 146
-0.385670 0.661689 2.160000 152 114 148
-0.385670 0.665470 2.160000 153 113 146
-0.383349 0.665223 2.147000 152 120 144
-0.380849 0.664620 2.133000 152 119 147
-0.378528 0.664280 2.120000 152 116 150
-0.371743 0.656018 2.082000 152 119 149
-0.369422 0.655543 2.069000 153 119 148
-0.367279 0.655342 2.057000 154 120 147
-0.365137 0.655098 2.045000 155 118 146
-0.362994 0.654813 2.033000 156 114 149
-0.362994 0.658372 2.033000 154 110 153
-0.360852 0.658024 2.021000 151 108 147
-0.357638 0.655669 2.003000 153 115 141
-0.354602 0.653581 1.986000 154 120 148
-0.352638 0.653418 1.975000 155 119 155
-0.352638 0.656875 1.975000 156 118 153
-0.348532 0.652643 1.952000 157 117 151
-0.346568 0.652362 1.941000 158 117 150
-0.344782 0.652382 1.931000 156 119 149
-0.342818 0.652026 1.920000 154 122 150
-0.340854 0.651632 1.909000 154 122 151
-0.335319 0.644338 1.878000 154 121 155
-0.335319 0.647626 1.878000 157 122 160
-0.333533 0.647447 1.868000 161 125 155
-0.331748 0.647233 1.858000 158 122 150
-0.331748 0.650486 1.858000 155 124 150
-0.329962 0.650220 1.848000 156 123 151
-0.328177 0.649919 1.838000 158 122 156
-0.322999 0.642831 1.809000 157 120 161
-0.321392 0.642784 1.800000 156 122 154
-0.321392 0.645935 1.800000 157 121 148
-0.319606 0.645480 1.790000 158 122 147
-0.319606 0.648613 1.790000 157 122 146
-0.317999 0.648469 1.781000 156 128 153
-0.316392 0.648294 1.772000 155 125 160
-0.313179 0.644779 1.754000 155 123 155
-0.311572 0.644525 1.745000 156 118 151
-0.309965 0.644240 1.736000 157 117 153
-0.309965 0.647279 1.736000 157 119 156
-0.308536 0.647321 1.728000 157 120 160
-0.305501 0.643948 1.711000 157 118 164
-0.303894 0.643540 1.702000 157 119 158
-0.303894 0.646519 1.702000 158 117 153
-0.302465 0.646446 1.694000 159 114 150
-0.299430 0.642894 1.677000 158 117 148
-0.299430 0.645830 1.677000 157 120 137
-0.298002 0.645670 1.669000 159 121 127
-0.296573 0.645483 1.661000 161 118 139
-0.702782 0.730615 3.975000 132 95 99
-0.702782 0.737573 3.975000 132 94 105
-0.694826 0.736103 3.930000 134 93 110
-0.686870 0.734475 3.885000 136 93 114
-0.671842 0.725057 3.800000 135 93 118
-0.657344 0.715920 3.718000 134 95 118
-0.650449 0.714850 3.679000 135 97 118
-0.643554 0.713644 3.640000 137 96 118
-0.643554 0.720016 3.640000 137 96 119
-0.636836 0.718804 3.602000 137 96 117
-0.630294 0.717661 3.565000 136 96 114
-0.630294 0.723902 3.565000 136 98 118
-0.623752 0.722565 3.528000 136 100 123
-0.623752 0.728740 3.528000 137 99 120
-0.587685 0.692421 3.324000 137 100 118
-0.587685 0.698240 3.324000 138 101 119
-0.582204 0.697492 3.293000 140 102 120
-0.576723 0.696636 3.262000 143 101 121
-0.576723 0.702346 3.262000 141 101 122
-0.571243 0.701328 3.231000 139 100 119
-0.571243 0.706983 3.231000 138 98 116
-0.565939 0.706022 3.201000 137 99 122
-0.560811 0.705179 3.172000 135 98 129
-0.550734 0.697960 3.115000 134 100 122
-0.545783 0.697089 3.087000 139 103 115
-0.545783 0.702493 3.087000 144 104 120
-0.536236 0.695514 3.033000 145 104 126
-0.536236 0.700823 3.033000 147 104 127
-0.531462 0.699847 3.006000 146 105 128
-0.526866 0.699010 2.980000 145 105 130
-0.522446 0.698318 2.955000 145 105 132
-0.505119 0.680160 2.857000 145 106 131
-0.501053 0.679646 2.834000 145 108 131
-0.496810 0.678809 2.810000 145 107 130
-0.496810 0.683728 2.810000 145 109 130
-0.492920 0.683255 2.788000 145 110 133
-0.492920 0.688136 2.788000 144 111 136
-0.488854 0.687299 2.765000 144 111 135
-0.481251 0.681375 2.722000 143 110 135
-0.481251 0.686140 2.722000 142 110 134
-0.477538 0.685575 2.701000 142 111 133
-0.473825 0.684936 2.680000 143 110 134
-0.470113 0.684223 2.659000 145 111 136
-0.466577 0.683696 2.639000 148 110 134
-0.463041 0.683100 2.619000 148 112 133
-0.456145 0.677444 2.580000 148 113 134
-0.452609 0.676673 2.560000 148 114 136
-0.452609 0.681155 2.560000 149 111 135
-0.449427 0.680815 2.542000 152 111 134
-0.449427 0.685265 2.542000 156 112 135
-0.439703 0.674792 2.487000 152 114 137
-0.433338 0.669314 2.451000 149 114 137
-0.430332 0.668933 2.434000 151 114 138
-0.427327 0.668492 2.417000 153 115 141
-0.424321 0.667991 2.400000 155 117 144
-0.424321 0.672192 2.400000 157 116 139
-0.421492 0.671884 2.384000 154 117 135
-0.418487 0.671236 2.367000 151 116 139
-0.415658 0.670815 2.351000 149 116 142
-0.412829 0.670337 2.335000 148 116 142
-0.412829 0.674424 2.335000 149 115 142
-0.410177 0.674153 2.320000 151 113 141
-0.404696 0.669152 2.289000 151 113 141
-0.399392 0.664336 2.259000 152 115 142
-0.394265 0.659711 2.230000 153 120 144
-0.394265 0.663615 2.230000 154 117 145
-0.391613 0.663028 2.215000 155 111 145
-0.391613 0.666906 2.215000 156 116 145
-0.389138 0.666543 2.201000 155 118 145
-0.386663 0.666132 2.187000 154 116 146
-0.384364 0.665978 2.174000 154 112 148
-0.381889 0.665470 2.160000 154 117 146
-0.377116 0.660886 2.133000 152 124 144
-0.377116 0.664620 2.133000 151 120 149
-0.374817 0.664280 2.120000 147 116 154
-0.370397 0.660114 2.095000 144 117 152
-0.365800 0.655543 2.069000 148 118 149
-0.363679 0.655342 2.057000 152 119 148
-0.361557 0.655098 2.045000 149 122 146
-0.359435 0.654813 2.033000 146 116 148
-0.359435 0.658372 2.033000 148 109 150
-0.357314 0.658024 2.021000 151 108 142
-0.355192 0.657633 2.009000 152 112 134
-0.351126 0.653581 1.986000 154 116 141
-0.351126 0.657057 1.986000 154 119 149
-0.349181 0.656875 1.975000 155 118 149
-0.347236 0.656655 1.964000 154 117 150
-0.345115 0.656060 1.952000 154 117 150
-0.343170 0.655760 1.941000 154 118 151
-0.339457 0.652026 1.920000 154 121 150
-0.333799 0.644464 1.888000 153 123 150
-0.332031 0.644338 1.878000 152 122 151
-0.332031 0.647626 1.878000 154 123 152
-0.330263 0.647447 1.868000 156 123 150
-0.328495 0.647233 1.858000 156 121 148
-0.328495 0.650486 1.858000 156 121 147
-0.326727 0.650220 1.848000 160 121 146
-0.324959 0.649919 1.838000 164 115 145
-0.319832 0.642831 1.809000 161 117 145
-0.318241 0.642784 1.800000 158 119 145
-0.318241 0.645935 1.800000 160 122 146
-0.316473 0.645480 1.790000 162 119 143
-0.316473 0.648613 1.790000 158 117 141
-0.314882 0.648469 1.781000 155 122 148
-0.313291 0.648294 1.772000 155 125 156
-0.311699 0.648088 1.763000 155 120 149
-0.306926 0.641201 1.736000 155 119 142
-0.306926 0.644240 1.736000 156 119 147
-0.306926 0.647279 1.736000 154 121 151
-0.305511 0.647321 1.728000 152 119 154
-0.302506 0.643948 1.711000 153 118 158
-0.300915 0.643540 1.702000 155 117 151
-0.299500 0.643480 1.694000 157 118 145
-0.298086 0.643393 1.686000 159 116 149
-0.296495 0.642894 1.677000 158 117 153
-0.295080 0.642749 1.669000 158 121 148
-0.295080 0.645670 1.669000 158 126 142
-0.293666 0.645483 1.661000 159 125 148
-0.695824 0.730615 3.975000 133 93 97
-0.695824 0.737573 3.975000 132 96 104
-0.687947 0.736103 3.930000 133 95 111
-0.680069 0.734475 3.885000 134 96 115
-0.665190 0.725057 3.800000 132 95 119
-0.650836 0.715920 3.718000 131 95 118
-0.644009 0.714850 3.679000 134 97 118
-0.637182 0.713644 3.640000 137 98 119
-0.637182 0.720016 3.640000 136 97 121
-0.630530 0.718804 3.602000 136 98 120
-0.630530 0.725110 3.602000 133 97 120
-0.624053 0.723902 3.565000 131 99 125
-0.617576 0.722565 3.528000 134 99 130
-0.617576 0.728740 3.528000 137 100 126
-0.593420 0.706169 3.390000 138 100 122
-0.581866 0.698240 3.324000 139 100 121
-0.576440 0.697492 3.293000 140 100 121
-0.576440 0.703257 3.293000 141 101 123
-0.571013 0.702346 3.262000 138 102 125
-0.565587 0.701328 3.231000 136 101 124
-0.565587 0.706983 3.231000 136 99 124
-0.560335 0.706022 3.201000 137 99 123
-0.550182 0.698731 3.143000 137 99 123
-0.545281 0.697960 3.115000 137 100 122
-0.540379 0.697089 3.087000 141 103 122
-0.540379 0.702493 3.087000 145 106 124
