ply
format ascii 1.0
element vertex 1201
property float x
property float y
property float z
property uchar red
property uchar green
property uchar blue
end_header
-0.646341 0.673845 1.964000 133 97 118
-0.642392 0.673144 1.952000 132 97 116
-0.635481 0.669283 1.931000 131 99 118
-0.621329 0.657684 1.888000 131 96 121
-0.618039 0.657488 1.878000 131 96 121
-0.614748 0.657257 1.868000 133 96 122
-0.611457 0.656991 1.858000 136 97 120
-0.611457 0.660243 1.858000 133 98 119
-0.608166 0.659925 1.848000 131 101 119
-0.608166 0.663160 1.848000 127 98 119
-0.601584 0.659182 1.828000 123 99 121
-0.598622 0.659121 1.819000 127 99 123
-0.595331 0.658664 1.809000 131 99 123
-0.592369 0.658538 1.800000 130 99 124
-0.589078 0.658013 1.790000 129 99 123
-0.589078 0.661146 1.790000 128 98 122
-0.583155 0.657600 1.772000 128 99 118
-0.577231 0.653990 1.754000 130 97 115
-0.575585 0.655188 1.749000 133 97 125
-0.574269 0.656744 1.745000 135 97 135
-0.571307 0.656396 1.736000 137 98 131
-0.571307 0.659435 1.736000 135 98 128
-0.568674 0.659420 1.728000 134 102 127
-0.565713 0.658995 1.719000 134 100 126
-0.563080 0.658923 1.711000 134 101 128
-0.560118 0.658437 1.702000 137 102 130
-0.554853 0.655198 1.686000 140 101 130
-1.154868 0.728740 3.528000 110 72 88
-1.143411 0.727625 3.493000 110 74 90
-1.131954 0.726388 3.458000 110 72 85
-1.120497 0.725027 3.423000 109 70 81
-1.120497 0.731019 3.423000 108 72 84
-1.109695 0.729906 3.390000 108 72 88
-1.098892 0.728677 3.357000 108 71 90
-1.077942 0.720550 3.293000 108 72 92
-1.067795 0.719477 3.262000 108 73 89
-1.057647 0.718295 3.231000 106 76 85
-1.047827 0.717229 3.201000 105 76 83
-1.038334 0.716284 3.172000 107 75 80
-1.028841 0.715237 3.143000 110 75 83
-1.019675 0.714318 3.115000 109 74 86
-1.010509 0.713301 3.087000 109 76 88
-1.010509 0.718705 3.087000 109 78 89
-1.001344 0.717541 3.059000 110 79 89
-0.992833 0.716751 3.033000 110 79 89
-0.983995 0.715633 3.006000 111 78 90
-0.967300 0.708664 2.955000 110 77 92
-0.943077 0.695960 2.881000 109 74 88
-0.935220 0.695164 2.857000 109 72 84
-0.927692 0.694528 2.834000 109 73 90
-0.927692 0.699489 2.834000 111 76 95
-0.919835 0.698485 2.810000 113 76 98
-0.912634 0.697896 2.788000 112 77 100
-0.905105 0.696979 2.765000 111 77 97
-0.897903 0.696235 2.743000 119 78 93
-0.891029 0.695670 2.722000 127 77 99
-0.884155 0.695031 2.701000 120 77 106
-0.877281 0.694319 2.680000 113 79 103
-0.870407 0.693532 2.659000 113 80 100
-0.863860 0.692936 2.639000 114 80 100
-0.844546 0.681960 2.580000 115 78 101
-0.838000 0.681155 2.560000 116 79 101
-0.838000 0.685636 2.560000 114 80 102
-0.832107 0.685265 2.542000 113 83 102
-0.832107 0.689715 2.542000 117 85 102
-0.825888 0.688976 2.523000 121 85 103
-0.814103 0.683499 2.487000 120 85 104
-0.808211 0.682874 2.469000 119 85 102
-0.802319 0.682186 2.451000 116 85 100
-0.796754 0.681715 2.434000 114 85 102
-0.791189 0.681185 2.417000 109 87 105
-0.785624 0.680595 2.400000 105 86 107
-0.780387 0.680230 2.384000 113 84 109
-0.769585 0.674930 2.351000 121 86 108
-0.769585 0.679045 2.351000 121 88 107
-0.769585 0.683161 2.351000 121 87 107
-0.764347 0.682599 2.335000 121 86 108
-0.759437 0.682275 2.320000 122 84 107
-0.749289 0.677165 2.289000 123 83 107
-0.749289 0.681172 2.289000 124 84 108
-0.739469 0.676199 2.259000 124 83 109
-0.734559 0.675637 2.244000 124 85 107
-0.729976 0.675325 2.230000 125 89 105
-0.729976 0.679229 2.230000 127 89 107
-0.725066 0.678538 2.215000 126 90 110
-0.715900 0.673789 2.187000 126 90 109
-0.707062 0.669251 2.160000 124 90 108
-0.702807 0.668982 2.147000 123 91 114
-0.698224 0.668353 2.133000 124 91 121
-0.698224 0.672087 2.133000 125 92 119
-0.693968 0.671702 2.120000 128 94 117
-0.689713 0.671271 2.107000 132 95 118
-0.689713 0.674960 2.107000 131 96 119
-0.685785 0.674783 2.095000 130 94 125
-0.677274 0.670030 2.069000 125 92 130
-0.673346 0.669745 2.057000 121 90 120
-0.665489 0.665489 2.033000 125 89 111
-0.661561 0.665099 2.021000 129 91 115
-0.661561 0.668637 2.021000 133 94 120
-0.657633 0.668183 2.009000 138 95 121
-0.654032 0.668023 1.998000 132 95 122
-0.650104 0.667487 1.986000 127 97 124
-0.646504 0.667247 1.975000 124 98 127
-0.642903 0.666969 1.964000 121 95 124
-0.642903 0.670407 1.964000 125 96 121
-0.638975 0.669727 1.952000 130 96 120
-0.638975 0.673144 1.952000 130 98 119
-0.632100 0.669283 1.931000 131 98 120
-0.621625 0.661516 1.899000 131 96 121
-0.618025 0.660989 1.888000 132 97 125
-0.614751 0.660775 1.878000 133 97 128
-0.611478 0.660527 1.868000 134 98 125
-0.608204 0.660243 1.858000 133 99 122
-0.604931 0.659925 1.848000 132 98 119
-0.604931 0.663160 1.848000 131 97 116
-0.598384 0.659182 1.828000 131 97 119
-0.595438 0.659121 1.819000 132 99 122
-0.592164 0.658664 1.809000 134 97 120
-0.589218 0.658538 1.800000 131 96 118
-0.585945 0.658013 1.790000 129 98 120
-0.585945 0.661146 1.790000 127 100 122
-0.582999 0.660940 1.781000 125 99 121
-0.577107 0.657346 1.763000 129 98 119
-0.574161 0.657061 1.754000 134 98 125
-0.571214 0.656744 1.745000 135 99 132
-0.571214 0.659799 1.745000 136 99 130
-0.568268 0.659435 1.736000 135 99 128
-0.565650 0.659420 1.728000 135 99 125
-0.560085 0.655928 1.711000 135 100 122
-0.560085 0.658923 1.711000 136 100 125
-0.557139 0.658437 1.702000 141 102 128
-0.551901 0.655198 1.686000 146 101 128
-1.137297 0.727625 3.493000 102 72 95
-1.125901 0.726388 3.458000 107 71 87
-1.114505 0.725027 3.423000 106 73 80
-1.114505 0.731019 3.423000 106 74 84
-1.103760 0.729906 3.390000 106 72 88
-1.093016 0.728677 3.357000 107 72 91
-1.072178 0.720550 3.293000 107 72 95
-1.062085 0.719477 3.262000 107 74 90
-1.051991 0.718295 3.231000 105 75 86
-1.042223 0.717229 3.201000 104 76 82
-1.032781 0.716284 3.172000 106 75 79
-1.023339 0.715237 3.143000 108 76 82
-1.014222 0.714318 3.115000 107 75 86
-1.005106 0.713301 3.087000 106 77 87
-1.005106 0.718705 3.087000 104 78 88
-0.995989 0.717541 3.059000 103 80 89
-0.987524 0.716751 3.033000 108 78 90
-0.978733 0.715633 3.006000 114 79 92
-0.962128 0.708664 2.955000 112 76 94
-0.938034 0.695960 2.881000 110 73 86
-0.930219 0.695164 2.857000 110 70 78
-0.922731 0.694528 2.834000 110 73 85
-0.914917 0.693566 2.810000 111 74 93
-0.914917 0.698485 2.810000 112 74 95
-0.907753 0.697896 2.788000 111 76 97
-0.900265 0.696979 2.765000 109 76 96
-0.893102 0.696235 2.743000 115 77 95
-0.886264 0.695670 2.722000 120 77 96
-0.879427 0.695031 2.701000 115 80 98
-0.879427 0.699759 2.701000 109 85 98
-0.872589 0.699010 2.680000 111 82 99
-0.846216 0.682433 2.599000 113 82 101
-0.840030 0.681960 2.580000 114 79 103
-0.833518 0.681155 2.560000 115 80 103
-0.833518 0.685636 2.560000 112 81 103
-0.827658 0.685265 2.542000 109 81 103
-0.827658 0.689715 2.542000 114 83 103
-0.821471 0.688976 2.523000 119 85 102
-0.815611 0.688446 2.505000 120 84 101
-0.803889 0.682874 2.469000 120 83 99
-0.798029 0.682186 2.451000 119 83 98
-0.792493 0.681715 2.434000 118 83 101
-0.786958 0.681185 2.417000 115 85 105
-0.781423 0.680595 2.400000 113 86 106
-0.776214 0.680230 2.384000 116 84 107
-0.770679 0.679523 2.367000 120 84 108
-0.765469 0.679045 2.351000 119 86 109
-0.765469 0.683161 2.351000 118 88 110
-0.760260 0.682599 2.335000 120 86 111
-0.755376 0.682275 2.320000 123 85 110
-0.745283 0.677165 2.289000 123 85 109
-0.745283 0.681172 2.289000 124 85 109
-0.735515 0.676199 2.259000 124 83 109
-0.730631 0.675637 2.244000 124 83 105
-0.726072 0.675325 2.230000 125 87 101
-0.721189 0.674660 2.215000 127 90 105
-0.716630 0.674249 2.201000 126 90 109
-0.712072 0.673789 2.187000 125 92 110
-0.703281 0.669251 2.160000 123 92 111
-0.703281 0.673032 2.160000 120 94 114
-0.699048 0.672740 2.147000 123 93 118
-0.694490 0.672087 2.133000 126 95 117
-0.690257 0.671702 2.120000 130 94 116
-0.690257 0.675413 2.120000 133 94 119
-0.686025 0.674960 2.107000 132 95 123
-0.682117 0.674783 2.095000 131 96 132
-0.673652 0.670030 2.069000 127 93 142
-0.665838 0.665838 2.045000 123 93 132
-0.661931 0.665489 2.033000 125 90 122
-0.658024 0.665099 2.021000 128 91 121
-0.654117 0.664667 2.009000 131 94 120
-0.650535 0.664525 1.998000 135 96 121
-0.646628 0.664010 1.986000 131 97 123
-0.643046 0.663790 1.975000 127 101 128
-0.643046 0.667247 1.975000 125 97 134
-0.639465 0.666969 1.964000 124 96 128
-0.635558 0.666310 1.952000 127 95 123
-0.635558 0.669727 1.952000 130 93 123
-0.631976 0.669351 1.941000 130 97 123
-0.628720 0.669283 1.931000 130 100 122
-0.621557 0.664999 1.909000 131 97 122
-0.614720 0.660989 1.888000 133 99 128
-0.611464 0.660775 1.878000 134 96 135
-0.608208 0.660527 1.868000 135 99 130
-0.604952 0.660243 1.858000 134 97 125
-0.601696 0.659925 1.848000 133 96 119
-0.601696 0.663160 1.848000 132 95 113
-0.598440 0.662788 1.838000 132 94 117
-0.595184 0.662382 1.828000 134 96 121
-0.588998 0.658664 1.809000 137 97 117
-0.586067 0.658538 1.800000 134 98 113
-0.582812 0.658013 1.790000 130 100 118
-0.582812 0.661146 1.790000 129 101 123
-0.579881 0.660940 1.781000 128 101 123
-0.574021 0.657346 1.763000 133 99 124
-0.571090 0.657061 1.754000 137 98 126
-0.569462 0.658249 1.749000 135 99 129
-0.568160 0.659799 1.745000 134 102 129
-0.565230 0.659435 1.736000 134 98 129
-0.562625 0.659420 1.728000 135 98 123
-0.557090 0.655928 1.711000 135 98 118
-0.554159 0.655457 1.702000 135 98 122
-0.554159 0.658437 1.702000 138 100 126
-0.546020 0.651701 1.677000 142 103 126
-1.119847 0.732441 3.458000 104 77 83
-1.108513 0.731019 3.423000 105 74 85
-1.097826 0.729906 3.390000 105 72 88
-1.087139 0.728677 3.357000 106 72 89
-1.066413 0.720550 3.293000 106 71 91
-1.056374 0.719477 3.262000 106 73 88
-1.046335 0.718295 3.231000 105 77 85
-1.027229 0.710731 3.172000 104 76 84
-1.017837 0.709735 3.143000 105 74 84
-1.008770 0.708865 3.115000 107 75 87
-1.008770 0.714318 3.115000 105 76 90
-0.999702 0.713301 3.087000 104 77 89
-0.990634 0.712186 3.059000 100 79 88
-0.990634 0.717541 3.059000 96 79 90
-0.990634 0.722896 3.059000 107 77 92
-0.973471 0.715633 3.006000 118 77 97
-0.956955 0.708664 2.955000 114 75 103
-0.925218 0.690163 2.857000 111 71 94
-0.925218 0.695164 2.857000 111 64 86
-0.917770 0.694528 2.834000 112 69 89
-0.909998 0.693566 2.810000 112 73 93
-0.909998 0.698485 2.810000 112 75 96
-0.902873 0.697896 2.788000 110 78 98
-0.895425 0.696979 2.765000 108 76 97
-0.881499 0.690905 2.722000 111 77 97
-0.874699 0.690303 2.701000 114 78 97
-0.874699 0.695031 2.701000 110 82 98
-0.867898 0.694319 2.680000 106 83 97
-0.861097 0.693532 2.659000 109 83 97
-0.848144 0.687684 2.619000 113 81 98
-0.835514 0.681960 2.580000 114 79 100
-0.829037 0.681155 2.560000 115 81 101
-0.829037 0.685636 2.560000 110 84 103
-0.823208 0.685265 2.542000 106 82 103
-0.817055 0.684559 2.523000 112 83 103
-0.811226 0.684061 2.505000 118 84 102
-0.805396 0.683499 2.487000 120 83 101
-0.799567 0.682874 2.469000 122 83 101
-0.793738 0.682186 2.451000 122 83 101
-0.788233 0.681715 2.434000 122 83 103
-0.782727 0.681185 2.417000 121 85 105
-0.777222 0.680595 2.400000 121 84 107
-0.772041 0.680230 2.384000 120 82 109
-0.766535 0.679523 2.367000 120 83 108
-0.761354 0.679045 2.351000 118 84 108
-0.756172 0.678511 2.335000 116 87 105
-0.756172 0.682599 2.335000 120 88 102
-0.751315 0.682275 2.320000 124 87 105
-0.746133 0.681603 2.304000 124 87 108
-0.741276 0.681172 2.289000 124 85 111
-0.736418 0.680689 2.274000 124 84 114
-0.731560 0.680153 2.259000 124 85 111
-0.722169 0.675325 2.230000 125 88 108
-0.722169 0.679229 2.230000 127 89 108
-0.712777 0.674249 2.201000 126 89 109
-0.708244 0.673789 2.187000 125 92 111
-0.699500 0.669251 2.160000 121 95 113
-0.699500 0.673032 2.160000 118 93 116
-0.695290 0.672740 2.147000 123 92 119
-0.690756 0.672087 2.133000 128 94 118
-0.686546 0.671702 2.120000 131 95 118
-0.686546 0.675413 2.120000 135 94 119
-0.682336 0.674960 2.107000 133 94 120
-0.678450 0.674783 2.095000 132 93 123
-0.674240 0.674240 2.082000 128 93 126
-0.662258 0.665838 2.045000 125 91 123
-0.654486 0.661561 2.021000 126 89 121
-0.650600 0.661150 2.009000 128 92 120
-0.647037 0.661027 1.998000 130 95 120
-0.647037 0.664525 1.998000 132 96 121
-0.643151 0.664010 1.986000 130 98 122
-0.639589 0.663790 1.975000 128 96 126
-0.639589 0.667247 1.975000 127 95 129
-0.636027 0.666969 1.964000 127 95 126
-0.632141 0.666310 1.952000 129 95 123
-0.632141 0.669727 1.952000 131 96 122
-0.628578 0.669351 1.941000 130 99 122
-0.625340 0.669283 1.931000 130 97 119
-0.618215 0.664999 1.909000 132 94 116
-0.611415 0.660989 1.888000 134 94 124
-0.608176 0.660775 1.878000 135 92 132
-0.604938 0.660527 1.868000 137 95 129
-0.601699 0.660243 1.858000 135 97 125
-0.598461 0.659925 1.848000 134 96 122
-0.598461 0.663160 1.848000 133 95 118
-0.591984 0.659182 1.828000 133 95 121
-0.589070 0.659121 1.819000 137 95 124
-0.585831 0.658664 1.809000 141 97 121
-0.582916 0.658538 1.800000 136 99 118
-0.579678 0.658013 1.790000 132 101 120
-0.579678 0.661146 1.790000 132 105 121
-0.573849 0.657600 1.772000 132 102 121
-0.570934 0.657346 1.763000 136 100 121
-0.570934 0.660432 1.763000 141 98 124
-0.568020 0.660131 1.754000 136 98 128
-0.565105 0.659799 1.745000 132 98 129
-0.562191 0.659435 1.736000 133 96 130
-0.559600 0.659420 1.728000 135 96 126
-0.556685 0.658995 1.719000 134 97 122
-0.554095 0.658923 1.711000 134 97 124
-0.548589 0.655342 1.694000 136 97 126
-0.545999 0.655198 1.686000 138 100 127
-1.113794 0.732441 3.458000 103 73 87
-1.113794 0.738494 3.458000 103 73 87
-1.091892 0.729906 3.390000 104 73 88
-1.081263 0.728677 3.357000 105 76 87
-1.070634 0.727333 3.324000 105 72 87
-1.050664 0.719477 3.262000 105 71 85
-1.040679 0.718295 3.231000 104 76 84
-1.021676 0.710731 3.172000 104 79 87
-1.012335 0.709735 3.143000 104 75 90
-1.003317 0.708865 3.115000 105 74 92
-1.003317 0.714318 3.115000 104 76 94
-0.994298 0.713301 3.087000 103 78 91
-0.994298 0.718705 3.087000 101 79 88
-0.985280 0.717541 3.059000 99 81 91
-0.985280 0.722896 3.059000 106 78 94
-0.976905 0.722060 3.033000 113 77 103
-0.959834 0.714659 2.980000 111 75 112
-0.920217 0.690163 2.857000 110 73 103
-0.912809 0.689568 2.834000 110 68 94
-0.912809 0.694528 2.834000 111 67 94
-0.905079 0.693566 2.810000 111 72 94
-0.905079 0.698485 2.810000 111 75 97
-0.897993 0.697896 2.788000 111 76 100
-0.897993 0.702777 2.788000 110 76 99
-0.883498 0.696235 2.743000 112 76 99
-0.869971 0.690303 2.701000 114 77 98
-0.869971 0.695031 2.701000 111 80 98
-0.863207 0.694319 2.680000 108 84 97
-0.863207 0.699010 2.680000 111 82 96
-0.843559 0.687684 2.619000 114 81 96
-0.837117 0.686982 2.599000 115 80 97
-0.830998 0.686476 2.580000 115 81 100
-0.824556 0.685636 2.560000 113 82 103
-0.818758 0.685265 2.542000 111 83 103
-0.818758 0.689715 2.542000 115 84 104
-0.806841 0.684061 2.505000 119 88 103
-0.801043 0.683499 2.487000 123 85 102
-0.795245 0.682874 2.469000 127 84 103
-0.789448 0.682186 2.451000 125 83 104
-0.783972 0.681715 2.434000 124 83 105
-0.778497 0.681185 2.417000 124 83 106
-0.778497 0.685415 2.417000 124 84 108
-0.762392 0.675380 2.367000 122 83 111
-0.762392 0.679523 2.367000 121 82 109
-0.757238 0.679045 2.351000 120 85 108
-0.752085 0.678511 2.335000 119 88 101
-0.747254 0.678214 2.320000 122 88 94
-0.747254 0.682275 2.320000 125 89 100
-0.742100 0.681603 2.304000 125 87 107
-0.737269 0.681172 2.289000 125 86 113
-0.732437 0.680689 2.274000 125 86 119
-0.727606 0.680153 2.259000 125 88 117
-0.722775 0.679565 2.244000 126 88 115
-0.718265 0.679229 2.230000 127 91 112
-0.713434 0.678538 2.215000 127 91 110
-0.704415 0.673789 2.187000 126 92 112
-0.695719 0.669251 2.160000 124 93 115
-0.695719 0.673032 2.160000 121 93 117
-0.691532 0.672740 2.147000 124 92 120
-0.687022 0.672087 2.133000 127 94 120
-0.682835 0.671702 2.120000 129 95 121
-0.682835 0.675413 2.120000 132 94 119
-0.682835 0.679124 2.120000 131 93 118
-0.678648 0.678648 2.107000 130 90 114
-0.674783 0.678450 2.095000 129 92 111
-0.658678 0.665838 2.045000 128 92 115
-0.650948 0.661561 2.021000 128 92 120
-0.647083 0.661150 2.009000 129 93 120
-0.643540 0.661027 1.998000 132 94 120
-0.643540 0.664525 1.998000 135 95 121
-0.639675 0.664010 1.986000 132 96 122
-0.636132 0.663790 1.975000 129 93 123
-0.636132 0.667247 1.975000 128 94 125
-0.632589 0.666969 1.964000 128 94 124
-0.628724 0.666310 1.952000 129 96 123
-0.628724 0.669727 1.952000 130 100 122
-0.625181 0.669351 1.941000 131 98 121
-0.618417 0.665470 1.920000 131 97 115
-0.614874 0.664999 1.909000 133 94 110
-0.611653 0.664840 1.899000 134 93 120
-0.604889 0.660775 1.878000 138 92 130
-0.601668 0.660527 1.868000 142 93 128
-0.598447 0.660243 1.858000 137 95 126
-0.595226 0.659925 1.848000 133 98 125
-0.592005 0.659571 1.838000 131 96 124
-0.592005 0.662788 1.838000 130 96 126
-0.588784 0.662382 1.828000 133 96 128
-0.582665 0.658664 1.809000 137 97 126
-0.579766 0.658538 1.800000 134 98 124
-0.576545 0.658013 1.790000 132 100 122
-0.576545 0.661146 1.790000 131 102 120
-0.570747 0.657600 1.772000 131 102 119
-0.570747 0.660702 1.772000 134 99 118
-0.567848 0.660432 1.763000 138 99 122
-0.564949 0.660131 1.754000 135 98 127
-0.562051 0.659799 1.745000 133 97 129
-0.562051 0.662853 1.745000 134 96 131
-0.556575 0.659420 1.728000 136 95 128
-0.553676 0.658995 1.719000 135 97 126
-0.551099 0.658923 1.711000 134 99 126
-0.545624 0.655342 1.694000 134 98 127
-0.540148 0.651701 1.677000 135 100 128
-1.107741 0.732441 3.458000 102 70 88
-1.096529 0.731019 3.423000 102 70 87
-1.085958 0.729906 3.390000 103 72 86
-1.075387 0.728677 3.357000 105 72 82
-1.064815 0.727333 3.324000 104 71 79
-1.044954 0.719477 3.262000 104 73 82
-1.035023 0.718295 3.231000 104 79 85
-1.025413 0.717229 3.201000 104 76 87
-1.016123 0.716284 3.172000 104 73 89
-1.006833 0.715237 3.143000 104 74 91
-0.997864 0.714318 3.115000 103 76 93
-0.997864 0.719771 3.115000 103 78 89
-0.988894 0.718705 3.087000 103 80 86
-0.979925 0.717541 3.059000 103 79 89
-0.979925 0.722896 3.059000 105 79 92
-0.971596 0.722060 3.033000 108 77 98
-0.954618 0.714659 2.980000 108 77 103
-0.915216 0.690163 2.857000 109 73 98
-0.907848 0.689568 2.834000 110 69 94
-0.907848 0.694528 2.834000 111 70 94
-0.900160 0.693566 2.810000 111 73 94
-0.900160 0.698485 2.810000 111 75 98
-0.893112 0.697896 2.788000 112 76 103
-0.885744 0.696979 2.765000 113 76 101
-0.878697 0.696235 2.743000 113 77 100
-0.871970 0.695670 2.722000 114 77 100
-0.865242 0.695031 2.701000 112 78 100
-0.865242 0.699759 2.701000 110 82 98
-0.858515 0.699010 2.680000 113 83 97
-0.845381 0.692936 2.639000 116 82 96
-0.838974 0.692269 2.619000 116 82 94
-0.832568 0.691532 2.599000 116 82 101
-0.826481 0.690992 2.580000 116 83 108
-0.820074 0.690117 2.560000 117 83 106
-0.808222 0.684559 2.523000 119 85 104
-0.802455 0.684061 2.505000 121 86 103
-0.796689 0.683499 2.487000 127 85 102
-0.790923 0.682874 2.469000 133 84 103
-0.785157 0.682186 2.451000 129 85 103
-0.779711 0.681715 2.434000 126 84 104
-0.774265 0.681185 2.417000 127 83 106
-0.774265 0.685415 2.417000 128 83 111
-0.758248 0.675380 2.367000 125 85 116
-0.753123 0.674930 2.351000 122 84 114
-0.753123 0.679045 2.351000 122 87 112
-0.747997 0.678511 2.335000 122 88 110
-0.743192 0.678214 2.320000 124 88 107
-0.743192 0.682275 2.320000 126 87 109
-0.738067 0.681603 2.304000 126 87 111
-0.733262 0.681172 2.289000 126 86 117
-0.728457 0.680689 2.274000 126 86 122
-0.723652 0.680153 2.259000 127 87 120
-0.718846 0.679565 2.244000 127 87 117
-0.718846 0.683493 2.244000 128 89 115
-0.714362 0.683133 2.230000 128 92 114
-0.700587 0.673789 2.187000 128 92 115
-0.696422 0.673589 2.174000 126 94 117
-0.691938 0.673032 2.160000 125 92 120
-0.687773 0.672740 2.147000 126 89 123
-0.687773 0.676498 2.147000 127 93 125
-0.683288 0.675821 2.133000 128 97 128
-0.679124 0.675413 2.120000 129 95 124
-0.679124 0.679124 2.120000 129 94 121
-0.674960 0.678648 2.107000 129 94 118
-0.671115 0.678450 2.095000 130 95 115
-0.662787 0.673652 2.069000 131 94 117
-0.647410 0.661561 2.021000 131 95 119
-0.647410 0.665099 2.021000 131 93 118
-0.640042 0.661027 1.998000 134 94 116
-0.636198 0.660534 1.986000 138 96 120
-0.632675 0.660333 1.975000 134 98 123
-0.632675 0.663790 1.975000 131 96 123
-0.629151 0.663531 1.964000 130 95 123
-0.625307 0.662893 1.952000 129 96 121
-0.625307 0.666310 1.952000 129 98 120
-0.621783 0.665953 1.941000 130 97 121
-0.618579 0.665903 1.931000 131 96 123
-0.615056 0.665470 1.920000 133 96 119
-0.611532 0.664999 1.909000 134 94 116
-0.608329 0.664840 1.899000 135 93 121
-0.604805 0.664294 1.888000 141 92 127
-0.598398 0.660527 1.868000 147 92 125
-0.595195 0.660243 1.858000 140 93 123
-0.595195 0.663496 1.858000 133 97 123
-0.588788 0.659571 1.838000 130 97 123
-0.588788 0.662788 1.838000 127 96 123
-0.585584 0.662382 1.828000 130 98 124
-0.582701 0.662305 1.819000 134 97 124
-0.579498 0.661831 1.809000 133 98 124
-0.576615 0.661689 1.800000 132 99 123
-0.573411 0.661146 1.790000 131 102 122
-0.570528 0.660940 1.781000 131 100 122
-0.567645 0.660702 1.772000 133 97 123
-0.564762 0.660432 1.763000 135 98 125
-0.556113 0.653357 1.736000 135 99 127
-0.556113 0.656396 1.736000 135 97 131
-0.556113 0.659435 1.736000 136 96 136
-0.553550 0.659420 1.728000 137 97 133
-0.550667 0.658995 1.719000 135 100 129
-0.548104 0.658923 1.711000 134 100 130
-0.542659 0.655342 1.694000 133 99 130
-0.537213 0.651701 1.677000 132 100 133
-1.080024 0.723972 3.390000 103 68 86
-1.080024 0.729906 3.390000 104 69 84
-1.058997 0.721514 3.324000 105 71 77
-1.039244 0.713767 3.262000 103 72 71
-1.029368 0.712639 3.231000 102 74 79
-1.029368 0.718295 3.231000 102 75 87
-1.019810 0.717229 3.201000 103 75 88
-1.010571 0.716284 3.172000 104 73 89
-1.001332 0.715237 3.143000 104 73 90
-1.001332 0.720739 3.143000 103 76 92
-0.992411 0.719771 3.115000 102 80 88
-0.983490 0.718705 3.087000 103 79 84
-0.983490 0.724108 3.087000 104 76 87
-0.974570 0.722896 3.059000 106 76 91
-0.966287 0.722060 3.033000 108 75 93
-0.949401 0.714659 2.980000 106 75 95
-0.902887 0.684607 2.834000 105 74 94
-0.902887 0.689568 2.834000 108 72 94
-0.902887 0.694528 2.834000 111 72 94
-0.895241 0.693566 2.810000 111 75 94
-0.888232 0.693016 2.788000 111 78 100
-0.880904 0.692139 2.765000 112 76 107
-0.873895 0.691434 2.743000 114 76 104
-0.867205 0.690905 2.722000 115 75 101
-0.860514 0.690303 2.701000 116 76 101
-0.860514 0.695031 2.701000 112 79 102
-0.860514 0.699759 2.701000 108 83 100
-0.853824 0.699010 2.680000 112 83 99
-0.840762 0.692936 2.639000 116 82 95
-0.834390 0.692269 2.619000 114 82 92
-0.828018 0.691532 2.599000 112 83 102
-0.821965 0.690992 2.580000 114 82 113
-0.815593 0.690117 2.560000 116 81 109
-0.809858 0.689715 2.542000 118 84 105
-0.798071 0.684061 2.505000 119 86 104
-0.792336 0.683499 2.487000 123 85 103
-0.786601 0.682874 2.469000 128 83 103
-0.780867 0.682186 2.451000 126 85 103
-0.775451 0.681715 2.434000 124 86 104
-0.775451 0.685976 2.434000 125 84 106
-0.770035 0.685415 2.417000 126 83 113
-0.754105 0.675380 2.367000 123 83 121
-0.749008 0.674930 2.351000 121 85 119
-0.749008 0.679045 2.351000 119 87 117
-0.743910 0.678511 2.335000 117 90 119
-0.739131 0.678214 2.320000 124 88 121
-0.739131 0.682275 2.320000 130 86 118
-0.734034 0.681603 2.304000 129 86 116
-0.729255 0.681172 2.289000 127 88 121
-0.724476 0.680689 2.274000 127 87 126
-0.719697 0.680153 2.259000 127 87 123
-0.719697 0.684108 2.259000 128 87 120
-0.714918 0.683493 2.244000 129 88 119
-0.705679 0.678538 2.215000 128 90 118
-0.692617 0.669783 2.174000 127 91 119
-0.692617 0.673589 2.174000 125 92 120
-0.688157 0.673032 2.160000 123 92 123
-0.684015 0.672740 2.147000 124 91 127
-0.679555 0.672087 2.133000 126 95 131
-0.675413 0.671702 2.120000 126 96 135
-0.675413 0.675413 2.120000 126 98 129
-0.671271 0.674960 2.107000 128 98 124
-0.667448 0.674783 2.095000 130 99 121
-0.667448 0.678450 2.095000 132 96 119
-0.659165 0.673652 2.069000 134 95 119
-0.643872 0.661561 2.021000 133 93 119
-0.643872 0.665099 2.021000 132 93 116
-0.636545 0.661027 1.998000 132 94 113
-0.632722 0.660534 1.986000 133 98 119
-0.632722 0.664010 1.986000 131 98 125
-0.629217 0.663790 1.975000 130 98 123
-0.629217 0.667247 1.975000 129 96 121
-0.625713 0.666969 1.964000 127 98 119
-0.621890 0.666310 1.952000 128 98 117
-0.618385 0.665953 1.941000 129 97 121
-0.615199 0.665903 1.931000 130 97 125
-0.611695 0.665470 1.920000 132 98 123
-0.608190 0.664999 1.909000 133 96 122
-0.605004 0.664840 1.899000 134 94 123
-0.601500 0.664294 1.888000 137 93 125
-0.595128 0.660527 1.868000 140 93 122
-0.591942 0.660243 1.858000 136 96 120
-0.591942 0.663496 1.858000 132 100 121
-0.585570 0.659571 1.838000 130 98 122
-0.585570 0.662788 1.838000 129 94 121
-0.582384 0.662382 1.828000 131 96 121
-0.576331 0.658664 1.809000 133 97 122
-0.576331 0.661831 1.809000 133 97 124
-0.573464 0.661689 1.800000 132 99 124
-0.570278 0.661146 1.790000 132 100 124
-0.567411 0.660940 1.781000 133 100 126
-0.564543 0.660702 1.772000 134 98 128
-0.561676 0.660432 1.763000 135 99 127
-0.555941 0.656744 1.745000 134 97 127
-0.555941 0.659799 1.745000 134 96 134
-0.553074 0.659435 1.736000 134 97 142
-0.550525 0.659420 1.728000 135 97 137
-0.547658 0.658995 1.719000 135 99 133
-0.545109 0.658923 1.711000 135 103 133
-0.539693 0.655342 1.694000 137 101 134
-0.534277 0.651701 1.677000 139 102 137
-1.063634 0.722801 3.357000 104 65 85
-1.053178 0.721514 3.324000 105 69 82
-1.033534 0.713767 3.262000 102 73 79
-1.023712 0.712639 3.231000 100 71 87
-1.023712 0.718295 3.231000 101 72 95
-1.014207 0.717229 3.201000 103 71 90
-1.005018 0.716284 3.172000 104 74 85
-0.995830 0.715237 3.143000 105 75 88
-0.995830 0.720739 3.143000 103 77 91
-0.986958 0.719771 3.115000 101 78 89
-0.978087 0.718705 3.087000 103 80 87
-0.978087 0.724108 3.087000 106 77 89
-0.969215 0.722896 3.059000 107 76 90
-0.952423 0.715633 3.006000 108 75 92
-0.944185 0.714659 2.980000 105 74 93
-0.944185 0.719876 2.980000 102 74 91
-0.897926 0.689568 2.834000 107 73 90
-0.897926 0.694528 2.834000 112 74 91
-0.890322 0.693566 2.810000 111 77 93
-0.883352 0.693016 2.788000 111 76 98
-0.876064 0.692139 2.765000 113 75 103
-0.869094 0.691434 2.743000 115 75 102
-0.862440 0.690905 2.722000 117 73 101
-0.855786 0.690303 2.701000 119 76 101
-0.855786 0.695031 2.701000 113 79 101
-0.849133 0.694319 2.680000 107 82 101
-0.849133 0.699010 2.680000 111 84 102
-0.836142 0.692936 2.639000 116 82 98
-0.829805 0.692269 2.619000 112 82 94
-0.823469 0.691532 2.599000 109 82 101
-0.817449 0.690992 2.580000 112 83 108
-0.811112 0.690117 2.560000 116 83 107
-0.805409 0.689715 2.542000 117 85 106
-0.799389 0.688976 2.523000 118 86 106
-0.793686 0.688446 2.505000 120 87 105
-0.782279 0.682874 2.469000 123 86 104
-0.782279 0.687196 2.469000 122 87 103
-0.776576 0.686476 2.451000 122 86 103
-0.771190 0.685976 2.434000 123 84 104
-0.765804 0.685415 2.417000 124 83 110
-0.749962 0.675380 2.367000 122 82 116
-0.744892 0.674930 2.351000 120 83 115
-0.744892 0.679045 2.351000 116 86 114
-0.739823 0.678511 2.335000 113 88 115
-0.735070 0.678214 2.320000 124 89 117
-0.730001 0.677570 2.304000 135 87 116
-0.730001 0.681603 2.304000 132 86 116
-0.725248 0.681172 2.289000 129 89 118
-0.725248 0.685179 2.289000 128 90 121
-0.720496 0.684670 2.274000 128 87 117
-0.715743 0.684108 2.259000 129 87 114
-0.710990 0.683493 2.244000 131 88 117
-0.701802 0.678538 2.215000 128 89 119
-0.692930 0.673789 2.187000 126 90 122
-0.688811 0.673589 2.174000 123 92 125
-0.684376 0.673032 2.160000 121 91 125
-0.680257 0.672740 2.147000 123 89 126
-0.680257 0.676498 2.147000 126 91 129
-0.675821 0.675821 2.133000 124 95 132
-0.671702 0.675413 2.120000 123 97 128
-0.671702 0.679124 2.120000 127 102 124
-0.667583 0.678648 2.107000 131 98 122
-0.663781 0.678450 2.095000 134 96 121
-0.655543 0.673652 2.069000 137 95 121
-0.647939 0.669418 2.045000 135 92 121
-0.640335 0.665099 2.021000 133 93 120
-0.634632 0.662682 2.003000 130 93 119
-0.629245 0.660534 1.986000 128 96 125
-0.629245 0.664010 1.986000 129 101 131
-0.625760 0.663790 1.975000 130 98 127
-0.625760 0.667247 1.975000 128 96 124
-0.622275 0.666969 1.964000 126 98 121
-0.618473 0.666310 1.952000 127 99 118
-0.614988 0.665953 1.941000 128 98 120
-0.611819 0.665903 1.931000 130 100 123
-0.608334 0.665470 1.920000 132 98 122
-0.604849 0.664999 1.909000 133 99 121
-0.601680 0.664840 1.899000 134 97 123
-0.598195 0.664294 1.888000 134 95 126
-0.591858 0.660527 1.868000 134 95 124
-0.588690 0.660243 1.858000 133 98 122
-0.588690 0.663496 1.858000 132 100 122
-0.582353 0.659571 1.838000 131 102 122
-0.579185 0.659182 1.828000 131 98 121
-0.576333 0.659121 1.819000 132 97 121
-0.573165 0.658664 1.809000 133 96 122
-0.573165 0.661831 1.809000 133 95 124
-0.570313 0.661689 1.800000 133 98 124
-0.567145 0.661146 1.790000 134 101 125
-0.561441 0.657600 1.772000 135 99 128
-0.561441 0.660702 1.772000 135 97 132
-0.552887 0.653689 1.745000 135 96 128
-0.552887 0.656744 1.745000 134 97 124
-0.550035 0.656396 1.736000 133 99 130
-0.550035 0.659435 1.736000 133 102 137
-0.547500 0.659420 1.728000 133 100 134
-0.544649 0.658995 1.719000 134 99 132
-0.542114 0.658923 1.711000 136 101 133
-0.536728 0.655342 1.694000 141 101 133
-0.531342 0.651701 1.677000 146 100 136
-1.057757 0.722801 3.357000 103 68 87
-1.047359 0.721514 3.324000 104 69 87
-1.027824 0.713767 3.262000 103 69 88
-1.018056 0.712639 3.231000 103 66 95
-1.008603 0.711626 3.201000 104 68 103
-1.008603 0.717229 3.201000 105 65 92
-0.999466 0.716284 3.172000 106 71 82
-0.990328 0.715237 3.143000 108 76 86
-0.990328 0.720739 3.143000 107 75 90
-0.981505 0.719771 3.115000 106 77 90
-0.972683 0.718705 3.087000 108 78 91
-0.963860 0.717541 3.059000 110 78 90
-0.963860 0.722896 3.059000 109 77 90
-0.947161 0.715633 3.006000 109 77 91
-0.938968 0.714659 2.980000 108 76 92
-0.938968 0.719876 2.980000 106 76 89
-0.923214 0.712926 2.930000 110 76 86
-0.907774 0.706047 2.881000 114 76 89
-0.892965 0.699489 2.834000 112 77 93
-0.878471 0.693016 2.788000 110 77 96
-0.864292 0.686632 2.743000 112 77 99
-0.857675 0.686140 2.722000 115 77 100
-0.851058 0.685575 2.701000 115 76 102
-0.851058 0.690303 2.701000 116 76 101
-0.851058 0.695031 2.701000 113 79 101
-0.844441 0.694319 2.680000 111 83 103
-0.837824 0.693532 2.659000 115 82 105
-0.825221 0.687684 2.619000 119 82 100
-0.825221 0.692269 2.619000 116 82 96
-0.818919 0.691532 2.599000 113 83 100
-0.806631 0.685636 2.560000 115 84 104
-0.806631 0.690117 2.560000 117 84 106
-0.800959 0.689715 2.542000 118 84 108
-0.794972 0.688976 2.523000 119 86 108
-0.789301 0.688446 2.505000 120 87 108
-0.783629 0.687852 2.487000 122 87 105
-0.777957 0.687196 2.469000 121 87 103
-0.772286 0.686476 2.451000 121 87 102
-0.766929 0.685976 2.434000 124 86 102
-0.761573 0.685415 2.417000 126 86 107
-0.745818 0.675380 2.367000 123 85 112
-0.740777 0.674930 2.351000 121 82 112
-0.735735 0.674424 2.335000 119 85 112
-0.735735 0.678511 2.335000 117 89 112
-0.731009 0.678214 2.320000 124 88 113
-0.731009 0.682275 2.320000 131 87 114
-0.725967 0.681603 2.304000 129 89 116
-0.721241 0.681172 2.289000 128 92 116
-0.721241 0.685179 2.289000 128 90 116
-0.716515 0.684670 2.274000 128 87 112
-0.707062 0.679565 2.244000 130 87 109
-0.702651 0.679229 2.230000 131 88 115
-0.693513 0.674249 2.201000 129 89 121
-0.685006 0.669783 2.174000 127 89 125
-0.685006 0.673589 2.174000 125 90 130
-0.680594 0.673032 2.160000 124 92 127
-0.676498 0.672740 2.147000 127 90 125
-0.672087 0.672087 2.133000 131 86 127
-0.672087 0.675821 2.133000 128 92 129
-0.667991 0.675413 2.120000 126 96 126
-0.663895 0.674960 2.107000 128 97 124
-0.660114 0.674783 2.095000 131 95 124
-0.656017 0.674240 2.082000 133 95 124
-0.651921 0.673652 2.069000 135 97 123
-0.644359 0.669418 2.045000 134 94 123
-0.636797 0.665099 2.021000 133 94 124
-0.633016 0.664667 2.009000 131 93 126
-0.629550 0.664525 1.998000 130 93 131
-0.625769 0.664010 1.986000 130 97 137
-0.622303 0.663790 1.975000 131 99 132
-0.622303 0.667247 1.975000 130 98 127
-0.618837 0.666969 1.964000 128 101 123
-0.615056 0.666310 1.952000 129 99 120
-0.611590 0.665953 1.941000 130 99 120
-0.608439 0.665903 1.931000 131 97 121
-0.604973 0.665470 1.920000 133 95 121
-0.601507 0.664999 1.909000 135 98 121
-0.598356 0.664840 1.899000 137 100 124
-0.594890 0.664294 1.888000 136 96 127
-0.588588 0.660527 1.868000 135 97 125
-0.585437 0.660243 1.858000 133 99 124
-0.585437 0.663496 1.858000 132 101 123
-0.579135 0.659571 1.838000 132 102 122
-0.575985 0.659182 1.828000 131 102 122
-0.573149 0.659121 1.819000 132 98 122
-0.569998 0.658664 1.809000 134 97 123
-0.569998 0.661831 1.809000 133 97 124
-0.567162 0.661689 1.800000 133 99 125
-0.555504 0.651174 1.763000 136 99 126
-0.552668 0.650920 1.754000 138 101 131
-0.552668 0.653990 1.754000 135 98 136
-0.551092 0.655188 1.749000 132 94 128
-0.549832 0.656744 1.745000 133 97 121
-0.549832 0.659799 1.745000 134 101 126
-0.546996 0.659435 1.736000 133 102 132
-0.544476 0.659420 1.728000 133 104 132
-0.541640 0.658995 1.719000 132 102 132
-0.536283 0.655457 1.702000 132 101 132
-0.531242 0.652247 1.686000 137 100 133
-0.528406 0.651701 1.677000 142 100 136
-1.051881 0.722801 3.357000 103 70 90
-1.051881 0.728677 3.357000 104 70 89
-1.022114 0.713767 3.262000 105 69 89
-1.012400 0.712639 3.231000 106 68 93
-1.003000 0.711626 3.201000 107 69 97
-1.003000 0.717229 3.201000 108 69 91
-0.993913 0.716284 3.172000 109 72 86
-0.984826 0.715237 3.143000 111 73 89
-0.984826 0.720739 3.143000 111 71 93
-0.976053 0.719771 3.115000 111 75 93
-0.967279 0.718705 3.087000 112 77 92
-0.958506 0.717541 3.059000 114 77 92
-0.941899 0.710371 3.006000 112 78 91
-0.941899 0.715633 3.006000 111 77 92
-0.925918 0.708664 2.955000 111 77 93
-0.925918 0.713836 2.955000 111 78 91
-0.918085 0.712926 2.930000 113 80 90
-0.902731 0.706047 2.881000 116 78 95
-0.888004 0.699489 2.834000 112 79 100
-0.873591 0.693016 2.788000 109 78 99
-0.866384 0.692139 2.765000 112 79 98
-0.859490 0.691434 2.743000 116 79 101
-0.852910 0.690905 2.722000 114 80 105
-0.846330 0.690303 2.701000 113 80 102
-0.846330 0.695031 2.701000 114 81 99
-0.839750 0.694319 2.680000 116 82 100
-0.833170 0.693532 2.659000 119 81 101
-0.826903 0.692936 2.639000 122 82 96
-0.820636 0.692269 2.619000 119 84 90
-0.814369 0.691532 2.599000 117 85 96
-0.808416 0.690992 2.580000 118 89 101
-0.796509 0.685265 2.542000 119 85 107
-0.790556 0.684559 2.523000 119 84 113
-0.784916 0.684061 2.505000 120 86 110
-0.784916 0.688446 2.505000 120 88 108
-0.779275 0.687852 2.487000 121 87 106
-0.773635 0.687196 2.469000 121 88 104
-0.773635 0.691518 2.469000 121 88 102
-0.767995 0.690767 2.451000 125 90 100
-0.757342 0.685415 2.417000 129 88 104
-0.741675 0.675380 2.367000 125 90 109
-0.736661 0.674930 2.351000 122 86 110
-0.731648 0.674424 2.335000 121 86 111
-0.731648 0.678511 2.335000 121 88 113
-0.726948 0.678214 2.320000 124 90 114
-0.721934 0.677570 2.304000 128 89 114
-0.717234 0.677165 2.289000 127 91 114
-0.717234 0.681172 2.289000 127 91 114
-0.712534 0.680689 2.274000 128 91 115
-0.712534 0.684670 2.274000 129 89 114
-0.703134 0.679565 2.244000 130 87 114
-0.698747 0.679229 2.230000 132 88 117
-0.694047 0.678538 2.215000 130 90 121
-0.681200 0.669783 2.174000 128 89 124
-0.681200 0.673589 2.174000 127 89 127
-0.676813 0.673032 2.160000 127 92 125
-0.672740 0.672740 2.147000 131 93 123
-0.668353 0.672087 2.133000 136 91 125
-0.664280 0.671702 2.120000 132 92 128
-0.664280 0.675413 2.120000 129 95 123
-0.660206 0.674960 2.107000 130 95 118
-0.656446 0.674783 2.095000 132 95 121
-0.656446 0.678450 2.095000 132 95 123
-0.648300 0.673652 2.069000 133 95 123
-0.640779 0.669418 2.045000 133 95 122
-0.633259 0.665099 2.021000 134 94 124
-0.629499 0.664667 2.009000 133 92 126
-0.626052 0.664525 1.998000 132 94 130
-0.622292 0.664010 1.986000 132 97 133
-0.618846 0.663790 1.975000 133 98 130
-0.618846 0.667247 1.975000 132 98 127
-0.615399 0.666969 1.964000 131 98 123
-0.611639 0.666310 1.952000 131 99 119
-0.608192 0.665953 1.941000 132 98 120
-0.605059 0.665903 1.931000 133 97 121
-0.601612 0.665470 1.920000 135 97 121
-0.598165 0.664999 1.909000 138 98 121
-0.595032 0.664840 1.899000 141 98 122
-0.588452 0.660775 1.878000 138 95 124
-0.588452 0.664063 1.878000 136 98 124
-0.582185 0.660243 1.858000 134 100 123
-0.582185 0.663496 1.858000 133 100 123
-0.575918 0.659571 1.838000 132 104 123
-0.572785 0.659182 1.828000 132 101 123
-0.569965 0.659121 1.819000 133 96 122
-0.569965 0.662305 1.819000 135 97 123
-0.566831 0.661831 1.809000 134 98 124
-0.564011 0.661689 1.800000 134 98 124
-0.564011 0.664840 1.800000 138 98 123
-0.552418 0.654260 1.763000 142 101 128
-0.549598 0.653990 1.754000 135 103 132
-0.549598 0.657061 1.754000 129 100 128
-0.546777 0.656744 1.745000 132 98 124
-0.546777 0.659799 1.745000 135 100 127
-0.543957 0.659435 1.736000 134 101 131
-0.541451 0.659420 1.728000 133 103 133
-0.541451 0.662445 1.728000 130 105 136
-0.536124 0.658923 1.711000 128 103 132
-0.528291 0.652247 1.686000 133 101 127
-0.525470 0.651701 1.677000 139 100 132
-1.056287 0.729906 3.390000 101 72 94
-1.046004 0.728677 3.357000 104 73 92
-1.026063 0.720550 3.293000 105 70 90
-1.006744 0.712639 3.231000 106 70 90
-1.006744 0.718295 3.231000 107 71 91
-0.997396 0.717229 3.201000 108 72 90
-0.988360 0.716284 3.172000 111 74 90
-0.979324 0.715237 3.143000 114 76 93
-0.979324 0.720739 3.143000 111 74 97
-0.970600 0.719771 3.115000 109 76 95
-0.961875 0.718705 3.087000 110 76 94
-0.953151 0.717541 3.059000 111 76 93
-0.936637 0.710371 3.006000 110 78 93
-0.928535 0.709443 2.980000 110 79 94
-0.920746 0.708664 2.955000 110 78 95
-0.920746 0.713836 2.955000 111 79 94
-0.912956 0.712926 2.930000 112 79 94
-0.905166 0.711928 2.905000 114 80 100
-0.890210 0.705166 2.857000 112 79 107
-0.883043 0.704450 2.834000 110 80 102
-0.868710 0.697896 2.788000 115 80 98
-0.854689 0.691434 2.743000 120 83 103
-0.848145 0.690905 2.722000 115 82 108
-0.841602 0.690303 2.701000 111 83 103
-0.835059 0.689627 2.680000 113 83 98
-0.828515 0.688878 2.659000 116 83 98
-0.828515 0.693532 2.659000 118 81 98
-0.822283 0.692936 2.639000 120 83 91
-0.816052 0.692269 2.619000 119 84 85
-0.809820 0.691532 2.599000 118 86 92
-0.803900 0.690992 2.580000 119 86 99
-0.797668 0.690117 2.560000 120 86 108
-0.792059 0.689715 2.542000 121 86 118
-0.786139 0.688976 2.523000 123 88 113
-0.780531 0.688446 2.505000 122 88 108
-0.774922 0.687852 2.487000 121 88 106
-0.769313 0.687196 2.469000 121 88 105
-0.769313 0.691518 2.469000 121 89 101
-0.763705 0.690767 2.451000 122 88 98
-0.742828 0.676057 2.384000 123 89 102
-0.737531 0.675380 2.367000 122 88 107
-0.732546 0.674930 2.351000 121 88 109
-0.727560 0.674424 2.335000 119 88 111
-0.727560 0.678511 2.335000 118 89 113
-0.722887 0.678214 2.320000 123 90 116
-0.717901 0.677570 2.304000 129 91 114
-0.713227 0.677165 2.289000 128 91 113
-0.713227 0.681172 2.289000 128 92 113
-0.708553 0.680689 2.274000 127 92 114
-0.703880 0.680153 2.259000 127 93 117
-0.699206 0.679565 2.244000 127 89 120
-0.694843 0.679229 2.230000 127 89 120
-0.690170 0.678538 2.215000 127 90 121
-0.681445 0.673789 2.187000 126 91 122
-0.677395 0.673589 2.174000 126 91 124
-0.673032 0.673032 2.160000 125 94 122
-0.664619 0.668353 2.133000 127 94 121
-0.664619 0.672087 2.133000 129 95 124
-0.660569 0.671702 2.120000 128 95 128
-0.660569 0.675413 2.120000 128 97 120
-0.656518 0.674960 2.107000 129 96 113
-0.652779 0.674783 2.095000 130 95 118
-0.652779 0.678450 2.095000 131 95 123
-0.644678 0.673652 2.069000 132 95 122
-0.637200 0.669418 2.045000 133 96 122
-0.633460 0.669048 2.033000 133 98 124
-0.629721 0.668637 2.021000 133 95 127
-0.622555 0.664525 1.998000 133 94 128
-0.618816 0.664010 1.986000 135 96 130
-0.615388 0.663790 1.975000 136 98 128
-0.615388 0.667247 1.975000 134 97 127
-0.611961 0.666969 1.964000 132 95 122
-0.608222 0.666310 1.952000 134 97 118
-0.604794 0.665953 1.941000 136 97 120
-0.601678 0.665903 1.931000 135 97 122
-0.598251 0.665470 1.920000 134 98 121
-0.594823 0.664999 1.909000 136 99 121
-0.591708 0.664840 1.899000 137 100 121
-0.588280 0.664294 1.888000 135 99 122
-0.585164 0.664063 1.878000 133 100 122
-0.582048 0.663797 1.868000 134 99 123
-0.575817 0.659925 1.848000 135 98 124
-0.572701 0.659571 1.838000 132 101 125
-0.569585 0.659182 1.828000 130 103 124
-0.566780 0.659121 1.819000 133 99 123
-0.566780 0.662305 1.819000 136 98 124
-0.566780 0.665489 1.819000 133 99 125
-0.563665 0.664998 1.809000 130 98 123
-0.560860 0.664840 1.800000 133 99 121
-0.557744 0.664280 1.790000 137 103 125
-0.546527 0.653990 1.754000 134 104 129
-0.546527 0.657061 1.754000 131 106 128
-0.543723 0.656744 1.745000 134 102 128
-0.543723 0.659799 1.745000 136 102 129
-0.540919 0.659435 1.736000 135 102 130
-0.538426 0.659420 1.728000 135 104 135
-0.538426 0.662445 1.728000 133 104 141
-0.530325 0.655457 1.702000 131 105 131
-0.525339 0.652247 1.686000 137 102 122
-0.522535 0.651701 1.677000 142 102 129
-1.164683 0.743555 3.759000 107 63 84
-1.151980 0.741953 3.718000 111 66 81
-1.139896 0.740610 3.679000 108 70 79
-1.127812 0.739131 3.640000 105 69 82
-1.116038 0.737720 3.602000 105 65 85
-1.127812 0.751875 3.640000 106 67 87
-1.116038 0.750331 3.602000 106 69 90
-1.104574 0.748864 3.565000 106 69 89
-1.071422 0.732441 3.458000 100 72 88
-1.050353 0.723972 3.390000 95 72 90
-1.050353 0.729906 3.390000 99 73 91
-1.040128 0.728677 3.357000 104 72 91
-1.020298 0.720550 3.293000 105 70 91
-1.020298 0.726314 3.293000 107 72 90
-1.001088 0.718295 3.231000 107 73 89
-0.991793 0.717229 3.201000 108 75 89
-0.982808 0.716284 3.172000 112 77 90
-0.973823 0.715237 3.143000 117 76 96
-0.973823 0.720739 3.143000 112 74 102
-0.965147 0.719771 3.115000 108 76 94
-0.956472 0.718705 3.087000 108 76 86
-0.947796 0.717541 3.059000 109 77 90
-0.931375 0.710371 3.006000 109 79 94
-0.931375 0.715633 3.006000 109 78 94
-0.915573 0.708664 2.955000 110 77 95
-0.907827 0.707797 2.930000 111 77 95
-0.907827 0.712926 2.930000 111 79 95
-0.892645 0.706047 2.881000 112 79 98
-0.892645 0.711090 2.881000 111 78 101
-0.878082 0.704450 2.834000 111 80 98
-0.856704 0.692139 2.765000 117 81 95
-0.849887 0.691434 2.743000 124 82 98
-0.843381 0.690905 2.722000 117 84 102
-0.836874 0.690303 2.701000 110 84 99
-0.836874 0.695031 2.701000 113 85 96
-0.830367 0.694319 2.680000 116 83 98
-0.823861 0.693532 2.659000 117 80 100
-0.817664 0.692936 2.639000 119 82 96
-0.811467 0.692269 2.619000 119 83 92
-0.805270 0.691532 2.599000 119 84 97
-0.799383 0.690992 2.580000 120 85 102
-0.793187 0.690117 2.560000 122 86 108
-0.787610 0.689715 2.542000 124 88 115
-0.781723 0.688976 2.523000 126 89 111
-0.776146 0.688446 2.505000 123 90 108
-0.770568 0.687852 2.487000 121 88 108
-0.764991 0.687196 2.469000 121 87 107
-0.764991 0.691518 2.469000 121 88 105
-0.759414 0.690767 2.451000 119 87 103
-0.738655 0.676057 2.384000 117 87 106
-0.733388 0.675380 2.367000 119 88 109
-0.728430 0.674930 2.351000 121 89 110
-0.723473 0.674424 2.335000 118 90 112
-0.723473 0.678511 2.335000 115 90 116
-0.718825 0.678214 2.320000 122 93 120
-0.713868 0.677570 2.304000 130 92 116
-0.709220 0.677165 2.289000 129 90 112
-0.704573 0.676708 2.274000 129 91 114
-0.704573 0.680689 2.274000 127 92 117
-0.699925 0.680153 2.259000 126 90 122
-0.695278 0.679565 2.244000 124 89 127
-0.690940 0.679229 2.230000 123 89 124
-0.686292 0.678538 2.215000 124 90 122
-0.677617 0.673789 2.187000 125 91 122
-0.673589 0.673589 2.174000 124 93 122
-0.669251 0.673032 2.160000 124 93 118
-0.665223 0.672740 2.147000 123 96 115
-0.660886 0.672087 2.133000 122 96 120
-0.656858 0.671702 2.120000 124 96 125
-0.652830 0.671271 2.107000 127 97 121
-0.652830 0.674960 2.107000 128 99 118
-0.649112 0.674783 2.095000 129 97 121
-0.645084 0.674240 2.082000 130 96 124
-0.637338 0.669745 2.057000 132 95 124
-0.633620 0.669418 2.045000 132 96 125
-0.629902 0.669048 2.033000 133 98 126
-0.626184 0.668637 2.021000 134 98 127
-0.619057 0.664525 1.998000 135 95 127
-0.615339 0.664010 1.986000 137 98 128
-0.611931 0.663790 1.975000 140 98 129
-0.611931 0.667247 1.975000 137 97 131
-0.608523 0.666969 1.964000 134 97 126
-0.604805 0.666310 1.952000 137 98 121
-0.601397 0.665953 1.941000 141 97 122
-0.598298 0.665903 1.931000 137 96 123
-0.594890 0.665470 1.920000 134 99 124
-0.591482 0.664999 1.909000 134 100 124
-0.584975 0.660989 1.888000 134 100 122
-0.581877 0.660775 1.878000 132 101 120
-0.581877 0.664063 1.878000 130 100 123
-0.575680 0.660243 1.858000 133 99 125
-0.572582 0.659925 1.848000 137 99 128
-0.569483 0.659571 1.838000 132 102 131
-0.566385 0.659182 1.828000 128 102 125
-0.566385 0.662382 1.828000 133 101 119
-0.563596 0.662305 1.819000 138 101 121
-0.563596 0.665489 1.819000 132 103 124
-0.560498 0.664998 1.809000 126 102 123
-0.557709 0.664840 1.800000 129 100 123
-0.554611 0.664280 1.790000 133 103 126
-0.549034 0.660702 1.772000 133 106 129
-0.543457 0.657061 1.754000 134 105 129
-0.540668 0.656744 1.745000 136 105 130
-0.537880 0.656396 1.736000 138 103 130
-0.537880 0.659435 1.736000 137 103 130
-0.535401 0.659420 1.728000 137 103 134
-0.532612 0.658995 1.719000 136 103 137
-0.527345 0.655457 1.702000 135 103 131
-0.522388 0.652247 1.686000 140 103 126
-0.519599 0.651701 1.677000 146 104 130
-1.210786 0.756741 3.930000 102 74 81
-1.170735 0.745013 3.800000 101 74 82
-1.145471 0.735445 3.718000 104 68 83
-1.145471 0.741953 3.718000 106 65 80
-1.133456 0.740610 3.679000 104 70 78
-1.121441 0.739131 3.640000 103 73 82
-1.109733 0.737720 3.602000 105 69 86
-1.109733 0.744026 3.602000 107 69 88
-1.109733 0.750331 3.602000 108 70 90
-1.098334 0.748864 3.565000 110 69 88
-1.076152 0.739854 3.493000 105 69 87
-1.054585 0.731019 3.423000 100 69 88
-1.044419 0.729906 3.390000 102 71 89
-1.034252 0.728677 3.357000 104 72 91
-1.024085 0.727333 3.324000 105 72 93
-1.014534 0.726314 3.293000 106 75 90
-1.004983 0.725187 3.262000 106 76 87
-0.986190 0.717229 3.201000 106 78 88
-0.977255 0.716284 3.172000 109 77 90
-0.968321 0.715237 3.143000 112 77 98
-0.968321 0.720739 3.143000 108 76 107
-0.959694 0.719771 3.115000 104 78 92
-0.951068 0.718705 3.087000 105 77 78
-0.942441 0.717541 3.059000 107 78 86
-0.934431 0.716751 3.033000 108 77 95
-0.926113 0.715633 3.006000 110 77 95
-0.910400 0.708664 2.955000 110 76 95
-0.902698 0.707797 2.930000 111 76 96
-0.902698 0.712926 2.930000 110 78 97
-0.894996 0.711928 2.905000 110 80 96
-0.887602 0.711090 2.881000 111 81 96
-0.880208 0.710167 2.857000 112 83 94
-0.858949 0.697896 2.788000 116 81 92
-0.845086 0.691434 2.743000 120 80 94
-0.838616 0.690905 2.722000 116 82 97
-0.832146 0.690303 2.701000 113 84 95
-0.832146 0.695031 2.701000 115 83 94
-0.825676 0.694319 2.680000 117 84 98
-0.819206 0.693532 2.659000 118 82 102
-0.813044 0.692936 2.639000 119 83 101
-0.806883 0.692269 2.619000 120 82 100
-0.800721 0.691532 2.599000 120 82 103
-0.794867 0.690992 2.580000 121 84 106
-0.783160 0.685265 2.542000 121 86 109
-0.783160 0.689715 2.542000 120 87 112
-0.777306 0.688976 2.523000 119 90 110
-0.771761 0.688446 2.505000 120 89 109
-0.766215 0.687852 2.487000 120 88 109
