ply
format ascii 1.0
element vertex 1292
property float x
property float y
property float z
property uchar red
property uchar green
property uchar blue
end_header
0.005217 0.745958 2.980000 77 56 67
0.005217 0.751175 2.980000 78 57 55
0.005173 0.750046 2.955000 77 62 43
0.005129 0.748829 2.930000 76 60 54
0.004880 0.732059 2.788000 81 55 73
0.004802 0.725045 2.743000 80 56 77
0.004802 0.729847 2.743000 79 57 73
0.004765 0.729024 2.722000 79 58 69
0.004691 0.722467 2.680000 80 57 68
0.004691 0.727158 2.680000 80 53 67
0.004620 0.720653 2.639000 80 55 63
0.004620 0.725272 2.639000 80 57 60
0.004585 0.724361 2.619000 81 57 69
0.004550 0.723379 2.599000 81 55 79
0.004516 0.722607 2.580000 81 57 82
0.004481 0.721486 2.560000 80 56 85
0.004450 0.720863 2.542000 79 61 73
0.004385 0.714756 2.505000 77 65 62
0.004385 0.719141 2.505000 75 65 68
0.004354 0.718327 2.487000 77 63 74
0.004354 0.722680 2.487000 80 65 72
0.004322 0.721772 2.469000 77 67 70
0.004290 0.720800 2.451000 75 65 75
0.004261 0.720061 2.434000 68 61 80
0.004231 0.719263 2.417000 62 63 79
0.004201 0.718405 2.400000 71 62 79
0.004173 0.717789 2.384000 80 64 82
0.004143 0.716814 2.367000 79 65 84
0.004115 0.716084 2.351000 79 64 80
0.004087 0.715298 2.335000 79 65 76
0.004033 0.709835 2.304000 80 63 75
0.004007 0.709220 2.289000 80 59 74
0.003981 0.708554 2.274000 81 59 84
0.003928 0.703134 2.244000 80 60 94
0.003877 0.697925 2.215000 79 63 92
0.003853 0.697366 2.201000 79 64 90
0.003853 0.701219 2.201000 79 63 90
0.003828 0.700587 2.187000 80 63 90
0.003806 0.700228 2.174000 82 65 85
0.003781 0.699500 2.160000 82 67 79
0.003758 0.699048 2.147000 82 68 74
0.003734 0.698224 2.133000 82 65 69
0.003711 0.697679 2.120000 82 66 76
0.003688 0.697090 2.107000 82 67 84
0.003688 0.700778 2.107000 83 69 85
0.003667 0.700454 2.095000 83 70 86
0.003645 0.699752 2.082000 83 68 83
0.003622 0.699005 2.069000 83 67 81
0.003580 0.694476 2.045000 83 66 84
0.003538 0.689863 2.021000 82 60 87
0.003517 0.689284 2.009000 82 65 87
0.003498 0.689007 1.998000 82 70 87
0.003477 0.688346 1.986000 82 67 90
0.003457 0.687990 1.975000 82 68 93
0.003457 0.691448 1.975000 83 66 88
0.003438 0.691035 1.964000 83 67 82
0.003417 0.690229 1.952000 84 67 85
0.003380 0.686184 1.931000 84 69 89
0.003361 0.685636 1.920000 84 64 88
0.003324 0.681461 1.899000 90 62 87
0.003305 0.680819 1.888000 96 61 87
0.003287 0.680500 1.878000 87 61 87
0.003252 0.676505 1.858000 78 63 88
0.003252 0.679758 1.858000 80 64 90
0.003252 0.683010 1.858000 83 66 90
0.003235 0.682569 1.848000 82 68 90
0.003217 0.682093 1.838000 82 65 93
0.003200 0.681582 1.828000 82 64 96
0.003184 0.681410 1.819000 82 64 88
0.003167 0.680831 1.809000 81 59 81
0.003133 0.676813 1.790000 80 63 81
0.003102 0.673109 1.772000 81 66 82
0.003086 0.672777 1.763000 82 65 83
0.003070 0.672413 1.754000 79 65 85
0.003070 0.675483 1.754000 77 65 89
0.003055 0.675072 1.745000 65 65 93
0.010524 0.747204 3.006000 78 63 76
0.010524 0.752467 3.006000 78 59 82
0.010433 0.751175 2.980000 78 59 73
0.010433 0.756391 2.980000 77 59 65
0.010258 0.748829 2.930000 76 59 68
0.010170 0.747525 2.905000 79 61 72
0.009761 0.732059 2.788000 80 58 69
0.009603 0.725045 2.743000 79 57 68
0.009603 0.729847 2.743000 79 59 65
0.009456 0.723400 2.701000 79 59 62
0.009383 0.722467 2.680000 80 59 65
0.009383 0.727158 2.680000 80 56 68
0.009309 0.726115 2.659000 80 58 73
0.009239 0.725272 2.639000 80 59 79
0.009169 0.724361 2.619000 80 59 79
0.009099 0.723379 2.599000 80 60 80
0.009033 0.722607 2.580000 81 63 85
0.008963 0.721486 2.560000 80 60 91
0.008899 0.720863 2.542000 79 62 82
0.008770 0.714756 2.505000 78 65 73
0.008770 0.719141 2.505000 77 66 75
0.008707 0.718327 2.487000 78 65 78
0.008707 0.722680 2.487000 80 65 79
0.008644 0.721772 2.469000 79 64 81
0.008521 0.715801 2.434000 79 64 78
0.008521 0.720061 2.434000 77 65 76
0.008462 0.719263 2.417000 76 68 77
0.008402 0.718405 2.400000 78 66 79
0.008346 0.717789 2.384000 80 67 85
0.008287 0.716814 2.367000 79 64 91
0.008231 0.716084 2.351000 78 65 84
0.008175 0.715298 2.335000 78 66 77
0.008014 0.705214 2.289000 78 67 71
0.008014 0.709220 2.289000 79 64 65
0.007961 0.708554 2.274000 81 61 75
0.007856 0.703134 2.244000 79 62 86
0.007807 0.702651 2.230000 78 64 87
0.007755 0.701802 2.215000 78 63 89
0.007706 0.701219 2.201000 79 63 87
0.007657 0.700587 2.187000 81 66 85
0.007611 0.700228 2.174000 82 68 83
0.007517 0.695290 2.147000 79 69 82
0.007468 0.694490 2.133000 77 74 82
0.007468 0.698224 2.133000 82 70 83
0.007422 0.697679 2.120000 87 68 85
0.007377 0.697090 2.107000 84 66 87
0.007335 0.696787 2.095000 81 68 88
0.007289 0.696108 2.082000 78 69 90
0.007289 0.699752 2.082000 76 69 83
0.007244 0.699005 2.069000 78 68 77
0.007160 0.694476 2.045000 81 69 82
0.007075 0.689863 2.021000 82 64 88
0.007033 0.689284 2.009000 84 66 87
0.006995 0.689007 1.998000 83 67 87
0.006953 0.688346 1.986000 82 65 87
0.006953 0.691822 1.986000 82 65 87
0.006914 0.691448 1.975000 83 63 83
0.006876 0.691035 1.964000 84 65 79
0.006834 0.690229 1.952000 85 68 83
0.006760 0.686184 1.931000 84 66 87
0.006722 0.685636 1.920000 83 62 88
0.006683 0.685049 1.909000 86 64 90
0.006610 0.680819 1.888000 89 64 90
0.006575 0.680500 1.878000 85 64 90
0.006540 0.680146 1.868000 81 67 90
0.006505 0.679758 1.858000 82 66 90
0.006505 0.683010 1.858000 83 65 91
0.006470 0.682569 1.848000 84 64 92
0.006435 0.682093 1.838000 86 63 91
0.006435 0.685310 1.838000 84 66 90
0.006400 0.684782 1.828000 82 70 83
0.006333 0.680831 1.809000 80 64 76
0.006267 0.676813 1.790000 78 65 80
0.006204 0.673109 1.772000 79 64 84
0.006172 0.672777 1.763000 81 63 85
0.006141 0.672413 1.754000 80 64 86
0.006141 0.675483 1.754000 80 66 92
0.006109 0.675072 1.745000 77 65 98
0.015786 0.747204 3.006000 79 59 64
0.015786 0.752467 3.006000 79 58 62
0.015649 0.751175 2.980000 79 59 62
0.015518 0.750046 2.955000 77 56 63
0.015387 0.748829 2.930000 76 57 67
0.015256 0.747525 2.905000 77 60 71
0.014641 0.722299 2.788000 79 62 71
0.014520 0.726020 2.765000 79 60 70
0.014405 0.725045 2.743000 79 58 69
0.014405 0.729847 2.743000 79 58 68
0.014295 0.729024 2.722000 80 62 68
0.014184 0.728128 2.701000 81 60 68
0.014074 0.727158 2.680000 80 56 68
0.013964 0.726115 2.659000 80 59 72
0.013859 0.725272 2.639000 80 64 76
0.013754 0.724361 2.619000 80 62 75
0.013549 0.718090 2.580000 80 64 73
0.013444 0.717005 2.560000 81 62 79
0.013444 0.721486 2.560000 80 61 85
0.013250 0.715475 2.523000 79 62 80
0.013155 0.714756 2.505000 79 67 75
0.013155 0.719141 2.505000 80 66 77
0.013060 0.718327 2.487000 80 68 79
0.013060 0.722680 2.487000 80 65 84
0.012871 0.716510 2.451000 81 61 90
0.012782 0.715801 2.434000 83 62 77
0.012782 0.720061 2.434000 86 67 65
0.012693 0.719263 2.417000 90 68 71
0.012604 0.718405 2.400000 85 69 77
0.012430 0.712671 2.367000 80 65 82
0.012346 0.711969 2.351000 79 62 87
0.012262 0.711211 2.335000 78 64 85
0.012183 0.710703 2.320000 77 68 83
0.012021 0.705214 2.289000 77 68 78
0.011942 0.704573 2.274000 79 69 73
0.011863 0.703880 2.259000 81 65 78
0.011784 0.703134 2.244000 79 63 83
0.011711 0.702651 2.230000 77 63 86
0.011632 0.701802 2.215000 78 63 88
0.011559 0.701219 2.201000 80 65 86
0.011485 0.700587 2.187000 81 70 84
0.011343 0.695719 2.160000 83 68 82
0.011275 0.695290 2.147000 77 69 81
0.011201 0.694490 2.133000 72 73 84
0.011201 0.698224 2.133000 82 76 87
0.011133 0.697679 2.120000 92 69 87
0.011065 0.697090 2.107000 86 63 87
0.011002 0.696787 2.095000 80 66 91
0.010934 0.696108 2.082000 74 71 96
0.010865 0.695383 2.069000 69 71 80
0.010865 0.699005 2.069000 74 69 65
0.010739 0.694476 2.045000 80 68 77
0.010613 0.689863 2.021000 83 64 89
0.010550 0.689284 2.009000 86 65 88
0.010492 0.689007 1.998000 84 68 87
0.010429 0.688346 1.986000 82 65 86
0.010429 0.691822 1.986000 82 65 86
0.010372 0.691448 1.975000 83 65 83
0.010372 0.694905 1.975000 85 65 81
0.010314 0.694473 1.964000 87 68 85
0.010141 0.686184 1.931000 84 65 90
0.010141 0.689564 1.931000 82 66 93
0.010025 0.685049 1.909000 82 68 97
0.009915 0.680819 1.888000 83 66 95
0.009810 0.676876 1.868000 83 64 93
0.009757 0.676505 1.858000 84 66 93
0.009757 0.679758 1.858000 84 69 94
0.009705 0.679334 1.848000 84 67 92
0.009705 0.682569 1.848000 87 63 90
0.009652 0.682093 1.838000 90 66 89
0.009652 0.685310 1.838000 86 68 88
0.009600 0.684782 1.828000 83 66 78
0.009500 0.680831 1.809000 79 64 69
0.009400 0.676813 1.790000 76 63 77
0.009306 0.673109 1.772000 78 62 85
0.009258 0.672777 1.763000 80 63 86
0.009211 0.672413 1.754000 81 64 87
0.009211 0.675483 1.754000 83 65 91
0.009164 0.675072 1.745000 88 64 95
0.020866 0.740742 2.980000 83 58 53
0.021048 0.752467 3.006000 81 60 42
0.020866 0.751175 2.980000 80 65 52
0.020691 0.750046 2.955000 78 60 62
0.020516 0.748829 2.930000 77 55 66
0.020341 0.747525 2.905000 77 58 71
0.019844 0.734216 2.834000 78 63 72
0.019361 0.726020 2.765000 79 63 72
0.019206 0.725045 2.743000 76 58 70
0.019206 0.729847 2.743000 74 54 72
0.019059 0.729024 2.722000 78 60 74
0.018912 0.728128 2.701000 82 63 71
0.018765 0.727158 2.680000 81 61 68
0.018618 0.726115 2.659000 79 61 71
0.018618 0.730769 2.659000 80 63 74
0.018338 0.724361 2.619000 81 63 70
0.018198 0.723379 2.599000 81 62 67
0.018065 0.722607 2.580000 81 62 73
0.017925 0.721486 2.560000 80 61 80
0.017799 0.720863 2.542000 80 61 78
0.017540 0.714756 2.505000 81 62 77
0.017540 0.719141 2.505000 81 64 79
0.017414 0.718327 2.487000 81 65 81
0.017288 0.717450 2.469000 81 69 90
0.017162 0.716510 2.451000 81 60 99
0.017043 0.715801 2.434000 81 57 77
0.017043 0.720061 2.434000 80 63 55
0.016924 0.719263 2.417000 80 69 65
0.016805 0.718405 2.400000 79 70 76
0.016693 0.717789 2.384000 79 63 80
0.016462 0.711969 2.351000 79 62 84
0.016350 0.711211 2.335000 79 64 86
0.016245 0.710703 2.320000 79 65 89
0.016028 0.705214 2.289000 78 68 85
0.015923 0.704573 2.274000 80 68 81
0.015818 0.703880 2.259000 82 70 81
0.015712 0.703134 2.244000 81 66 81
0.015614 0.702651 2.230000 79 64 84
0.015509 0.701802 2.215000 80 64 88
0.015411 0.701219 2.201000 82 66 85
0.015313 0.700587 2.187000 82 67 83
0.015124 0.695719 2.160000 83 67 82
0.015033 0.695290 2.147000 80 71 81
0.014935 0.694490 2.133000 77 76 86
0.014935 0.698224 2.133000 83 73 92
0.014844 0.697679 2.120000 89 69 90
0.014753 0.697090 2.107000 86 66 88
0.014669 0.696787 2.095000 83 65 95
0.014578 0.696108 2.082000 78 70 102
0.014487 0.695383 2.069000 74 76 77
0.014487 0.699005 2.069000 77 72 53
0.014319 0.694476 2.045000 80 71 72
0.014151 0.689863 2.021000 82 65 91
0.014067 0.689284 2.009000 84 64 89
0.013990 0.689007 1.998000 83 65 87
0.013990 0.692505 1.998000 82 65 86
0.013906 0.691822 1.986000 82 65 85
0.013829 0.691448 1.975000 83 67 84
0.013752 0.691035 1.964000 84 70 84
0.013668 0.690229 1.952000 85 74 88
0.013521 0.686184 1.931000 83 69 93
0.013521 0.689564 1.931000 81 69 98
0.013367 0.685049 1.909000 80 70 104
0.013297 0.684785 1.899000 79 70 100
0.013150 0.680500 1.878000 81 66 96
0.013080 0.680146 1.868000 83 67 97
0.013010 0.679758 1.858000 83 69 99
0.012940 0.679334 1.848000 82 71 94
0.012940 0.682569 1.848000 82 68 89
0.012870 0.682093 1.838000 82 70 87
0.012870 0.685310 1.838000 82 66 86
0.012800 0.684782 1.828000 82 63 74
0.012667 0.680831 1.809000 80 64 62
0.012534 0.676813 1.790000 78 64 74
0.012408 0.673109 1.772000 80 63 87
0.012345 0.672777 1.763000 82 64 88
0.012281 0.672413 1.754000 82 65 89
0.012218 0.672017 1.745000 83 66 90
0.012155 0.671590 1.736000 85 65 92
0.026082 0.740742 2.980000 87 60 55
0.026082 0.745958 2.980000 84 59 50
0.025864 0.744873 2.955000 81 62 55
0.025645 0.743700 2.930000 79 64 61
0.025426 0.742440 2.905000 78 60 64
0.025216 0.741349 2.881000 77 57 68
0.024805 0.734216 2.834000 77 58 70
0.024402 0.727179 2.788000 78 61 73
0.024201 0.726020 2.765000 79 62 69
0.024201 0.730860 2.765000 74 60 66
0.024008 0.729847 2.743000 69 58 67
0.024008 0.734648 2.743000 76 61 69
0.023824 0.733789 2.722000 84 63 67
0.023641 0.732856 2.701000 81 64 65
0.023457 0.731849 2.680000 79 64 67
0.023273 0.730769 2.659000 80 64 69
0.022748 0.718829 2.599000 82 64 71
0.022748 0.723379 2.599000 81 61 72
0.022581 0.722607 2.580000 81 61 77
0.022406 0.721486 2.560000 81 62 83
0.022249 0.720863 2.542000 82 60 85
0.021925 0.714756 2.505000 82 59 87
0.021925 0.719141 2.505000 83 59 80
0.021767 0.718327 2.487000 82 59 73
0.021610 0.717450 2.469000 82 61 82
0.021452 0.716510 2.451000 80 56 92
0.021304 0.715801 2.434000 79 57 80
0.021155 0.715032 2.417000 75 60 68
0.021006 0.714204 2.400000 71 69 72
0.021006 0.718405 2.400000 74 80 76
0.020717 0.712671 2.367000 78 66 81
0.020577 0.711969 2.351000 79 60 85
0.020437 0.711211 2.335000 81 61 92
0.020306 0.710703 2.320000 80 62 99
0.020034 0.705214 2.289000 80 65 91
0.019903 0.704573 2.274000 82 68 83
0.019772 0.703880 2.259000 84 68 82
0.019641 0.703134 2.244000 83 68 81
0.019518 0.702651 2.230000 82 65 83
0.019387 0.701802 2.215000 83 65 85
0.019264 0.701219 2.201000 84 65 82
0.019142 0.700587 2.187000 83 68 80
0.019028 0.700228 2.174000 83 70 80
0.018792 0.695290 2.147000 82 73 80
0.018792 0.699048 2.147000 82 72 82
0.018669 0.698224 2.133000 84 72 84
0.018555 0.697679 2.120000 86 68 83
0.018336 0.693119 2.095000 86 67 83
0.018336 0.696787 2.095000 86 67 87
0.018223 0.696108 2.082000 82 69 92
0.018109 0.695383 2.069000 79 72 79
0.018004 0.694950 2.057000 80 73 66
0.017899 0.694476 2.045000 81 68 84
0.017794 0.693960 2.033000 81 62 102
0.017689 0.693401 2.021000 82 63 95
0.017487 0.689007 1.998000 82 65 88
0.017382 0.688346 1.986000 82 64 87
0.017286 0.687990 1.975000 82 63 86
0.017190 0.687596 1.964000 83 68 85
0.017085 0.686812 1.952000 83 74 85
0.017085 0.690229 1.952000 83 72 88
0.016901 0.686184 1.931000 81 68 91
0.016901 0.689564 1.931000 80 71 94
0.016709 0.685049 1.909000 78 75 97
0.016621 0.684785 1.899000 76 70 94
0.016437 0.680500 1.878000 79 66 91
0.016350 0.680146 1.868000 83 66 89
0.016262 0.679758 1.858000 82 69 87
0.016262 0.683010 1.858000 81 69 87
0.016175 0.682569 1.848000 77 68 86
0.016175 0.685804 1.848000 74 67 87
0.016087 0.685310 1.838000 78 64 88
0.016000 0.684782 1.828000 82 65 82
0.015755 0.677444 1.800000 81 67 76
0.015588 0.673410 1.781000 81 65 84
0.015509 0.673109 1.772000 82 63 93
0.015431 0.672777 1.763000 84 64 90
0.015352 0.672413 1.754000 83 69 87
0.015273 0.672017 1.745000 83 67 88
0.015194 0.671590 1.736000 82 64 89
0.031036 0.744873 2.955000 81 61 59
0.030774 0.743700 2.930000 80 63 61
0.030511 0.742440 2.905000 78 67 63
0.030259 0.741349 2.881000 79 58 65
0.029766 0.734216 2.834000 79 54 68
0.029282 0.727179 2.788000 82 59 72
0.029156 0.728908 2.776000 85 66 67
0.029041 0.730860 2.765000 80 61 62
0.028810 0.729847 2.743000 74 58 63
0.028810 0.734648 2.743000 82 63 64
0.028589 0.733789 2.722000 90 67 63
0.028369 0.732856 2.701000 85 66 63
0.028148 0.731849 2.680000 81 69 64
0.027927 0.730769 2.659000 82 69 65
0.027507 0.724361 2.619000 83 71 71
0.027297 0.723379 2.599000 83 63 78
0.027098 0.722607 2.580000 83 59 82
0.026888 0.721486 2.560000 85 61 86
0.026699 0.720863 2.542000 88 60 91
0.026310 0.714756 2.505000 85 58 97
0.026310 0.719141 2.505000 83 57 81
0.026121 0.718327 2.487000 83 60 65
0.025932 0.717450 2.469000 82 62 75
0.025743 0.716510 2.451000 82 59 85
0.025564 0.715801 2.434000 81 58 83
0.025386 0.715032 2.417000 80 61 82
0.025207 0.714204 2.400000 80 67 79
0.025039 0.713616 2.384000 80 67 77
0.024861 0.712671 2.367000 81 63 82
0.024693 0.711969 2.351000 84 60 87
0.024525 0.711211 2.335000 87 60 98
0.024367 0.710703 2.320000 84 63 109
0.024041 0.705214 2.289000 82 65 97
0.023884 0.704573 2.274000 86 67 85
0.023726 0.703880 2.259000 90 68 83
0.023569 0.703134 2.244000 86 65 82
0.023422 0.702651 2.230000 82 63 82
0.023264 0.701802 2.215000 83 63 82
0.022970 0.696759 2.187000 84 63 80
0.022970 0.700587 2.187000 83 67 78
0.022834 0.700228 2.174000 83 72 78
0.022550 0.695290 2.147000 85 70 79
0.022403 0.694490 2.133000 88 67 77
0.022403 0.698224 2.133000 87 66 76
0.022266 0.697679 2.120000 87 67 77
0.022130 0.697090 2.107000 86 67 79
0.022004 0.696787 2.095000 85 69 80
0.021867 0.696108 2.082000 81 71 82
0.021731 0.695383 2.069000 78 73 80
0.021605 0.694950 2.057000 79 71 79
0.021479 0.694476 2.045000 81 67 96
0.021353 0.693960 2.033000 81 64 114
0.021101 0.689284 2.009000 82 64 101
0.021038 0.690732 2.003000 81 64 89
0.020859 0.688346 1.986000 80 66 88
0.020859 0.691822 1.986000 81 66 87
0.020628 0.687596 1.964000 83 68 87
0.020502 0.686812 1.952000 83 71 87
0.020502 0.690229 1.952000 83 72 88
0.020281 0.686184 1.931000 82 71 90
0.020166 0.685636 1.920000 81 73 90
0.020050 0.685049 1.909000 81 72 90
0.019945 0.684785 1.899000 80 69 88
0.019830 0.684124 1.888000 81 66 87
0.019725 0.683788 1.878000 83 65 81
0.019515 0.679758 1.858000 83 67 76
0.019515 0.683010 1.858000 84 70 80
0.019410 0.682569 1.848000 81 68 84
0.019410 0.685804 1.848000 78 69 87
0.019305 0.685310 1.838000 80 67 90
0.019199 0.684782 1.828000 82 67 90
0.019000 0.680831 1.809000 81 68 90
0.018800 0.676813 1.790000 81 69 95
0.018611 0.673109 1.772000 82 64 100
0.018517 0.672777 1.763000 84 62 93
0.018422 0.672413 1.754000 86 67 86
0.018328 0.672017 1.745000 88 69 86
0.018233 0.671590 1.736000 81 66 87
0.036209 0.744873 2.955000 82 60 63
0.035903 0.743700 2.930000 80 62 63
0.035903 0.748829 2.930000 79 60 53
0.035302 0.741349 2.881000 80 56 44
0.034726 0.734216 2.834000 82 55 53
0.034163 0.727179 2.788000 87 56 62
0.034163 0.732059 2.788000 92 61 52
0.033881 0.730860 2.765000 86 63 42
0.033611 0.729847 2.743000 80 62 53
0.033611 0.734648 2.743000 88 67 63
0.033097 0.728128 2.701000 96 66 67
0.032839 0.727158 2.680000 89 64 71
0.032582 0.726115 2.659000 83 68 66
0.032582 0.730769 2.659000 84 74 61
0.032337 0.729892 2.639000 85 69 68
0.032092 0.728945 2.619000 85 64 76
0.031847 0.727928 2.599000 85 62 79
0.031369 0.721486 2.560000 89 63 82
0.031369 0.725968 2.560000 94 61 85
0.030695 0.714756 2.505000 89 56 88
0.030695 0.719141 2.505000 84 59 80
0.030474 0.718327 2.487000 83 62 71
0.030474 0.722680 2.487000 83 62 76
0.030254 0.721772 2.469000 83 61 80
0.029617 0.710801 2.417000 84 60 80
0.029617 0.715032 2.417000 86 62 80
0.029408 0.714204 2.400000 89 63 70
0.029212 0.713616 2.384000 86 59 59
0.028808 0.707853 2.351000 84 61 71
0.028808 0.711969 2.351000 88 60 83
0.028428 0.706642 2.320000 93 63 89
0.028428 0.710703 2.320000 89 68 95
0.028232 0.709835 2.304000 85 67 86
0.028048 0.709220 2.289000 91 68 78
0.027864 0.708554 2.274000 97 65 73
0.027497 0.703134 2.244000 89 63 68
0.027325 0.702651 2.230000 82 62 74
0.026970 0.697366 2.201000 83 62 81
0.026970 0.701219 2.201000 84 64 78
0.026798 0.700587 2.187000 83 67 75
0.026639 0.700228 2.174000 83 70 78
0.026468 0.699500 2.160000 89 68 82
0.026308 0.699048 2.147000 95 64 78
0.026137 0.698224 2.133000 91 59 74
0.025977 0.697679 2.120000 88 64 74
0.025818 0.697090 2.107000 86 68 74
0.025671 0.696787 2.095000 85 70 70
0.025512 0.696108 2.082000 81 74 66
0.025352 0.695383 2.069000 77 74 71
0.025205 0.694950 2.057000 79 74 76
0.025058 0.694476 2.045000 82 68 87
0.024764 0.689863 2.021000 82 66 98
0.024617 0.689284 2.009000 82 64 85
0.024617 0.692801 2.009000 80 62 72
0.024482 0.692505 1.998000 79 66 78
0.024335 0.691822 1.986000 81 68 85
0.024201 0.691448 1.975000 83 69 86
0.024066 0.691035 1.964000 83 71 88
0.023919 0.690229 1.952000 83 70 89
0.023661 0.686184 1.931000 83 71 90
0.023527 0.685636 1.920000 83 71 87
0.023392 0.685049 1.909000 84 73 84
0.023269 0.684785 1.899000 85 69 84
0.023135 0.684124 1.888000 84 67 85
0.023012 0.683788 1.878000 83 65 82
0.022890 0.683416 1.868000 85 67 80
0.022767 0.683010 1.858000 88 70 84
0.022767 0.686263 1.858000 85 68 88
0.022644 0.685804 1.848000 83 69 92
0.022522 0.685310 1.838000 82 68 96
0.022289 0.681410 1.819000 82 69 95
0.022167 0.680831 1.809000 81 72 93
0.021934 0.676813 1.790000 81 69 99
0.021713 0.673109 1.772000 82 62 104
0.021713 0.676211 1.772000 84 65 89
0.021603 0.675863 1.763000 88 69 74
0.021382 0.672017 1.745000 93 67 79
0.021272 0.671590 1.736000 79 64 84
0.041382 0.744873 2.955000 81 57 66
0.041032 0.743700 2.930000 78 58 65
0.041032 0.748829 2.930000 76 58 44
0.040682 0.747525 2.905000 79 55 24
0.039687 0.734216 2.834000 82 54 38
0.039141 0.729005 2.795000 84 55 53
0.039043 0.732059 2.788000 85 59 38
0.038721 0.730860 2.765000 81 60 23
0.038413 0.729847 2.743000 78 61 43
0.038413 0.734648 2.743000 84 66 63
0.037825 0.728128 2.701000 91 69 71
0.037531 0.727158 2.680000 87 64 79
0.037531 0.731849 2.680000 83 66 68
0.037237 0.730769 2.659000 83 68 58
0.036957 0.729892 2.639000 84 68 66
0.036676 0.728945 2.619000 84 65 74
0.036130 0.722607 2.580000 84 63 76
0.035850 0.721486 2.560000 87 62 78
0.035598 0.720863 2.542000 89 65 79
0.035332 0.719892 2.523000 83 60 80
0.035080 0.719141 2.505000 76 61 79
0.034828 0.718327 2.487000 82 62 78
0.034828 0.722680 2.487000 87 64 77
0.034576 0.721772 2.469000 86 61 76
0.033848 0.710801 2.417000 85 59 77
0.033848 0.715032 2.417000 86 61 79
0.033610 0.714204 2.400000 87 64 60
0.033147 0.708527 2.367000 85 62 42
0.032923 0.707853 2.351000 83 63 60
0.032699 0.707123 2.335000 86 63 79
0.032489 0.706642 2.320000 89 67 80
0.032489 0.710703 2.320000 86 67 82
0.032265 0.709835 2.304000 84 67 76
0.032055 0.709220 2.289000 86 66 71
0.031635 0.703880 2.259000 89 64 62
0.031425 0.703134 2.244000 83 63 54
0.031229 0.702651 2.230000 76 62 67
0.030823 0.697366 2.201000 79 62 80
0.030627 0.696759 2.187000 81 64 76
0.030627 0.700587 2.187000 79 68 72
0.030445 0.700228 2.174000 77 74 78
0.030249 0.699500 2.160000 83 70 85
0.030067 0.699048 2.147000 89 65 79
0.029871 0.698224 2.133000 88 62 73
0.029871 0.701958 2.133000 87 63 71
0.029506 0.697090 2.107000 86 67 70
0.029338 0.696787 2.095000 86 71 60
0.029156 0.696108 2.082000 83 73 50
0.028974 0.695383 2.069000 80 76 62
0.028806 0.694950 2.057000 81 71 74
0.028470 0.690401 2.033000 83 68 78
0.028302 0.689863 2.021000 83 67 82
0.028134 0.689284 2.009000 84 67 69
0.028134 0.692801 2.009000 82 66 56
0.027980 0.692505 1.998000 81 70 69
0.027812 0.691822 1.986000 82 69 83
0.027658 0.691448 1.975000 84 69 86
0.027504 0.691035 1.964000 84 69 90
0.027336 0.690229 1.952000 85 68 90
0.026888 0.682275 1.920000 84 68 91
0.026888 0.685636 1.920000 84 68 84
0.026594 0.681461 1.899000 85 69 78
0.026594 0.684785 1.899000 87 68 81
0.026440 0.684124 1.888000 85 66 84
0.026299 0.683788 1.878000 83 64 84
0.026159 0.683416 1.868000 84 68 84
0.026019 0.683010 1.858000 85 76 88
0.026019 0.686263 1.858000 82 71 92
0.025879 0.685804 1.848000 79 73 97
0.025739 0.685310 1.838000 80 71 103
0.025599 0.684782 1.828000 81 71 100
0.025333 0.680831 1.809000 83 72 97
0.025067 0.676813 1.790000 86 74 103
0.024941 0.676528 1.781000 83 67 109
0.024815 0.676211 1.772000 80 68 85
0.024689 0.675863 1.763000 83 69 62
0.024437 0.672017 1.745000 87 69 72
0.024311 0.671590 1.736000 79 66 82
0.046555 0.744873 2.955000 80 55 72
0.046161 0.743700 2.930000 77 56 72
0.046161 0.748829 2.930000 74 57 58
0.045767 0.747525 2.905000 78 55 44
0.044270 0.727998 2.810000 83 55 52
0.044144 0.730830 2.802000 81 54 60
0.043924 0.732059 2.788000 79 58 56
0.043561 0.730860 2.765000 77 58 53
0.043215 0.729847 2.743000 76 62 60
0.043215 0.734648 2.743000 81 69 67
0.042884 0.733789 2.722000 86 65 70
0.042553 0.732856 2.701000 84 57 73
0.042222 0.731849 2.680000 83 62 67
0.041891 0.730769 2.659000 83 65 60
0.041261 0.724361 2.619000 84 65 71
0.041261 0.728945 2.619000 84 66 82
0.040647 0.722607 2.580000 84 63 79
0.040332 0.721486 2.560000 84 60 77
0.040048 0.720863 2.542000 85 60 76
0.039465 0.714756 2.505000 77 59 76
0.039465 0.719141 2.505000 69 62 74
0.039181 0.718327 2.487000 80 64 72
0.038898 0.717450 2.469000 92 65 67
0.038614 0.716510 2.451000 89 62 63
0.038079 0.710801 2.417000 86 60 72
0.038079 0.715032 2.417000 86 62 82
0.037811 0.714204 2.400000 86 63 78
0.037559 0.713616 2.384000 84 65 74
0.037039 0.707853 2.351000 82 65 77
0.036787 0.707123 2.335000 83 64 81
0.036550 0.706642 2.320000 85 66 79
0.036550 0.710703 2.320000 84 68 78
0.036298 0.709835 2.304000 83 68 76
0.036062 0.709220 2.289000 82 68 74
0.035589 0.703880 2.259000 82 65 70
0.035353 0.703134 2.244000 76 65 66
0.035133 0.702651 2.230000 71 64 76
0.034250 0.688811 2.174000 75 63 86
0.034455 0.696759 2.187000 79 67 81
0.034455 0.700587 2.187000 75 67 77
0.034250 0.700228 2.174000 71 72 86
0.034030 0.699500 2.160000 77 76 96
0.033825 0.699048 2.147000 83 69 88
0.033604 0.698224 2.133000 85 62 81
0.033604 0.701958 2.133000 87 65 79
0.033400 0.701391 2.120000 87 69 77
0.033195 0.700778 2.107000 87 69 71
0.032801 0.696108 2.082000 85 72 65
0.032596 0.695383 2.069000 83 72 76
0.032218 0.690896 2.045000 84 68 86
0.032029 0.690401 2.033000 85 67 84
0.031840 0.689863 2.021000 85 68 82
0.031651 0.689284 2.009000 86 67 73
0.031651 0.692801 2.009000 84 68 64
0.031477 0.692505 1.998000 83 70 76
0.031288 0.691822 1.986000 84 69 89
0.031115 0.691448 1.975000 85 69 89
0.030942 0.691035 1.964000 86 69 89
0.030753 0.690229 1.952000 87 69 94
0.030249 0.682275 1.920000 86 65 99
0.030075 0.681708 1.909000 85 67 91
0.029918 0.681461 1.899000 87 67 83
0.029918 0.684785 1.899000 90 67 83
0.029744 0.684124 1.888000 86 66 84
0.029587 0.683788 1.878000 83 66 82
0.029429 0.683416 1.868000 83 65 80
0.029272 0.683010 1.858000 83 70 84
0.029114 0.682569 1.848000 79 70 89
0.028957 0.682093 1.838000 76 71 90
0.028799 0.681582 1.828000 78 74 91
0.028657 0.681410 1.819000 80 72 91
0.028500 0.680831 1.809000 85 72 92
0.028201 0.676813 1.790000 91 70 95
0.028059 0.676528 1.781000 84 65 98
0.027917 0.676211 1.772000 77 67 85
0.027775 0.675863 1.763000 79 71 72
0.027492 0.672017 1.745000 81 68 78
0.027492 0.675072 1.745000 79 64 84
0.051290 0.738571 2.930000 84 54 79
0.051290 0.743700 2.930000 81 56 79
0.051290 0.748829 2.930000 79 59 71
0.050852 0.747525 2.905000 83 58 64
0.049189 0.727998 2.810000 87 60 65
0.049189 0.732917 2.810000 83 59 67
0.048804 0.732059 2.788000 80 61 75
0.048016 0.725045 2.743000 79 61 84
0.048016 0.729847 2.743000 78 61 78
0.048016 0.734648 2.743000 82 65 72
0.047649 0.733789 2.722000 86 65 70
0.047281 0.732856 2.701000 87 61 68
0.046913 0.731849 2.680000 88 62 65
0.046546 0.730769 2.659000 85 63 63
0.045846 0.724361 2.619000 82 64 76
0.045846 0.728945 2.619000 82 63 90
0.045163 0.722607 2.580000 83 63 83
0.044813 0.721486 2.560000 85 60 76
0.044813 0.725968 2.560000 88 56 74
0.044165 0.719892 2.523000 82 58 72
0.043850 0.719141 2.505000 76 64 69
0.043535 0.718327 2.487000 82 67 67
0.043220 0.717450 2.469000 88 70 58
0.042905 0.716510 2.451000 86 64 50
0.042607 0.715801 2.434000 84 59 68
0.042310 0.715032 2.417000 84 61 86
0.042012 0.714204 2.400000 84 64 96
0.041732 0.713616 2.384000 83 65 107
0.041434 0.712671 2.367000 82 69 95
0.041154 0.711969 2.351000 83 65 83
0.040874 0.711211 2.335000 84 65 78
0.040612 0.710703 2.320000 84 66 74
0.040332 0.709835 2.304000 84 69 76
0.040069 0.709220 2.289000 83 68 78
0.039544 0.703880 2.259000 82 66 78
0.039281 0.703134 2.244000 79 67 79
0.039036 0.702651 2.230000 75 68 85
0.038283 0.692930 2.187000 79 68 92
0.038283 0.696759 2.187000 83 74 87
0.038283 0.700587 2.187000 79 71 83
0.038056 0.700228 2.174000 74 72 95
0.037811 0.699500 2.160000 79 73 107
0.037338 0.694490 2.133000 84 75 98
0.037338 0.698224 2.133000 85 67 89
0.037111 0.697679 2.120000 87 67 86
0.037111 0.701391 2.120000 89 67 84
0.036883 0.700778 2.107000 92 65 82
0.036445 0.696108 2.082000 88 69 81
0.036218 0.695383 2.069000 85 72 90
0.035798 0.690896 2.045000 85 69 99
0.035588 0.690401 2.033000 86 65 90
0.035378 0.689863 2.021000 89 65 82
0.035378 0.693401 2.021000 92 67 77
0.035168 0.692801 2.009000 88 68 72
0.034975 0.692505 1.998000 85 75 83
0.034572 0.687990 1.975000 87 71 95
0.034380 0.687596 1.964000 88 71 91
0.034170 0.686812 1.952000 87 70 88
0.033977 0.686340 1.941000 86 76 98
0.033610 0.682275 1.920000 84 70 108
0.033417 0.681708 1.909000 83 69 98
0.033242 0.681461 1.899000 83 68 89
0.033049 0.680819 1.888000 83 69 86
0.033049 0.684124 1.888000 83 67 84
0.032874 0.683788 1.878000 83 69 80
0.032699 0.683416 1.868000 82 68 76
0.032524 0.683010 1.858000 81 69 81
0.032349 0.682569 1.848000 79 69 87
0.032174 0.682093 1.838000 77 68 83
0.031999 0.681582 1.828000 78 70 79
0.031842 0.681410 1.819000 79 71 83
0.031667 0.680831 1.809000 84 71 87
0.031509 0.680595 1.800000 88 70 87
0.031176 0.676528 1.781000 83 67 87
0.031176 0.679646 1.781000 79 65 84
0.031019 0.679313 1.772000 79 68 82
0.030616 0.673558 1.749000 80 71 84
0.030389 0.671590 1.736000 79 70 87
0.056419 0.738571 2.930000 89 57 76
0.056419 0.743700 2.930000 86 57 75
0.055937 0.742440 2.905000 84 58 69
0.055937 0.747525 2.905000 87 59 63
0.054108 0.727998 2.810000 91 59 63
0.054108 0.732917 2.810000 86 64 63
0.053684 0.732059 2.788000 82 64 68
0.052818 0.725045 2.743000 81 65 73
0.052818 0.729847 2.743000 80 65 65
0.052413 0.729024 2.722000 83 67 57
0.052413 0.733789 2.722000 86 65 60
0.052009 0.732856 2.701000 89 62 64
0.051200 0.726115 2.659000 93 63 59
0.050815 0.725272 2.639000 86 64 53
0.050430 0.724361 2.619000 80 62 68
0.050045 0.723379 2.599000 81 61 82
0.049679 0.722607 2.580000 82 62 76
0.049294 0.721486 2.560000 86 62 69
0.048948 0.720863 2.542000 91 57 72
0.048582 0.719892 2.523000 87 56 75
0.048235 0.719141 2.505000 84 64 71
0.047888 0.718327 2.487000 84 73 67
0.047542 0.717450 2.469000 84 71 62
0.047195 0.716510 2.451000 83 67 57
0.046868 0.715801 2.434000 82 63 69
0.046541 0.715032 2.417000 82 60 81
0.045905 0.709443 2.384000 83 61 87
0.045905 0.713616 2.384000 82 64 92
0.045270 0.707853 2.351000 82 65 79
0.045270 0.711969 2.351000 82 65 66
0.044962 0.711211 2.335000 83 65 70
0.044673 0.710703 2.320000 84 65 75
0.044365 0.709835 2.304000 85 67 79
0.044076 0.709220 2.289000 84 69 83
0.043787 0.708554 2.274000 83 67 81
0.043209 0.703134 2.244000 81 69 80
0.042940 0.702651 2.230000 80 68 81
0.042112 0.692930 2.187000 84 67 82
0.042112 0.696759 2.187000 88 70 81
0.042112 0.700587 2.187000 83 71 81
0.041861 0.700228 2.174000 78 70 85
0.041861 0.704034 2.174000 81 72 89
0.041342 0.699048 2.147000 85 71 88
0.041072 0.698224 2.133000 86 67 88
0.041072 0.701958 2.133000 87 67 85
0.040822 0.701391 2.120000 92 69 83
0.040340 0.696787 2.095000 97 68 82
0.040090 0.696108 2.082000 92 68 82
0.039609 0.691350 2.057000 87 69 87
0.039378 0.690896 2.045000 87 71 92
0.039146 0.690401 2.033000 87 67 86
0.038915 0.689863 2.021000 92 63 80
0.038915 0.693401 2.021000 98 65 70
0.038684 0.692801 2.009000 93 63 60
0.038241 0.688346 1.986000 88 70 74
0.038030 0.687990 1.975000 90 71 89
0.037818 0.687596 1.964000 92 69 83
0.037587 0.686812 1.952000 88 67 78
0.037375 0.686340 1.941000 85 69 89
0.036971 0.682275 1.920000 83 72 99
0.036759 0.681708 1.909000 82 70 94
0.036566 0.681461 1.899000 79 68 89
0.036354 0.680819 1.888000 76 68 86
0.036162 0.680500 1.878000 80 67 84
0.035969 0.680146 1.868000 84 69 80
0.035969 0.683416 1.868000 82 70 77
0.035777 0.683010 1.858000 80 70 82
0.035584 0.682569 1.848000 79 69 88
0.035392 0.682093 1.838000 79 67 85
0.035199 0.681582 1.828000 79 69 82
0.035026 0.681410 1.819000 79 70 85
0.034833 0.680831 1.809000 82 71 88
0.034660 0.680595 1.800000 86 70 85
0.034294 0.676528 1.781000 83 68 83
0.034294 0.679646 1.781000 81 64 80
0.034121 0.679313 1.772000 80 67 76
0.033774 0.675483 1.754000 80 70 80
0.033601 0.675072 1.745000 80 74 84
0.065434 0.752488 3.115000 80 67 41
0.063711 0.743297 3.033000 75 59 69
0.063711 0.748607 3.033000 77 61 76
0.062598 0.740742 2.980000 79 63 76
0.062073 0.739700 2.955000 79 60 76
0.062073 0.744873 2.955000 79 59 74
0.061548 0.743700 2.930000 80 60 72
0.061548 0.748829 2.930000 82 60 67
0.061022 0.747525 2.905000 84 56 63
0.059027 0.727998 2.810000 85 55 61
0.059027 0.732917 2.810000 83 62 59
0.058565 0.732059 2.788000 81 67 61
0.057619 0.725045 2.743000 79 66 63
0.057619 0.729847 2.743000 77 68 52
0.057178 0.729024 2.722000 79 68 42
0.056737 0.728128 2.701000 82 68 51
0.056296 0.727158 2.680000 81 66 61
0.055855 0.726115 2.659000 81 67 52
0.055435 0.725272 2.639000 80 64 44
0.055015 0.724361 2.619000 80 62 59
0.055015 0.728945 2.619000 80 63 75
0.054195 0.722607 2.580000 81 65 69
0.053775 0.721486 2.560000 84 60 63
0.053775 0.725968 2.560000 86 55 70
0.052998 0.719892 2.523000 85 60 78
0.052620 0.719141 2.505000 84 64 73
0.052242 0.718327 2.487000 83 70 68
0.051864 0.717450 2.469000 82 74 66
0.051486 0.716510 2.451000 77 68 65
0.051129 0.715801 2.434000 72 69 71
0.050771 0.715032 2.417000 76 64 77
0.050414 0.714204 2.400000 81 59 77
0.050078 0.713616 2.384000 81 63 78
0.049721 0.712671 2.367000 81 65 63
0.049385 0.711969 2.351000 80 65 49
0.049049 0.711211 2.335000 80 67 62
0.048734 0.710703 2.320000 81 65 76
0.048398 0.709835 2.304000 83 65 82
0.048083 0.709220 2.289000 82 65 88
0.047768 0.708554 2.274000 82 64 84
0.047137 0.703134 2.244000 81 66 81
0.046843 0.702651 2.230000 79 69 76
0.045940 0.692930 2.187000 81 68 72
0.045940 0.696759 2.187000 84 68 75
0.045940 0.700587 2.187000 79 67 79
0.045940 0.704415 2.187000 74 67 75
0.045667 0.704034 2.174000 77 70 71
0.045373 0.703281 2.160000 81 73 79
0.045100 0.702807 2.147000 82 68 87
0.044806 0.701958 2.133000 83 67 85
0.044533 0.701391 2.120000 79 67 83
0.044260 0.700778 2.107000 76 70 83
0.043734 0.696108 2.082000 80 69 83
0.043209 0.691350 2.057000 84 68 84
0.042957 0.690896 2.045000 84 69 86
0.042705 0.690401 2.033000 85 72 82
0.042453 0.689863 2.021000 88 68 78
0.042201 0.689284 2.009000 92 67 63
0.042201 0.692801 2.009000 87 66 49
0.041718 0.688346 1.986000 82 72 66
0.041487 0.687990 1.975000 85 71 83
0.041256 0.687596 1.964000 88 67 76
0.041004 0.686812 1.952000 86 65 69
0.040773 0.686340 1.941000 85 63 80
0.040331 0.682275 1.920000 83 68 91
0.040100 0.681708 1.909000 81 72 90
0.039890 0.681461 1.899000 79 71 89
0.039659 0.680819 1.888000 78 70 87
0.039449 0.680500 1.878000 82 68 85
0.039239 0.680146 1.868000 87 71 81
0.039239 0.683416 1.868000 82 72 78
0.039029 0.683010 1.858000 78 74 84
0.038819 0.682569 1.848000 78 69 90
0.038609 0.682093 1.838000 79 65 88
0.038609 0.685310 1.838000 79 66 86
0.038399 0.684782 1.828000 80 69 87
0.038210 0.684594 1.819000 82 71 89
0.038000 0.683998 1.809000 84 74 84
0.037412 0.676528 1.781000 82 65 80
0.037223 0.676211 1.772000 81 58 75
0.037223 0.679313 1.772000 81 65 71
0.036844 0.675483 1.754000 81 70 76
0.036655 0.675072 1.745000 82 71 82
0.072184 0.755152 3.172000 81 60 45
0.071524 0.753750 3.143000 81 64 38
0.070886 0.752488 3.115000 82 64 56
0.069612 0.744315 3.059000 80 62 75
0.069020 0.743297 3.033000 79 60 73
0.068406 0.741943 3.006000 79 63 72
0.067814 0.740742 2.980000 79 63 75
0.067245 0.739700 2.955000 74 62 79
0.067245 0.744873 2.955000 69 62 80
0.066677 0.743700 2.930000 75 65 82
0.066108 0.742440 2.905000 81 58 70
0.065561 0.741349 2.881000 80 51 58
0.065015 0.740175 2.857000 80 54 58
0.063946 0.732917 2.810000 80 62 59
0.063445 0.732059 2.788000 80 65 62
0.062421 0.725045 2.743000 77 66 65
0.062421 0.729847 2.743000 74 66 61
0.061943 0.729024 2.722000 76 69 57
0.061465 0.728128 2.701000 79 68 61
0.060987 0.727158 2.680000 74 70 66
0.060510 0.726115 2.659000 69 68 63
0.060054 0.725272 2.639000 74 66 60
0.059599 0.724361 2.619000 80 64 74
0.059144 0.723379 2.599000 80 64 89
0.058712 0.722607 2.580000 81 62 83
0.058257 0.721486 2.560000 81 61 76
0.058257 0.725968 2.560000 82 60 77
0.057415 0.719892 2.523000 83 65 78
0.057005 0.719141 2.505000 84 66 75
0.056595 0.718327 2.487000 82 71 73
0.055776 0.712219 2.451000 81 68 71
0.055389 0.711540 2.434000 72 62 70
0.055389 0.715801 2.434000 63 66 74
0.055002 0.715032 2.417000 71 69 78
0.054616 0.714204 2.400000 79 64 80
0.054251 0.713616 2.384000 79 64 82
0.053865 0.712671 2.367000 80 64 71
0.053501 0.711969 2.351000 78 65 60
0.053136 0.711211 2.335000 77 64 68
0.052795 0.710703 2.320000 79 66 77
0.052431 0.709835 2.304000 81 64 81
0.052090 0.709220 2.289000 81 64 86
0.051407 0.703880 2.259000 82 63 84
0.051066 0.703134 2.244000 80 64 82
0.050747 0.702651 2.230000 79 67 81
0.049768 0.692930 2.187000 79 70 81
0.049768 0.696759 2.187000 80 67 81
0.049768 0.700587 2.187000 75 64 81
0.049768 0.704415 2.187000 71 66 80
0.049473 0.704034 2.174000 74 68 78
0.049154 0.703281 2.160000 77 69 84
0.048858 0.702807 2.147000 78 68 90
0.048540 0.701958 2.133000 79 64 87
0.047948 0.697090 2.107000 67 62 84
0.047675 0.696787 2.095000 56 68 84
0.047379 0.696108 2.082000 68 73 83
0.046810 0.691350 2.057000 81 69 85
0.046537 0.690896 2.045000 82 68 87
0.046264 0.690401 2.033000 83 70 86
0.045991 0.689863 2.021000 84 73 85
0.045718 0.689284 2.009000 86 68 80
0.045718 0.692801 2.009000 81 63 76
0.045467 0.692505 1.998000 76 70 83
0.044944 0.687990 1.975000 80 74 90
0.044694 0.687596 1.964000 84 68 87
0.044421 0.686812 1.952000 84 63 84
0.044170 0.686340 1.941000 85 63 88
0.043442 0.678366 1.909000 82 66 92
0.043442 0.681708 1.909000 80 69 90
0.043215 0.681461 1.899000 80 74 89
0.042964 0.680819 1.888000 81 70 89
0.042737 0.680500 1.878000 85 67 89
0.042509 0.680146 1.868000 90 68 86
0.042509 0.683416 1.868000 83 73 84
0.042282 0.683010 1.858000 77 70 86
0.042054 0.682569 1.848000 78 68 88
0.041826 0.682093 1.838000 79 64 83
0.041599 0.681582 1.828000 80 63 78
0.041394 0.681410 1.819000 82 67 83
0.041166 0.680831 1.809000 82 72 88
0.040962 0.680595 1.800000 82 69 84
0.040529 0.676528 1.781000 81 62 80
0.040324 0.676211 1.772000 81 61 79
0.040120 0.675863 1.763000 81 65 78
0.039915 0.675483 1.754000 82 68 81
0.039710 0.675072 1.745000 84 70 85
0.077736 0.755152 3.172000 84 60 57
0.077025 0.753750 3.143000 83 61 56
0.076339 0.752488 3.115000 81 65 72
0.074967 0.744315 3.059000 80 60 88
0.074330 0.743297 3.033000 80 56 78
0.073668 0.741943 3.006000 81 60 68
0.073668 0.747204 3.006000 83 66 75
0.073031 0.745958 2.980000 78 61 82
0.072418 0.744873 2.955000 74 62 87
0.071805 0.743700 2.930000 79 61 93
0.071193 0.742440 2.905000 85 56 73
0.070605 0.741349 2.881000 80 52 54
0.070016 0.740175 2.857000 76 50 56
0.068865 0.732917 2.810000 79 60 59
0.068865 0.737836 2.810000 82 66 63
0.067223 0.725045 2.743000 79 63 68
0.067223 0.729847 2.743000 77 62 70
0.066708 0.729024 2.722000 79 64 72
0.066708 0.733789 2.722000 81 65 72
0.065679 0.727158 2.680000 77 67 72
0.065164 0.726115 2.659000 73 69 74
0.064674 0.725272 2.639000 77 68 76
0.063694 0.718829 2.599000 81 67 90
0.063694 0.723379 2.599000 84 62 104
0.063228 0.722607 2.580000 88 60 97
0.062738 0.721486 2.560000 82 59 90
0.062738 0.725968 2.560000 77 60 84
0.061831 0.719892 2.523000 82 63 79
0.061390 0.719141 2.505000 87 67 78
0.060508 0.713128 2.469000 84 67 78
0.060067 0.712219 2.451000 82 65 77
0.059650 0.711540 2.434000 76 64 76
0.059233 0.710801 2.417000 70 66 78
0.059233 0.715032 2.417000 76 65 80
0.058817 0.714204 2.400000 82 65 83
0.058425 0.713616 2.384000 81 64 86
0.058008 0.712671 2.367000 81 65 78
0.057616 0.711969 2.351000 82 64 71
0.057224 0.711211 2.335000 82 60 75
0.056856 0.710703 2.320000 82 62 79
0.056464 0.709835 2.304000 81 61 81
0.056097 0.709220 2.289000 81 60 84
0.055729 0.708554 2.274000 81 60 83
0.054994 0.703134 2.244000 81 64 83
0.054651 0.702651 2.230000 80 67 86
0.053940 0.697366 2.201000 81 66 90
0.053597 0.696759 2.187000 82 68 87
0.053597 0.700587 2.187000 79 66 84
0.053278 0.700228 2.174000 77 67 85
0.053278 0.704034 2.174000 79 66 86
0.052935 0.703281 2.160000 81 70 89
0.052617 0.702807 2.147000 84 67 93
0.052273 0.701958 2.133000 87 62 89
0.051636 0.697090 2.107000 77 64 86
0.051342 0.696787 2.095000 68 68 85
0.050705 0.691761 2.069000 74 69 84
0.050411 0.691350 2.057000 81 70 86
0.050117 0.690896 2.045000 83 68 89
0.049823 0.690401 2.033000 85 69 91
0.049529 0.689863 2.021000 87 71 93
0.049235 0.689284 2.009000 89 69 98
0.049235 0.692801 2.009000 84 68 103
0.048965 0.692505 1.998000 80 71 100
0.048401 0.687990 1.975000 82 71 97
0.048132 0.687596 1.964000 85 69 98
0.047838 0.686812 1.952000 85 66 99
0.047568 0.686340 1.941000 85 63 96
0.047053 0.682275 1.920000 84 65 93
0.046784 0.681708 1.909000 83 64 91
0.046539 0.681461 1.899000 82 67 90
0.046269 0.680819 1.888000 82 69 91
0.046024 0.680500 1.878000 84 64 93
0.045779 0.680146 1.868000 87 63 91
0.045779 0.683416 1.868000 83 69 90
0.045534 0.683010 1.858000 78 67 88
0.045289 0.682569 1.848000 79 65 87
0.045044 0.682093 1.838000 79 61 79
0.044799 0.681582 1.828000 80 63 71
0.044578 0.681410 1.819000 82 65 79
0.044333 0.680831 1.809000 82 67 88
0.044113 0.680595 1.800000 82 68 84
0.043647 0.676528 1.781000 79 63 81
0.043426 0.676211 1.772000 77 61 83
0.043206 0.675863 1.763000 78 65 86
0.042985 0.675483 1.754000 80 68 87
0.042765 0.675072 1.745000 78 70 88
0.086466 0.766665 3.293000 80 59 75
0.085652 0.765158 3.262000 82 59 68
0.081792 0.741582 3.115000 88 58 60
0.081792 0.747035 3.115000 84 57 61
0.081792 0.752488 3.115000 81 60 67
0.080322 0.744315 3.059000 81 59 74
0.079639 0.743297 3.033000 81 57 71
0.078930 0.741943 3.006000 84 58 69
0.078930 0.747204 3.006000 87 60 73
0.078247 0.745958 2.980000 83 57 78
0.077591 0.744873 2.955000 79 61 81
0.076934 0.743700 2.930000 84 62 83
0.076278 0.742440 2.905000 89 56 73
0.075648 0.741349 2.881000 81 51 62
0.074414 0.734216 2.834000 73 55 62
0.073784 0.732917 2.810000 79 62 61
0.073784 0.737836 2.810000 85 62 67
0.072602 0.730860 2.765000 82 59 73
0.072024 0.729847 2.743000 80 59 77
0.071473 0.729024 2.722000 82 63 81
0.071473 0.733789 2.722000 84 64 78
0.070922 0.732856 2.701000 81 66 75
0.069819 0.726115 2.659000 78 68 73
0.069294 0.725272 2.639000 80 71 72
0.068768 0.724361 2.619000 82 65 82
0.068243 0.723379 2.599000 88 60 92
0.067744 0.722607 2.580000 95 60 88
0.067219 0.721486 2.560000 84 58 85
0.066747 0.720863 2.542000 73 62 81
0.066248 0.719892 2.523000 81 62 78
0.065302 0.713973 2.487000 90 65 80
0.064357 0.707929 2.451000 86 67 82
0.063911 0.707279 2.434000 83 65 80
0.063911 0.711540 2.434000 80 64 79
0.063464 0.710801 2.417000 78 63 79
0.063018 0.710003 2.400000 81 62 80
0.063018 0.714204 2.400000 85 63 81
0.062598 0.713616 2.384000 84 63 82
0.062152 0.712671 2.367000 83 64 77
0.061731 0.711969 2.351000 85 66 72
0.060917 0.706642 2.320000 88 64 75
0.060497 0.705802 2.304000 85 62 78
0.060103 0.705214 2.289000 82 61 82
0.059710 0.704573 2.274000 81 58 87
0.059316 0.703880 2.259000 81 60 85
0.058922 0.703134 2.244000 81 65 84
0.058554 0.702651 2.230000 82 63 86
0.057793 0.697366 2.201000 83 60 88
0.057425 0.696759 2.187000 84 64 84
0.057084 0.696423 2.174000 84 67 81
0.057084 0.700228 2.174000 84 67 82
0.056716 0.699500 2.160000 84 62 82
0.056375 0.699048 2.147000 85 67 85
0.056375 0.702807 2.147000 90 69 88
0.056007 0.701958 2.133000 95 64 83
0.055325 0.697090 2.107000 87 64 79
0.055009 0.696787 2.095000 80 65 80
0.054327 0.691761 2.069000 81 67 81
0.054012 0.691350 2.057000 82 68 84
0.053697 0.690896 2.045000 84 65 88
0.053382 0.690401 2.033000 87 70 88
0.053382 0.693960 2.033000 89 75 89
0.053066 0.693401 2.021000 92 72 92
0.052751 0.692801 2.009000 88 69 95
0.052462 0.692505 1.998000 84 69 93
0.051859 0.687990 1.975000 85 72 91
0.051570 0.687596 1.964000 86 70 91
0.050966 0.682942 1.941000 85 69 91
0.050703 0.682804 1.931000 85 67 87
0.050126 0.678366 1.909000 85 68 83
0.049863 0.678137 1.899000 86 63 86
0.049574 0.677514 1.888000 84 64 90
0.049574 0.680819 1.888000 83 64 94
0.049312 0.680500 1.878000 84 60 98
0.049049 0.680146 1.868000 85 65 94
0.049049 0.683416 1.868000 82 75 89
0.048786 0.683010 1.858000 80 70 89
0.048786 0.686263 1.858000 80 64 88
0.048524 0.685804 1.848000 80 65 87
0.048261 0.685310 1.838000 81 66 87
0.047762 0.681410 1.819000 82 66 87
0.047500 0.680831 1.809000 82 65 87
0.047264 0.680595 1.800000 83 65 79
0.046765 0.676528 1.781000 78 64 71
0.046528 0.676211 1.772000 73 63 80
0.046292 0.675863 1.763000 76 67 89
0.046056 0.675483 1.754000 79 64 90
0.045819 0.675072 1.745000 73 71 90
0.095871 0.766971 3.423000 72 64 56
0.094947 0.765511 3.390000 77 63 56
0.094947 0.771446 3.390000 82 59 55
0.091362 0.759448 3.262000 79 58 67
0.091362 0.765158 3.262000 81 59 65
0.088029 0.742746 3.143000 83 58 63
0.088029 0.748248 3.143000 85 55 64
0.087245 0.747035 3.115000 82 57 66
0.087245 0.752488 3.115000 79 59 63
0.085677 0.744315 3.059000 79 58 60
0.084948 0.743297 3.033000 79 56 65
0.084192 0.741943 3.006000 77 58 70
0.084192 0.747204 3.006000 75 59 72
0.083464 0.745958 2.980000 76 59 75
0.082764 0.744873 2.955000 77 63 74
0.082063 0.743700 2.930000 81 61 74
0.081363 0.742440 2.905000 84 56 72
0.081363 0.747525 2.905000 80 55 71
0.079375 0.734216 2.834000 76 58 67
0.078703 0.732917 2.810000 81 61 64
0.078703 0.737836 2.810000 86 63 71
0.076826 0.725045 2.743000 82 57 78
0.076826 0.729847 2.743000 79 55 84
0.076238 0.729024 2.722000 81 60 91
0.075650 0.728128 2.701000 83 65 84
0.075061 0.727158 2.680000 81 65 78
0.074473 0.726115 2.659000 78 66 73
0.073913 0.725272 2.639000 80 66 68
0.073913 0.729892 2.639000 82 63 74
0.072793 0.723379 2.599000 84 60 80
0.072261 0.722607 2.580000 87 62 80
0.071701 0.721486 2.560000 82 62 80
0.071701 0.725968 2.560000 76 69 79
0.070160 0.714756 2.505000 82 66 78
0.069656 0.713973 2.487000 87 64 82
0.069152 0.713128 2.469000 85 65 87
0.068648 0.712219 2.451000 83 66 84
0.068171 0.711540 2.434000 79 64 82
0.067695 0.710801 2.417000 75 61 81
0.067695 0.715032 2.417000 79 60 80
0.067219 0.714204 2.400000 83 62 79
0.066771 0.713616 2.384000 82 64 78
0.066295 0.712671 2.367000 81 65 76
0.065399 0.707123 2.335000 83 68 74
0.064979 0.706642 2.320000 85 69 76
0.064530 0.705802 2.304000 83 66 78
0.064110 0.705214 2.289000 82 65 84
0.063690 0.704573 2.274000 81 61 90
0.063690 0.708554 2.274000 80 60 88
0.062850 0.703134 2.244000 79 62 86
0.062038 0.697925 2.215000 79 60 86
0.061646 0.697366 2.201000 82 62 86
0.061254 0.696759 2.187000 85 64 82
0.061254 0.700587 2.187000 88 67 79
0.060889 0.700228 2.174000 91 73 79
0.060497 0.699500 2.160000 88 66 79
0.060133 0.699048 2.147000 85 68 81
0.060133 0.702807 2.147000 87 67 84
0.059741 0.701958 2.133000 90 64 78
0.059013 0.697090 2.107000 86 62 72
0.058677 0.696787 2.095000 82 64 75
0.058313 0.696108 2.082000 80 68 79
0.057612 0.691350 2.057000 78 72 83
0.057276 0.690896 2.045000 81 69 87
0.056940 0.690401 2.033000 85 72 86
0.056940 0.693960 2.033000 86 72 86
0.056604 0.693401 2.021000 88 76 86
0.055960 0.689007 1.998000 86 70 87
0.055624 0.688346 1.986000 85 67 86
0.055316 0.687990 1.975000 86 69 85
0.055008 0.687596 1.964000 88 72 84
0.055008 0.691035 1.964000 87 69 84
0.054364 0.686340 1.941000 86 69 79
0.053775 0.682275 1.920000 88 64 74
0.053467 0.681708 1.909000 90 59 82
0.053187 0.681461 1.899000 87 62 90
0.052879 0.680819 1.888000 84 65 97
0.052599 0.680500 1.878000 85 63 104
0.052599 0.683788 1.878000 86 65 96
0.052319 0.683416 1.868000 83 72 89
0.052039 0.683010 1.858000 81 76 89
0.051759 0.682569 1.848000 82 70 90
0.051759 0.685804 1.848000 82 69 96
0.051479 0.685310 1.838000 82 69 103
0.050947 0.681410 1.819000 82 70 95
0.050666 0.680831 1.809000 84 67 87
0.050134 0.676813 1.790000 85 65 74
0.049882 0.676528 1.781000 81 63 61
0.049630 0.676211 1.772000 78 62 77
