ply
format ascii 1.0
element vertex 1201
property float x
property float y
property float z
property uchar red
property uchar green
property uchar blue
end_header
-0.925446 0.758448 3.975000 80 55 53
-0.875157 0.723814 3.759000 80 57 54
-0.875157 0.730395 3.759000 79 59 55
-0.875157 0.736975 3.759000 78 58 57
-0.875157 0.743555 3.759000 81 58 58
-0.865612 0.741953 3.718000 84 59 59
-0.856532 0.740610 3.679000 83 65 61
-0.856532 0.747051 3.679000 82 60 64
-0.847452 0.745503 3.640000 84 51 68
-0.838605 0.744026 3.602000 86 54 67
-0.838605 0.750331 3.602000 85 59 66
-0.759447 0.719477 3.262000 83 65 76
-0.759447 0.725187 3.262000 86 71 76
-0.752230 0.723951 3.231000 89 68 75
-0.745246 0.722832 3.201000 90 71 74
-0.738494 0.721836 3.172000 92 70 78
-0.738494 0.727389 3.172000 92 72 82
-0.731742 0.726241 3.143000 93 71 78
-0.699846 0.699847 3.006000 92 69 74
-0.699846 0.705109 3.006000 92 71 79
-0.693793 0.704226 2.980000 90 78 84
-0.693793 0.709443 2.980000 88 77 89
-0.687973 0.708664 2.955000 92 76 94
-0.687973 0.713836 2.955000 97 75 97
-0.682152 0.712926 2.930000 96 76 99
-0.676332 0.711928 2.905000 95 75 93
-0.665157 0.705166 2.857000 92 76 86
-0.659802 0.704450 2.834000 90 75 91
-0.649092 0.697896 2.788000 92 74 97
-0.649092 0.702777 2.788000 95 75 104
-0.643738 0.701819 2.765000 95 74 112
-0.638616 0.701037 2.743000 96 76 104
-0.628837 0.695031 2.701000 98 77 97
-0.619059 0.688878 2.659000 101 79 99
-0.619059 0.693532 2.659000 104 80 101
-0.614403 0.692936 2.639000 107 80 99
-0.609746 0.692269 2.619000 107 82 96
-0.605090 0.691532 2.599000 107 83 100
-0.596010 0.685636 2.560000 104 84 104
-0.596010 0.690117 2.560000 101 87 111
-0.591820 0.689715 2.542000 105 90 118
-0.587396 0.688976 2.523000 109 90 116
-0.587396 0.693392 2.523000 115 90 115
-0.579015 0.687852 2.487000 121 90 115
-0.570633 0.682186 2.451000 117 89 115
-0.566675 0.681715 2.434000 113 87 117
-0.562717 0.681185 2.417000 112 87 120
-0.558760 0.680595 2.400000 111 89 115
-0.555035 0.680230 2.384000 112 93 110
-0.551077 0.679523 2.367000 114 91 113
-0.547352 0.679045 2.351000 112 90 116
-0.543627 0.678511 2.335000 111 92 119
-0.543627 0.682599 2.335000 108 95 122
-0.540134 0.682275 2.320000 106 95 125
-0.536409 0.681603 2.304000 111 95 128
-0.536409 0.685636 2.304000 116 95 135
-0.525932 0.676199 2.259000 117 97 143
-0.519181 0.671422 2.230000 118 95 137
-0.515689 0.670783 2.215000 118 97 131
-0.512429 0.670396 2.201000 119 97 131
-0.512429 0.674249 2.201000 120 100 131
-0.509170 0.673789 2.187000 121 101 128
-0.506143 0.673589 2.174000 122 101 126
-0.502884 0.673032 2.160000 123 97 129
-0.496598 0.668353 2.133000 123 94 132
-0.493571 0.667991 2.120000 123 93 133
-0.490544 0.667583 2.107000 123 91 135
-0.490544 0.671271 2.107000 123 94 139
-0.487751 0.671116 2.095000 120 96 144
-0.481697 0.666408 2.069000 118 96 141
-0.478904 0.666144 2.057000 122 99 139
-0.473316 0.661931 2.033000 126 103 140
-0.467728 0.657633 2.009000 126 107 142
-0.467728 0.661150 2.009000 127 108 144
-0.465167 0.661027 1.998000 123 111 146
-0.465167 0.664525 1.998000 120 105 142
-0.462374 0.664010 1.986000 119 100 139
-0.459813 0.663790 1.975000 119 99 138
-0.457252 0.663531 1.964000 117 97 137
-0.457252 0.666969 1.964000 115 99 141
-0.451897 0.662556 1.941000 118 101 145
-0.447008 0.658748 1.920000 121 101 145
-0.444447 0.658316 1.909000 118 104 144
-0.439558 0.654379 1.888000 115 107 148
-0.437229 0.654201 1.878000 119 108 152
-0.437229 0.657488 1.878000 124 111 148
-0.434901 0.657257 1.868000 125 117 144
-0.434901 0.660527 1.868000 126 112 142
-0.432573 0.660243 1.858000 132 110 140
-0.427917 0.656354 1.838000 138 107 147
-0.425589 0.655982 1.828000 132 103 154
-0.421165 0.652331 1.809000 126 103 153
-0.419070 0.652236 1.800000 124 105 152
-0.416742 0.651746 1.790000 123 105 151
-0.416742 0.654880 1.790000 122 106 150
-0.414646 0.654705 1.781000 122 105 152
-0.412551 0.654498 1.772000 123 103 155
-0.410455 0.654260 1.763000 125 105 151
-0.408360 0.653990 1.754000 123 107 148
-0.406265 0.653689 1.745000 121 107 149
-0.402307 0.650346 1.728000 121 113 150
-0.402307 0.653371 1.728000 121 101 147
-0.400212 0.652977 1.719000 122 101 144
-0.398349 0.652933 1.711000 123 105 146
-0.396254 0.652478 1.702000 124 112 148
-0.394391 0.652376 1.694000 126 107 148
-0.390433 0.648765 1.677000 124 106 148
-0.388571 0.648592 1.669000 123 105 147
-0.918487 0.758448 3.975000 77 57 53
-0.868577 0.723814 3.759000 81 60 47
-0.868577 0.730395 3.759000 80 59 41
-0.868577 0.736975 3.759000 80 58 51
-0.859104 0.735445 3.718000 83 56 61
-0.859104 0.741953 3.718000 86 55 60
-0.859104 0.748461 3.718000 85 60 60
-0.859104 0.754970 3.718000 84 64 64
-0.841080 0.745503 3.640000 85 57 69
-0.841080 0.751875 3.640000 87 54 64
-0.832300 0.750331 3.602000 87 57 59
-0.760900 0.726314 3.293000 85 67 78
-0.753737 0.725187 3.262000 87 68 74
-0.746574 0.723951 3.231000 90 69 64
-0.739642 0.722832 3.201000 91 68 54
-0.739642 0.728436 3.201000 93 69 66
-0.732942 0.727389 3.172000 93 71 78
-0.726241 0.726241 3.143000 93 72 72
-0.694584 0.699847 3.006000 94 68 67
-0.688577 0.699010 2.980000 94 67 76
-0.688577 0.704226 2.980000 93 74 86
-0.688577 0.709443 2.980000 92 77 91
-0.682800 0.708664 2.955000 95 75 97
-0.682800 0.713836 2.955000 98 73 100
-0.677023 0.712926 2.930000 99 74 104
-0.665701 0.706047 2.881000 99 73 92
-0.660156 0.705166 2.857000 96 75 81
-0.654841 0.704450 2.834000 94 77 87
-0.649296 0.703404 2.810000 95 76 94
-0.644212 0.702777 2.788000 97 76 99
-0.638898 0.701819 2.765000 98 75 105
-0.633814 0.701037 2.743000 99 76 96
-0.624109 0.695031 2.701000 100 77 88
-0.614405 0.688878 2.659000 102 79 94
-0.609783 0.688316 2.639000 104 80 101
-0.605162 0.687684 2.619000 106 81 97
-0.605162 0.692269 2.619000 107 83 93
-0.600541 0.691532 2.599000 107 87 99
-0.596150 0.690992 2.580000 106 87 106
-0.591529 0.690117 2.560000 105 88 114
-0.587370 0.689715 2.542000 107 89 123
-0.587370 0.694164 2.542000 110 92 119
-0.582980 0.693392 2.523000 111 91 115
-0.578820 0.692831 2.505000 112 93 113
-0.570502 0.687196 2.469000 112 89 112
-0.566343 0.686476 2.451000 112 87 116
-0.562415 0.685976 2.434000 110 87 121
-0.554559 0.680595 2.400000 108 88 119
-0.554559 0.684796 2.400000 111 90 117
-0.546933 0.679523 2.367000 113 92 118
-0.543236 0.679045 2.351000 112 91 119
-0.539539 0.678511 2.335000 111 91 121
-0.539539 0.682599 2.335000 110 93 124
-0.536073 0.682275 2.320000 110 94 126
-0.532376 0.681603 2.304000 113 95 129
-0.532376 0.685636 2.304000 116 97 140
-0.521978 0.676199 2.259000 118 96 152
-0.515277 0.671422 2.230000 119 95 144
-0.511811 0.670783 2.215000 121 97 137
-0.508576 0.670396 2.201000 122 96 134
-0.508576 0.674249 2.201000 121 98 132
-0.505341 0.673789 2.187000 121 102 128
-0.502338 0.673589 2.174000 120 102 124
-0.499103 0.673032 2.160000 119 101 128
-0.496099 0.672740 2.147000 121 97 133
-0.489860 0.667991 2.120000 123 95 133
-0.489860 0.671702 2.120000 123 93 134
-0.486856 0.671271 2.107000 122 94 138
-0.484083 0.671116 2.095000 121 96 143
-0.478076 0.666408 2.069000 120 95 141
-0.475303 0.666144 2.057000 122 100 139
-0.469757 0.661931 2.033000 124 102 141
-0.466984 0.661561 2.021000 124 105 143
-0.464212 0.661150 2.009000 124 108 143
-0.461670 0.661027 1.998000 122 107 144
-0.461670 0.664525 1.998000 120 105 141
-0.458897 0.664010 1.986000 119 103 138
-0.456355 0.663790 1.975000 119 99 134
-0.453814 0.663531 1.964000 115 99 131
-0.453814 0.666969 1.964000 111 100 138
-0.448499 0.662556 1.941000 119 100 146
-0.443647 0.658748 1.920000 127 98 145
-0.441105 0.658316 1.909000 123 103 144
-0.436253 0.654379 1.888000 119 111 144
-0.436253 0.657684 1.888000 122 111 145
-0.433942 0.657488 1.878000 125 111 145
-0.431631 0.657257 1.868000 125 112 145
-0.431631 0.660527 1.868000 125 112 145
-0.429321 0.660243 1.858000 127 109 145
-0.427010 0.659925 1.848000 130 108 146
-0.422389 0.655982 1.828000 124 104 147
-0.417998 0.652331 1.809000 118 102 149
-0.415919 0.652236 1.800000 120 105 152
-0.413608 0.651746 1.790000 122 107 150
-0.413608 0.654880 1.790000 121 107 148
-0.411529 0.654705 1.781000 121 107 152
-0.409449 0.654498 1.772000 122 105 156
-0.407369 0.654260 1.763000 123 108 152
-0.405290 0.653990 1.754000 122 105 149
-0.401131 0.650318 1.736000 122 97 150
-0.399282 0.650346 1.728000 121 103 151
-0.399282 0.653371 1.728000 121 97 142
-0.397203 0.652977 1.719000 122 100 134
-0.395354 0.652933 1.711000 124 103 140
-0.393274 0.652478 1.702000 125 105 146
-0.391426 0.652376 1.694000 127 106 149
-0.387498 0.648765 1.677000 126 105 153
-0.385649 0.648592 1.669000 125 108 150
-0.911529 0.758448 3.975000 75 61 55
-0.890891 0.748076 3.885000 82 60 52
-0.861997 0.730395 3.759000 82 61 50
-0.861997 0.736975 3.759000 83 57 58
-0.852595 0.735445 3.718000 85 55 67
-0.843652 0.734170 3.679000 88 55 62
-0.852595 0.748461 3.718000 87 59 58
-0.843652 0.747051 3.679000 87 61 63
-0.825995 0.737720 3.602000 87 61 69
-0.825995 0.744026 3.602000 88 58 67
-0.817510 0.742624 3.565000 89 56 65
-0.755136 0.720550 3.293000 86 57 81
-0.755136 0.726314 3.293000 87 64 79
-0.748027 0.725187 3.262000 89 67 77
-0.740919 0.723951 3.231000 92 66 71
-0.740919 0.729607 3.231000 93 64 66
-0.734039 0.728436 3.201000 94 67 73
-0.727389 0.727389 3.172000 94 71 81
-0.695514 0.700823 3.033000 94 69 80
-0.689323 0.699847 3.006000 95 67 79
-0.683360 0.699010 2.980000 97 68 86
-0.683360 0.704226 2.980000 96 75 93
-0.677627 0.703491 2.955000 96 75 93
-0.677627 0.708664 2.955000 98 74 94
-0.677627 0.713836 2.955000 100 74 96
-0.671895 0.712926 2.930000 102 76 98
-0.660658 0.706047 2.881000 104 75 92
-0.655155 0.705166 2.857000 101 77 86
-0.644377 0.698485 2.810000 98 77 92
-0.639332 0.697896 2.788000 99 77 98
-0.639332 0.702777 2.788000 100 77 104
-0.634058 0.701819 2.765000 101 77 110
-0.629013 0.701037 2.743000 102 77 104
-0.619381 0.695031 2.701000 103 78 97
-0.609750 0.688878 2.659000 104 80 104
-0.605164 0.688316 2.639000 105 82 111
-0.600577 0.687684 2.619000 106 82 106
-0.600577 0.692269 2.619000 107 83 100
-0.595991 0.691532 2.599000 108 87 105
-0.591634 0.690992 2.580000 109 89 109
-0.587048 0.690117 2.560000 110 88 119
-0.582920 0.689715 2.542000 110 89 129
-0.582920 0.694164 2.542000 111 90 123
-0.578563 0.693392 2.523000 107 92 117
-0.574435 0.692831 2.505000 104 91 116
-0.566180 0.687196 2.469000 107 90 116
-0.562052 0.686476 2.451000 111 89 122
-0.554256 0.681185 2.417000 108 89 128
-0.550357 0.680595 2.400000 106 89 124
-0.550357 0.684796 2.400000 109 89 121
-0.542790 0.679523 2.367000 113 90 120
-0.539121 0.679045 2.351000 112 92 120
-0.539121 0.683161 2.351000 112 92 121
-0.535452 0.682599 2.335000 113 92 122
-0.532012 0.682275 2.320000 114 94 122
-0.532012 0.686336 2.320000 115 97 122
-0.524903 0.681172 2.289000 117 97 131
-0.518024 0.676199 2.259000 119 98 141
-0.511374 0.671422 2.230000 121 97 138
-0.507934 0.670783 2.215000 123 100 135
-0.504724 0.670396 2.201000 126 97 135
-0.504724 0.674249 2.201000 123 95 134
-0.501513 0.673789 2.187000 121 100 131
-0.501513 0.677617 2.187000 118 105 128
-0.495322 0.673032 2.160000 116 101 135
-0.492341 0.672740 2.147000 120 99 142
-0.489130 0.672087 2.133000 124 96 139
-0.489130 0.675821 2.133000 123 93 136
-0.483168 0.671271 2.107000 122 96 139
-0.480416 0.671116 2.095000 122 100 142
-0.474454 0.666408 2.069000 122 100 141
-0.471702 0.666144 2.057000 122 105 140
-0.466199 0.661931 2.033000 123 104 143
-0.460695 0.657633 2.009000 122 104 146
-0.460695 0.661150 2.009000 122 106 147
-0.458173 0.661027 1.998000 121 105 149
-0.458173 0.664525 1.998000 120 107 144
-0.455421 0.664010 1.986000 120 110 139
-0.452898 0.663790 1.975000 120 101 138
-0.452898 0.667247 1.975000 114 100 137
-0.450376 0.666969 1.964000 108 103 143
-0.445102 0.662556 1.941000 120 104 149
-0.440286 0.658748 1.920000 133 102 146
-0.435470 0.654867 1.899000 128 101 143
-0.432948 0.654379 1.888000 124 108 143
-0.430655 0.654201 1.878000 125 114 143
-0.430655 0.657488 1.878000 126 112 141
-0.428361 0.657257 1.868000 125 111 139
-0.428361 0.660527 1.868000 124 111 142
-0.426068 0.660243 1.858000 123 109 145
-0.423775 0.659925 1.848000 123 107 146
-0.419189 0.655982 1.828000 117 103 146
-0.414832 0.652331 1.809000 111 104 150
-0.412768 0.652236 1.800000 116 108 154
-0.410475 0.651746 1.790000 122 108 149
-0.408411 0.651587 1.781000 121 108 144
-0.408411 0.654705 1.781000 120 107 148
-0.406347 0.654498 1.772000 121 105 152
-0.404283 0.654260 1.763000 122 105 149
-0.402219 0.653990 1.754000 122 108 146
-0.400156 0.653689 1.745000 123 105 148
-0.398092 0.653357 1.736000 122 106 150
-0.396257 0.653371 1.728000 121 103 149
-0.394193 0.652977 1.719000 123 102 148
-0.392359 0.652933 1.711000 125 102 148
-0.390295 0.652478 1.702000 126 99 149
-0.386626 0.649296 1.686000 128 102 151
-0.384562 0.648765 1.677000 127 103 153
-0.382728 0.648592 1.669000 127 107 152
-0.904571 0.758448 3.975000 78 58 58
-0.884090 0.748076 3.885000 82 59 58
-0.874305 0.746522 3.842000 83 59 59
-0.855417 0.736975 3.759000 84 56 66
-0.846087 0.735445 3.718000 86 54 74
-0.837212 0.734170 3.679000 88 54 65
-0.828337 0.732759 3.640000 89 58 56
-0.828337 0.739131 3.640000 90 62 62
-0.819689 0.737720 3.602000 89 61 69
-0.811269 0.736383 3.565000 89 61 70
-0.811269 0.742624 3.565000 92 59 72
-0.811269 0.748864 3.565000 95 57 83
-0.763936 0.716924 3.357000 90 55 90
-0.749372 0.720550 3.293000 88 61 80
-0.749372 0.726314 3.293000 89 65 80
-0.742317 0.725187 3.262000 91 65 80
-0.735263 0.723951 3.231000 93 64 79
-0.728436 0.722832 3.201000 96 64 78
-0.728436 0.728436 3.201000 99 67 81
-0.721836 0.727389 3.172000 98 69 84
-0.702493 0.713301 3.087000 97 69 87
-0.684060 0.699847 3.006000 99 65 91
-0.678144 0.699010 2.980000 102 64 95
-0.678144 0.704226 2.980000 100 72 100
-0.678144 0.709443 2.980000 98 76 96
-0.672455 0.708664 2.955000 99 74 92
-0.672455 0.713836 2.955000 101 74 92
-0.666766 0.712926 2.930000 101 74 93
-0.655615 0.706047 2.881000 102 74 92
-0.650153 0.705166 2.857000 100 76 92
-0.639458 0.698485 2.810000 98 77 97
-0.639458 0.703404 2.810000 99 77 102
-0.634451 0.702777 2.788000 100 78 109
-0.629217 0.701819 2.765000 102 78 116
-0.624211 0.701037 2.743000 103 78 111
-0.619432 0.700435 2.722000 105 79 107
-0.609874 0.694319 2.680000 106 83 114
-0.605095 0.693532 2.659000 106 82 122
-0.600544 0.692936 2.639000 105 83 115
-0.595993 0.692269 2.619000 106 86 108
-0.591441 0.691532 2.599000 107 91 110
-0.587118 0.690992 2.580000 109 88 113
-0.582566 0.690117 2.560000 111 86 124
-0.578470 0.689715 2.542000 114 87 136
-0.578470 0.694164 2.542000 117 87 128
-0.574147 0.693392 2.523000 113 90 120
-0.570050 0.692831 2.505000 109 91 120
-0.565954 0.692206 2.487000 110 89 120
-0.561858 0.691518 2.469000 111 92 128
-0.553893 0.685976 2.434000 109 90 136
-0.550025 0.685415 2.417000 108 91 130
-0.546156 0.684796 2.400000 110 90 125
-0.538646 0.679523 2.367000 112 90 123
-0.535005 0.679045 2.351000 111 91 122
-0.535005 0.683161 2.351000 110 93 121
-0.531364 0.682599 2.335000 112 93 121
-0.527951 0.682275 2.320000 114 93 118
-0.524310 0.681603 2.304000 117 95 115
-0.520896 0.681172 2.289000 119 98 123
-0.514069 0.676199 2.259000 119 97 131
-0.507470 0.671422 2.230000 119 96 132
-0.504057 0.670783 2.215000 121 97 134
-0.504057 0.674660 2.215000 124 97 135
-0.500871 0.674249 2.201000 122 96 137
-0.497685 0.673789 2.187000 121 99 134
-0.497685 0.677617 2.187000 121 101 132
-0.494726 0.677395 2.174000 121 102 142
-0.491540 0.676813 2.160000 122 100 152
-0.485396 0.672087 2.133000 123 99 145
-0.485396 0.675821 2.133000 120 97 139
-0.482438 0.675413 2.120000 117 99 140
-0.479479 0.674960 2.107000 121 100 142
-0.470832 0.666408 2.069000 125 101 142
-0.468101 0.666144 2.057000 124 102 142
-0.459909 0.658024 2.021000 124 105 145
-0.457178 0.657633 2.009000 123 106 149
-0.457178 0.661150 2.009000 122 108 151
-0.454675 0.661027 1.998000 119 108 154
-0.454675 0.664525 1.998000 117 110 147
-0.454675 0.668023 1.998000 121 105 141
-0.451944 0.667487 1.986000 126 98 142
-0.449441 0.667247 1.975000 120 104 144
-0.446938 0.666969 1.964000 114 111 148
-0.444207 0.666310 1.952000 121 107 153
-0.436925 0.658748 1.920000 128 105 148
-0.432146 0.654867 1.899000 126 104 143
-0.429643 0.654379 1.888000 125 107 142
-0.427367 0.654201 1.878000 127 110 141
-0.427367 0.657488 1.878000 129 112 137
-0.425091 0.657257 1.868000 126 110 134
-0.425091 0.660527 1.868000 124 112 140
-0.422816 0.660243 1.858000 124 111 146
-0.420540 0.659925 1.848000 123 110 146
-0.418265 0.659571 1.838000 120 106 146
-0.411665 0.652331 1.809000 118 104 151
-0.409617 0.652236 1.800000 120 108 156
-0.405293 0.648469 1.781000 123 111 148
-0.405293 0.651587 1.781000 122 109 141
-0.403245 0.651396 1.772000 122 109 145
-0.403245 0.654498 1.772000 122 105 149
-0.401197 0.654260 1.763000 122 101 146
-0.399149 0.653990 1.754000 121 106 144
-0.395053 0.650318 1.736000 121 109 146
-0.393232 0.650346 1.728000 122 109 149
-0.391184 0.649968 1.719000 123 110 155
-0.389364 0.649938 1.711000 124 106 162
-0.387316 0.649499 1.702000 126 104 157
-0.385495 0.649411 1.694000 130 101 152
-0.383675 0.649296 1.686000 134 103 153
-0.381627 0.648765 1.677000 130 105 154
-0.379806 0.648592 1.669000 127 107 154
-0.897613 0.758448 3.975000 82 55 59
-0.867580 0.739796 3.842000 82 58 58
-0.858095 0.738361 3.800000 84 60 57
-0.848837 0.736975 3.759000 86 56 60
-0.839579 0.735445 3.718000 87 51 64
-0.830772 0.734170 3.679000 88 54 55
-0.821965 0.732759 3.640000 91 58 46
-0.813384 0.731415 3.602000 94 60 55
-0.813384 0.737720 3.602000 92 63 64
-0.805029 0.736383 3.565000 90 62 60
-0.805029 0.742624 3.565000 95 64 56
-0.796674 0.741092 3.528000 100 59 70
-0.796674 0.747268 3.528000 95 58 83
-0.772963 0.731019 3.423000 91 59 82
-0.758059 0.722801 3.357000 90 63 81
-0.750608 0.721514 3.324000 89 63 81
-0.743607 0.720550 3.293000 90 67 82
-0.743607 0.726314 3.293000 92 65 82
-0.743607 0.732078 3.293000 93 65 83
-0.729607 0.723951 3.231000 95 63 81
-0.722832 0.722832 3.201000 100 62 80
-0.722832 0.728436 3.201000 105 66 81
-0.709735 0.720739 3.143000 102 71 83
-0.697089 0.713301 3.087000 100 69 86
-0.690767 0.712186 3.059000 103 63 89
-0.684896 0.711442 3.033000 107 66 91
-0.684896 0.716751 3.033000 103 73 93
-0.678798 0.715633 3.006000 100 74 93
-0.678798 0.720895 3.006000 101 74 93
-0.667282 0.713836 2.955000 102 73 94
-0.661637 0.712926 2.930000 101 74 96
-0.655991 0.711928 2.905000 100 75 95
-0.645152 0.705166 2.857000 99 76 94
-0.639958 0.704450 2.834000 99 77 99
-0.634539 0.703404 2.810000 100 79 103
-0.634539 0.708323 2.810000 101 78 106
-0.624377 0.701819 2.765000 103 79 109
-0.619409 0.701037 2.743000 105 79 104
-0.614667 0.700435 2.722000 107 79 100
-0.609925 0.699759 2.701000 109 81 107
-0.605183 0.699010 2.680000 107 83 114
-0.600441 0.698187 2.659000 105 84 110
-0.591408 0.692269 2.619000 105 87 107
-0.586892 0.691532 2.599000 106 88 108
-0.582602 0.690992 2.580000 109 87 110
-0.578085 0.690117 2.560000 112 87 118
-0.574021 0.689715 2.542000 118 88 127
-0.574021 0.694164 2.542000 124 89 122
-0.569730 0.693392 2.523000 119 91 117
-0.565665 0.692831 2.505000 115 89 119
-0.561601 0.692206 2.487000 113 86 122
-0.557536 0.691518 2.469000 111 90 126
-0.553472 0.690767 2.451000 110 90 131
-0.545794 0.685415 2.417000 110 90 128
-0.541955 0.684796 2.400000 110 90 125
-0.538342 0.684404 2.384000 111 90 119
-0.534503 0.683667 2.367000 109 92 113
-0.530890 0.683161 2.351000 108 94 117
-0.527277 0.682599 2.335000 111 95 122
-0.527277 0.686686 2.335000 115 95 121
-0.523890 0.686336 2.320000 118 95 121
-0.513502 0.676708 2.274000 122 96 125
-0.510115 0.676199 2.259000 120 96 130
-0.506728 0.675637 2.244000 118 95 130
-0.500179 0.670783 2.215000 120 98 131
-0.500179 0.674660 2.215000 122 98 133
-0.497018 0.674249 2.201000 121 96 136
-0.493856 0.673789 2.187000 121 98 131
-0.490921 0.673589 2.174000 123 101 126
-0.490921 0.677395 2.174000 126 101 134
-0.487759 0.676813 2.160000 124 102 143
-0.484824 0.676498 2.147000 122 100 141
-0.484824 0.680257 2.147000 117 99 138
-0.478727 0.675413 2.120000 113 101 140
-0.470146 0.666951 2.082000 121 103 142
-0.467210 0.666408 2.069000 129 101 140
-0.464501 0.666144 2.057000 127 100 138
-0.459081 0.661931 2.033000 125 105 144
-0.453661 0.657633 2.009000 123 108 150
-0.453661 0.661150 2.009000 122 108 150
-0.451177 0.661027 1.998000 118 109 149
-0.451177 0.664525 1.998000 114 108 143
-0.448468 0.664010 1.986000 123 104 137
-0.448468 0.667487 1.986000 133 104 140
-0.445984 0.667247 1.975000 126 110 144
-0.443500 0.666969 1.964000 120 108 146
-0.438306 0.662556 1.941000 122 108 148
-0.433564 0.658748 1.920000 124 106 144
-0.431080 0.658316 1.909000 125 105 140
-0.428822 0.658192 1.899000 126 106 142
-0.426338 0.657684 1.888000 129 109 144
-0.424080 0.657488 1.878000 132 109 145
-0.424080 0.660775 1.878000 128 107 147
-0.421822 0.660527 1.868000 125 110 147
-0.419563 0.660243 1.858000 124 116 147
-0.417305 0.659925 1.848000 124 111 146
-0.415047 0.659571 1.838000 124 107 146
-0.408499 0.652331 1.809000 125 106 149
-0.406466 0.652236 1.800000 124 109 152
-0.402176 0.648469 1.781000 124 111 148
-0.402176 0.651587 1.781000 124 111 144
-0.400143 0.651396 1.772000 124 107 149
-0.400143 0.654498 1.772000 123 106 154
-0.398111 0.654260 1.763000 123 105 149
-0.396079 0.653990 1.754000 121 109 145
-0.392014 0.650318 1.736000 119 109 147
-0.390208 0.650346 1.728000 122 112 149
-0.388175 0.649968 1.719000 125 110 152
-0.386369 0.649938 1.711000 126 108 156
-0.384336 0.649499 1.702000 128 106 153
-0.384336 0.652478 1.702000 134 101 150
-0.380723 0.649296 1.686000 140 105 151
-0.378691 0.648765 1.677000 133 110 151
-0.376884 0.648592 1.669000 127 108 154
-0.890654 0.751490 3.975000 81 52 58
-0.890654 0.758448 3.975000 79 57 61
-0.860854 0.739796 3.842000 77 60 58
-0.842257 0.730395 3.759000 81 57 56
-0.842257 0.736975 3.759000 85 58 55
-0.833070 0.735445 3.718000 85 56 54
-0.824332 0.734170 3.679000 85 55 45
-0.815593 0.732759 3.640000 88 58 36
-0.807079 0.731415 3.602000 92 60 47
-0.807079 0.737720 3.602000 91 61 59
-0.798788 0.736383 3.565000 89 62 50
-0.798788 0.742624 3.565000 93 62 41
-0.790498 0.741092 3.528000 96 60 56
-0.782656 0.739854 3.493000 93 60 72
-0.766971 0.731019 3.423000 90 63 75
-0.759577 0.729906 3.390000 90 63 78
-0.752183 0.728677 3.357000 90 67 81
-0.744789 0.727333 3.324000 90 66 84
-0.737843 0.726314 3.293000 91 64 85
-0.737843 0.732078 3.293000 92 64 86
-0.723951 0.723951 3.231000 93 64 84
-0.717229 0.722832 3.201000 96 64 82
-0.710731 0.721836 3.172000 100 65 82
-0.704233 0.720739 3.143000 98 70 82
-0.691686 0.713301 3.087000 96 74 85
-0.685412 0.712186 3.059000 99 68 88
-0.679586 0.711442 3.033000 103 66 87
-0.679586 0.716751 3.033000 101 72 87
-0.673536 0.715633 3.006000 100 76 90
-0.667711 0.714659 2.980000 102 74 94
-0.662109 0.713836 2.955000 105 73 96
-0.662109 0.719009 2.955000 98 76 99
-0.650906 0.711928 2.905000 91 78 98
-0.645528 0.711090 2.881000 94 77 97
-0.634997 0.704450 2.834000 97 77 101
-0.629620 0.703404 2.810000 97 78 105
-0.629620 0.708323 2.810000 97 79 104
-0.619537 0.701819 2.765000 101 80 103
-0.614608 0.701037 2.743000 105 82 98
-0.605197 0.695031 2.701000 105 80 93
-0.600492 0.694319 2.680000 106 81 100
-0.600492 0.699010 2.680000 104 82 107
-0.591305 0.692936 2.639000 102 83 106
-0.591305 0.697555 2.639000 104 86 106
-0.586824 0.696853 2.619000 106 88 106
-0.582342 0.696081 2.599000 108 88 107
-0.578085 0.695509 2.580000 111 88 112
-0.573604 0.694599 2.560000 114 89 118
-0.569571 0.694164 2.542000 118 90 116
-0.565313 0.693392 2.523000 115 90 114
-0.561280 0.692831 2.505000 112 88 119
-0.557247 0.692206 2.487000 111 88 124
-0.549181 0.686476 2.451000 110 93 125
-0.541563 0.681185 2.417000 106 92 127
-0.541563 0.685415 2.417000 103 91 126
-0.537754 0.684796 2.400000 107 89 125
-0.534169 0.684404 2.384000 110 90 115
-0.530360 0.683667 2.367000 107 93 105
-0.526774 0.683161 2.351000 104 97 114
-0.523189 0.682599 2.335000 109 97 123
-0.523189 0.686686 2.335000 114 99 125
-0.516244 0.681603 2.304000 117 97 128
-0.509522 0.676708 2.274000 120 97 128
-0.506161 0.676199 2.259000 118 94 129
-0.502800 0.675637 2.244000 117 90 128
-0.499663 0.675325 2.230000 117 98 128
-0.496302 0.674660 2.215000 118 104 131
-0.493165 0.674249 2.201000 118 100 135
-0.490028 0.673789 2.187000 119 96 127
-0.490028 0.677617 2.187000 121 100 120
-0.487115 0.677395 2.174000 123 102 127
-0.483978 0.676813 2.160000 123 101 135
-0.481065 0.676498 2.147000 122 103 136
-0.481065 0.680257 2.147000 120 103 138
-0.477929 0.679555 2.133000 118 105 140
-0.469414 0.671116 2.095000 122 104 142
-0.463588 0.666408 2.069000 126 103 138
-0.463588 0.670030 2.069000 125 104 134
-0.458211 0.665838 2.045000 124 107 143
-0.452833 0.661561 2.021000 124 109 152
-0.450145 0.661150 2.009000 123 109 148
-0.448800 0.662682 2.003000 120 109 145
-0.447680 0.664525 1.998000 117 111 139
-0.444991 0.664010 1.986000 123 106 133
-0.444991 0.667487 1.986000 129 104 139
-0.442526 0.667247 1.975000 126 105 145
-0.440062 0.666969 1.964000 123 105 144
-0.434908 0.662556 1.941000 123 107 143
-0.432668 0.662522 1.931000 124 108 140
-0.427738 0.658316 1.909000 125 106 137
-0.425498 0.658192 1.899000 126 106 142
-0.423033 0.657684 1.888000 128 110 147
-0.420792 0.657488 1.878000 130 111 154
-0.420792 0.660775 1.878000 128 108 161
-0.418552 0.660527 1.868000 126 107 155
-0.416311 0.660243 1.858000 126 110 149
-0.414070 0.659925 1.848000 126 113 147
-0.409589 0.655982 1.828000 128 107 146
-0.405332 0.652331 1.809000 130 104 147
-0.403315 0.652236 1.800000 126 109 148
-0.401075 0.651746 1.790000 122 114 148
-0.399058 0.651587 1.781000 124 109 148
-0.397041 0.651396 1.772000 127 102 153
-0.397041 0.654498 1.772000 125 103 159
-0.395025 0.654260 1.763000 124 105 153
-0.393008 0.653990 1.754000 123 107 147
-0.388975 0.650318 1.736000 122 109 148
-0.387183 0.650346 1.728000 123 111 149
-0.385166 0.649968 1.719000 123 111 150
-0.383373 0.649938 1.711000 125 109 151
-0.381357 0.649499 1.702000 127 111 150
-0.379564 0.649411 1.694000 131 107 149
-0.377772 0.649296 1.686000 134 109 149
-0.375755 0.648765 1.677000 130 110 149
-0.373963 0.648592 1.669000 126 112 154
-0.883696 0.751490 3.975000 81 56 66
-0.883696 0.758448 3.975000 77 62 70
-0.854129 0.739796 3.842000 73 57 64
-0.844791 0.738361 3.800000 79 51 58
-0.835676 0.736975 3.759000 85 57 57
-0.826562 0.735445 3.718000 83 60 57
-0.817891 0.734170 3.679000 82 59 54
-0.809221 0.732759 3.640000 86 61 52
-0.800773 0.731415 3.602000 91 60 63
-0.800773 0.737720 3.602000 90 60 75
-0.792548 0.736383 3.565000 89 62 67
-0.784322 0.734916 3.528000 91 64 58
-0.784322 0.741092 3.528000 93 62 66
-0.768760 0.732441 3.458000 91 61 74
-0.760979 0.731019 3.423000 89 62 76
-0.753643 0.729906 3.390000 90 62 79
-0.746307 0.728677 3.357000 91 64 80
-0.738970 0.727333 3.324000 90 66 81
-0.732078 0.726314 3.293000 90 66 86
-0.725187 0.725187 3.262000 91 64 90
-0.718295 0.723951 3.231000 92 66 86
-0.711626 0.722832 3.201000 93 67 82
-0.705178 0.721836 3.172000 95 69 83
-0.692507 0.714318 3.115000 93 73 83
-0.686282 0.713301 3.087000 92 73 84
-0.680057 0.712186 3.059000 95 71 84
-0.674277 0.711442 3.033000 99 71 85
-0.668274 0.710371 3.006000 99 76 86
-0.668274 0.715633 3.006000 100 77 90
-0.662494 0.714659 2.980000 104 76 95
-0.656937 0.713836 2.955000 108 76 99
-0.656937 0.719009 2.955000 95 79 104
-0.645821 0.711928 2.905000 82 78 97
-0.640485 0.711090 2.881000 88 79 91
-0.635150 0.710167 2.857000 95 78 101
-0.630037 0.709411 2.834000 94 79 111
-0.624701 0.708323 2.810000 93 80 107
-0.614697 0.701819 2.765000 99 83 104
-0.609806 0.701037 2.743000 105 82 101
-0.600469 0.695031 2.701000 104 81 99
-0.595800 0.694319 2.680000 104 82 105
-0.591132 0.693532 2.659000 102 84 111
-0.586685 0.692936 2.639000 100 85 108
-0.582239 0.692269 2.619000 103 87 104
-0.582239 0.696853 2.619000 107 88 103
-0.577793 0.696081 2.599000 108 89 102
-0.573569 0.695509 2.580000 110 88 109
-0.569123 0.694599 2.560000 111 90 115
-0.565121 0.694164 2.542000 113 91 113
-0.556895 0.688446 2.505000 111 93 110
-0.552894 0.687852 2.487000 109 90 116
-0.548892 0.687196 2.469000 109 88 122
-0.544890 0.686476 2.451000 109 92 120
-0.541111 0.685976 2.434000 103 95 119
-0.537332 0.685415 2.417000 97 92 122
-0.533552 0.684796 2.400000 103 87 126
-0.529995 0.684404 2.384000 110 90 121
-0.526216 0.683667 2.367000 105 95 116
-0.522659 0.683161 2.351000 101 96 120
-0.519102 0.682599 2.335000 107 98 124
-0.515767 0.682275 2.320000 114 98 127
-0.512210 0.681603 2.304000 116 99 130
-0.505541 0.676708 2.274000 118 97 130
-0.502206 0.676199 2.259000 117 96 129
-0.498872 0.675637 2.244000 116 96 130
-0.495759 0.675325 2.230000 115 103 130
-0.492424 0.674660 2.215000 114 104 134
-0.489312 0.674249 2.201000 115 107 137
-0.486200 0.673789 2.187000 117 104 135
-0.483310 0.673589 2.174000 119 104 133
-0.480197 0.673032 2.160000 121 100 135
-0.477307 0.672740 2.147000 122 99 137
-0.477307 0.676498 2.147000 123 101 138
-0.474195 0.675821 2.133000 123 105 140
-0.471305 0.675413 2.120000 123 104 143
-0.465747 0.671116 2.095000 123 105 146
-0.462857 0.670596 2.082000 123 104 143
-0.457299 0.666144 2.057000 123 106 141
-0.454631 0.665838 2.045000 124 108 147
-0.449296 0.661561 2.021000 124 113 154
-0.446628 0.661150 2.009000 125 111 150
-0.446628 0.664667 2.009000 123 110 146
-0.445294 0.666188 2.003000 121 110 141
-0.441515 0.664010 1.986000 123 108 136
-0.439069 0.663790 1.975000 125 105 140
-0.436624 0.663531 1.964000 125 103 145
-0.433956 0.662893 1.952000 126 105 145
-0.431511 0.662556 1.941000 125 108 145
-0.429287 0.662522 1.931000 125 107 142
-0.424397 0.658316 1.909000 126 108 140
-0.422173 0.658192 1.899000 127 109 143
-0.419728 0.657684 1.888000 127 114 147
-0.417505 0.657488 1.878000 128 111 152
-0.417505 0.660775 1.878000 128 107 158
-0.415282 0.660527 1.868000 128 105 154
-0.413059 0.660243 1.858000 128 106 150
-0.408612 0.656354 1.838000 129 107 149
-0.406389 0.655982 1.828000 132 106 149
-0.402165 0.652331 1.809000 135 106 148
-0.400164 0.652236 1.800000 127 111 148
-0.397941 0.651746 1.790000 120 112 148
-0.397941 0.654880 1.790000 125 112 148
-0.395940 0.654705 1.781000 130 104 152
-0.393940 0.654498 1.772000 127 99 155
-0.391939 0.654260 1.763000 125 103 149
-0.389938 0.653990 1.754000 125 106 143
-0.385936 0.650318 1.736000 126 109 146
-0.384158 0.650346 1.728000 124 112 150
-0.382157 0.649968 1.719000 122 110 151
-0.380378 0.649938 1.711000 124 108 152
-0.378378 0.649499 1.702000 127 108 150
-0.378378 0.652478 1.702000 128 108 149
-0.376599 0.652376 1.694000 129 109 145
-0.372820 0.648765 1.677000 127 112 142
-0.371041 0.648592 1.669000 125 113 148
-0.876738 0.751490 3.975000 81 56 73
-0.876738 0.758448 3.975000 80 57 80
-0.847403 0.739796 3.842000 79 56 70
-0.838140 0.738361 3.800000 83 55 60
-0.829096 0.736975 3.759000 88 60 60
-0.829096 0.743555 3.759000 87 60 61
-0.811452 0.734170 3.679000 87 62 64
-0.802850 0.732759 3.640000 92 60 68
-0.802850 0.739131 3.640000 97 60 80
-0.794468 0.737720 3.602000 91 60 92
-0.786307 0.736383 3.565000 86 62 84
-0.778146 0.734916 3.528000 88 64 76
-0.778146 0.741092 3.528000 91 66 76
-0.762707 0.732441 3.458000 90 63 76
-0.754987 0.731019 3.423000 89 64 78
-0.747709 0.729906 3.390000 89 62 81
-0.740430 0.728677 3.357000 90 61 80
-0.733152 0.727333 3.324000 90 67 79
-0.726314 0.726314 3.293000 91 71 87
-0.719477 0.725187 3.262000 91 68 95
-0.712639 0.723951 3.231000 92 70 89
-0.706022 0.722832 3.201000 93 69 83
-0.706022 0.728436 3.201000 95 72 84
-0.693230 0.720739 3.143000 94 73 85
-0.687054 0.719771 3.115000 94 77 83
-0.674702 0.712186 3.059000 95 73 81
-0.668968 0.711442 3.033000 97 71 83
-0.668968 0.716751 3.033000 97 76 85
-0.657278 0.709443 2.980000 96 82 91
-0.657278 0.714659 2.980000 99 79 97
-0.651764 0.713836 2.955000 102 79 103
-0.646250 0.712926 2.930000 96 79 109
-0.640736 0.711928 2.905000 89 79 97
-0.635442 0.711090 2.881000 94 78 85
-0.630149 0.710167 2.857000 98 78 101
-0.625076 0.709411 2.834000 98 79 117
-0.619782 0.708323 2.810000 98 80 111
-0.609857 0.701819 2.765000 104 82 105
-0.605004 0.701037 2.743000 110 83 105
-0.595741 0.695031 2.701000 107 81 105
-0.586477 0.688878 2.659000 104 83 110
-0.582066 0.688316 2.639000 103 86 116
-0.577655 0.687684 2.619000 103 87 109
-0.577655 0.692269 2.619000 105 87 103
-0.573243 0.691532 2.599000 107 88 100
-0.573243 0.696081 2.599000 108 87 98
-0.569053 0.695509 2.580000 109 85 105
-0.564641 0.694599 2.560000 110 90 113
-0.564641 0.699080 2.560000 111 93 110
-0.552510 0.688446 2.505000 109 91 107
-0.548540 0.687852 2.487000 108 91 114
-0.544570 0.687196 2.469000 109 90 121
-0.540600 0.686476 2.451000 110 92 116
-0.536850 0.685976 2.434000 107 94 111
-0.533101 0.685415 2.417000 105 97 119
-0.529351 0.684796 2.400000 108 91 127
-0.525822 0.684404 2.384000 111 90 127
-0.522073 0.683667 2.367000 109 92 127
-0.518544 0.683161 2.351000 108 94 126
-0.518544 0.687276 2.351000 111 96 125
-0.515015 0.686686 2.335000 115 99 129
-0.508177 0.681603 2.304000 116 98 133
-0.501560 0.676708 2.274000 116 98 131
-0.498252 0.676199 2.259000 117 97 130
-0.494944 0.675637 2.244000 117 98 131
-0.488547 0.670783 2.215000 117 100 133
-0.485459 0.670396 2.201000 117 103 136
-0.482371 0.669960 2.187000 118 106 140
-0.482371 0.673789 2.187000 118 110 143
-0.479504 0.673589 2.174000 119 105 146
-0.476416 0.673032 2.160000 120 98 142
-0.473549 0.672740 2.147000 122 99 139
-0.470461 0.672087 2.133000 124 100 140
-0.467594 0.671702 2.120000 127 101 142
-0.464726 0.671271 2.107000 130 102 146
-0.459212 0.666951 2.082000 128 103 151
-0.456345 0.666408 2.069000 125 104 149
-0.453698 0.666144 2.057000 125 106 148
-0.451051 0.665838 2.045000 125 108 152
-0.448405 0.665489 2.033000 127 110 157
-0.445758 0.665099 2.021000 129 112 152
-0.443111 0.664667 2.009000 124 111 147
-0.443111 0.668183 2.009000 120 113 143
-0.440685 0.668023 1.998000 122 110 139
-0.438038 0.667487 1.986000 124 108 142
-0.433186 0.663531 1.964000 125 105 146
-0.430539 0.662893 1.952000 126 105 146
-0.428113 0.662556 1.941000 127 106 147
-0.425907 0.662522 1.931000 129 106 145
-0.421055 0.658316 1.909000 128 107 144
-0.418849 0.658192 1.899000 128 110 145
-0.416423 0.657684 1.888000 130 112 147
-0.414217 0.657488 1.878000 133 113 151
-0.412012 0.657257 1.868000 131 108 156
-0.412012 0.660527 1.868000 129 102 153
-0.409806 0.660243 1.858000 129 105 151
-0.405395 0.656354 1.838000 129 106 151
-0.403189 0.655982 1.828000 130 106 152
-0.398999 0.652331 1.809000 131 106 150
-0.397013 0.652236 1.800000 126 110 148
-0.394808 0.651746 1.790000 121 112 148
-0.394808 0.654880 1.790000 124 110 149
-0.392823 0.654705 1.781000 127 106 150
-0.390838 0.654498 1.772000 125 102 152
-0.388853 0.654260 1.763000 124 102 145
-0.386868 0.653990 1.754000 124 106 139
-0.382897 0.650318 1.736000 124 111 145
-0.381133 0.650346 1.728000 124 112 151
-0.379148 0.649968 1.719000 124 112 152
-0.377383 0.649938 1.711000 128 109 154
-0.377383 0.652933 1.711000 132 107 151
-0.375398 0.652478 1.702000 130 107 149
-0.373634 0.652376 1.694000 128 108 142
-0.371869 0.652247 1.686000 126 111 136
-0.368120 0.648592 1.669000 125 113 142
-0.869780 0.751490 3.975000 82 54 66
-0.869780 0.758448 3.975000 84 54 71
-0.850087 0.748076 3.885000 86 54 65
-0.831488 0.738361 3.800000 88 56 60
-0.822516 0.736975 3.759000 91 58 61
-0.822516 0.743555 3.759000 92 61 61
-0.805011 0.734170 3.679000 93 60 64
-0.805011 0.740610 3.679000 98 59 68
-0.796478 0.739131 3.640000 104 58 76
-0.788163 0.737720 3.602000 93 58 84
-0.780067 0.736383 3.565000 83 60 81
-0.771971 0.734916 3.528000 86 64 77
-0.771971 0.741092 3.528000 90 65 76
-0.756654 0.732441 3.458000 89 64 76
-0.748995 0.731019 3.423000 89 63 76
-0.741774 0.729906 3.390000 89 63 77
-0.734554 0.728677 3.357000 89 65 74
-0.727333 0.727333 3.324000 90 72 70
-0.720550 0.726314 3.293000 92 69 79
-0.713766 0.725187 3.262000 92 69 88
-0.706983 0.723951 3.231000 92 68 81
-0.700419 0.722832 3.201000 94 67 75
-0.694073 0.721836 3.172000 96 71 80
-0.681601 0.714318 3.115000 96 73 85
-0.675474 0.713301 3.087000 96 75 84
-0.669348 0.712186 3.059000 96 76 84
-0.669348 0.717541 3.059000 96 74 85
-0.663658 0.716751 3.033000 94 77 87
-0.652061 0.709443 2.980000 93 80 92
-0.652061 0.714659 2.980000 95 82 97
-0.646591 0.713836 2.955000 97 80 101
-0.641121 0.712926 2.930000 97 82 106
-0.635650 0.711928 2.905000 97 79 98
-0.630399 0.711090 2.881000 99 77 91
-0.625147 0.710167 2.857000 102 77 100
-0.620115 0.709411 2.834000 103 79 110
-0.614863 0.708323 2.810000 104 81 104
-0.610049 0.707657 2.788000 109 83 99
-0.605017 0.706660 2.765000 115 82 101
-0.591013 0.695031 2.701000 110 80 104
-0.586418 0.694319 2.680000 105 83 108
-0.581822 0.693532 2.659000 105 90 113
-0.577446 0.692936 2.639000 106 88 108
-0.573070 0.692269 2.619000 107 87 104
-0.568694 0.691532 2.599000 108 87 104
-0.568694 0.696081 2.599000 108 87 104
-0.564536 0.695509 2.580000 108 88 111
-0.560160 0.694599 2.560000 108 92 117
-0.556221 0.694164 2.542000 109 91 115
-0.548125 0.688446 2.505000 108 90 114
-0.544187 0.687852 2.487000 107 91 118
-0.536309 0.682186 2.451000 109 92 122
-0.536309 0.686476 2.451000 111 91 118
-0.528870 0.681185 2.417000 112 94 115
-0.525150 0.680595 2.400000 113 94 120
-0.521649 0.680230 2.384000 113 93 125
-0.521649 0.684404 2.384000 113 92 126
-0.517929 0.683667 2.367000 114 92 127
-0.514428 0.683161 2.351000 115 94 127
-0.510927 0.682599 2.335000 116 96 127
-0.507645 0.682275 2.320000 117 97 132
-0.504144 0.681603 2.304000 116 99 137
-0.497580 0.676708 2.274000 115 97 135
-0.494297 0.676199 2.259000 117 96 133
-0.491015 0.675637 2.244000 119 98 134
-0.487952 0.675325 2.230000 120 98 134
-0.484670 0.674660 2.215000 121 102 137
-0.481606 0.674249 2.201000 120 106 140
-0.478543 0.673789 2.187000 120 107 141
-0.472635 0.669251 2.160000 120 108 143
-0.469790 0.668982 2.147000 120 103 140
-0.466727 0.668353 2.133000 122 101 138
-0.463883 0.667991 2.120000 125 101 140
-0.463883 0.671702 2.120000 131 100 142
-0.461038 0.671271 2.107000 138 102 145
-0.455568 0.666951 2.082000 133 103 148
-0.452723 0.666408 2.069000 128 104 146
-0.450097 0.666144 2.057000 127 107 144
-0.447472 0.665838 2.045000 127 107 149
-0.444846 0.665489 2.033000 130 107 154
-0.442220 0.665099 2.021000 134 110 151
-0.439594 0.664667 2.009000 126 112 148
-0.439594 0.668183 2.009000 119 112 145
-0.438281 0.669694 2.003000 121 113 143
-0.437187 0.671520 1.998000 124 109 144
-0.432155 0.667247 1.975000 125 104 146
-0.429748 0.666969 1.964000 126 105 148
-0.427122 0.666310 1.952000 129 106 151
-0.422527 0.662522 1.931000 133 107 148
-0.417713 0.658316 1.909000 131 107 146
-0.415525 0.658192 1.899000 130 109 147
-0.413118 0.657684 1.888000 134 112 149
-0.410930 0.657488 1.878000 138 112 157
-0.408742 0.657257 1.868000 134 111 166
-0.406554 0.656991 1.858000 130 108 158
-0.404366 0.656690 1.848000 129 107 151
-0.402177 0.656354 1.838000 129 108 151
-0.399989 0.655982 1.828000 128 108 150
-0.395832 0.652331 1.809000 127 109 150
-0.393862 0.652236 1.800000 124 113 149
-0.393862 0.655387 1.800000 122 112 150
-0.391674 0.654880 1.790000 123 110 151
-0.389705 0.654705 1.781000 124 108 154
-0.387736 0.654498 1.772000 124 104 158
-0.385766 0.654260 1.763000 124 104 151
-0.383797 0.653990 1.754000 123 107 145
-0.379859 0.650318 1.736000 123 110 150
-0.378108 0.650346 1.728000 124 113 155
-0.378108 0.653371 1.728000 126 111 155
-0.376139 0.652977 1.719000 132 111 155
-0.374388 0.652933 1.711000 138 110 154
-0.372419 0.652478 1.702000 133 108 153
-0.370668 0.652376 1.694000 128 108 149
-0.368918 0.652247 1.686000 126 111 146
-0.365198 0.648592 1.669000 125 111 149
-0.862822 0.751490 3.975000 81 53 59
-0.862822 0.758448 3.975000 84 53 62
-0.843286 0.748076 3.885000 86 53 61
-0.824836 0.738361 3.800000 88 54 61
-0.824836 0.745013 3.800000 91 57 61
-0.815936 0.743555 3.759000 91 58 62
-0.798571 0.734170 3.679000 91 60 65
-0.798571 0.740610 3.679000 94 57 68
-0.790106 0.739131 3.640000 97 56 72
-0.781857 0.737720 3.602000 92 59 77
-0.773826 0.736383 3.565000 86 57 78
-0.773826 0.742624 3.565000 88 63 79
-0.765795 0.741092 3.528000 90 68 77
-0.750601 0.732441 3.458000 91 64 76
-0.743003 0.731019 3.423000 93 63 75
-0.743003 0.737011 3.423000 91 63 74
-0.735840 0.735840 3.390000 90 65 68
-0.721514 0.727333 3.324000 91 68 62
-0.714785 0.726314 3.293000 91 67 71
-0.708056 0.725187 3.262000 94 67 81
-0.694816 0.717229 3.201000 97 67 74
-0.688521 0.716284 3.172000 97 69 68
-0.688521 0.721836 3.172000 97 72 76
-0.676148 0.714318 3.115000 97 73 85
-0.676148 0.719771 3.115000 96 74 86
-0.670071 0.718705 3.087000 97 74 88
-0.663993 0.717541 3.059000 99 74 88
-0.658349 0.716751 3.033000 97 76 89
-0.652488 0.715633 3.006000 95 82 93
-0.641418 0.708664 2.955000 96 81 98
-0.641418 0.713836 2.955000 97 80 100
-0.635992 0.712926 2.930000 97 81 103
-0.630565 0.711928 2.905000 98 80 100
-0.625356 0.711090 2.881000 100 77 98
-0.625356 0.716133 2.881000 103 76 100
-0.620146 0.715169 2.857000 104 79 103
-0.615154 0.714372 2.834000 105 83 98
-0.605169 0.707657 2.788000 108 84 94
-0.600177 0.706660 2.765000 111 85 98
-0.590843 0.700435 2.722000 108 81 103
-0.581726 0.694319 2.680000 105 80 106
-0.577168 0.693532 2.659000 108 86 110
-0.572827 0.692936 2.639000 111 89 107
-0.568485 0.692269 2.619000 109 87 105
-0.564144 0.691532 2.599000 108 87 108
-0.564144 0.696081 2.599000 105 88 111
-0.560020 0.695509 2.580000 102 90 116
-0.555679 0.694599 2.560000 105 90 122
-0.551772 0.694164 2.542000 109 90 121
-0.543740 0.688446 2.505000 109 91 121
-0.539833 0.687852 2.487000 110 94 122
-0.532019 0.682186 2.451000 111 91 124
-0.532019 0.686476 2.451000 113 89 121
-0.524639 0.681185 2.417000 115 92 119
-0.520949 0.680595 2.400000 117 94 121
-0.517476 0.680230 2.384000 116 93 123
-0.513786 0.679523 2.367000 114 93 125
-0.510313 0.679045 2.351000 116 92 128
-0.510313 0.683161 2.351000 117 94 128
-0.506840 0.682599 2.335000 118 95 129
-0.503584 0.682275 2.320000 118 96 135
-0.500111 0.681603 2.304000 114 97 141
-0.493599 0.676708 2.274000 111 97 139
-0.490343 0.676199 2.259000 114 98 137
-0.487087 0.675637 2.244000 118 102 136
-0.480792 0.670783 2.215000 120 100 136
-0.477754 0.670396 2.201000 122 102 138
-0.477754 0.674249 2.201000 123 104 140
-0.474715 0.673789 2.187000 125 107 140
-0.471893 0.673589 2.174000 123 106 141
-0.466032 0.668982 2.147000 121 107 139
-0.462993 0.668353 2.133000 123 104 137
-0.460172 0.667991 2.120000 124 103 140
-0.457350 0.667583 2.107000 128 102 143
-0.457350 0.671271 2.107000 132 103 144
-0.454745 0.671116 2.095000 130 103 146
-0.451923 0.670596 2.082000 129 105 143
-0.446497 0.666144 2.057000 128 105 141
-0.441287 0.661931 2.033000 127 106 146
-0.438682 0.661561 2.021000 130 109 151
-0.438682 0.665099 2.021000 132 112 150
-0.436078 0.664667 2.009000 127 110 149
-0.436078 0.668183 2.009000 121 110 148
-0.436078 0.671700 2.009000 122 111 147
-0.433690 0.671520 1.998000 124 113 147
-0.428698 0.667247 1.975000 125 109 147
-0.423705 0.662893 1.952000 126 106 151
-0.421317 0.662556 1.941000 127 107 155
-0.419147 0.662522 1.931000 128 111 152
-0.414371 0.658316 1.909000 128 108 149
-0.412201 0.658192 1.899000 128 110 150
-0.409813 0.657684 1.888000 131 112 151
-0.407643 0.657488 1.878000 133 113 163
-0.405472 0.657257 1.868000 129 112 176
-0.403301 0.656991 1.858000 126 113 164
-0.398960 0.653136 1.838000 127 110 152
-0.396789 0.652783 1.828000 128 111 150
-0.396789 0.655982 1.828000 126 110 149
-0.392665 0.652331 1.809000 125 111 150
-0.390712 0.652236 1.800000 124 112 151
-0.390712 0.655387 1.800000 122 114 152
-0.388541 0.654880 1.790000 124 112 153
-0.386588 0.654705 1.781000 125 115 158
-0.384634 0.654498 1.772000 123 109 164
-0.382680 0.654260 1.763000 122 106 157
-0.378773 0.650635 1.745000 119 107 151
-0.376820 0.650318 1.736000 117 110 155
-0.375083 0.650346 1.728000 121 110 160
-0.375083 0.653371 1.728000 125 109 158
-0.373130 0.652977 1.719000 129 111 156
-0.371393 0.652933 1.711000 133 116 157
-0.371393 0.655928 1.711000 130 111 158
-0.367703 0.652376 1.694000 127 105 157
-0.365967 0.652247 1.686000 126 108 156
-0.364013 0.651701 1.677000 125 109 156
-0.855863 0.751490 3.975000 81 54 54
-0.855863 0.758448 3.975000 84 55 53
-0.836485 0.748076 3.885000 87 53 51
-0.818184 0.738361 3.800000 89 52 49
-0.818184 0.745013 3.800000 91 55 54
-0.809356 0.743555 3.759000 90 55 59
-0.800528 0.741953 3.718000 90 57 57
-0.792131 0.740610 3.679000 90 55 55
-0.783734 0.739131 3.640000 91 60 62
-0.775552 0.737720 3.602000 90 67 69
-0.767586 0.736383 3.565000 90 63 69
-0.759619 0.734916 3.528000 90 65 69
-0.752083 0.733740 3.493000 91 64 72
-0.744547 0.732441 3.458000 94 63 75
-0.737011 0.731019 3.423000 97 62 78
-0.737011 0.737011 3.423000 94 62 81
-0.729906 0.735840 3.390000 92 66 75
-0.722801 0.734554 3.357000 91 71 69
-0.709021 0.726314 3.293000 91 69 76
-0.695671 0.718295 3.231000 97 67 83
-0.689212 0.717229 3.201000 103 69 82
-0.682968 0.716284 3.172000 101 70 82
-0.682968 0.721836 3.172000 99 72 85
-0.676724 0.720739 3.143000 98 75 87
-0.670695 0.719771 3.115000 97 74 91
-0.658638 0.712186 3.059000 99 74 95
-0.658638 0.717541 3.059000 102 74 92
-0.653040 0.716751 3.033000 99 74 90
-0.641628 0.709443 2.980000 97 78 90
-0.636246 0.708664 2.955000 97 82 91
-0.630863 0.707797 2.930000 97 81 98
-0.625480 0.706843 2.905000 98 83 106
-0.620312 0.706047 2.881000 99 80 101
-0.620312 0.711090 2.881000 102 77 95
-0.615145 0.710167 2.857000 105 77 98
-0.615145 0.715169 2.857000 106 81 100
-0.605025 0.708323 2.810000 107 82 95
-0.600288 0.707657 2.788000 107 86 90
-0.590599 0.701037 2.743000 108 83 96
-0.577035 0.689627 2.680000 107 80 101
-0.572513 0.688878 2.659000 106 83 104
-0.568207 0.688316 2.639000 111 88 108
-0.568207 0.692936 2.639000 116 87 104
-0.563901 0.692269 2.619000 112 87 100
-0.559595 0.691532 2.599000 109 88 105
-0.559595 0.696081 2.599000 102 91 110
-0.559595 0.700631 2.599000 96 91 114
-0.551197 0.694599 2.560000 102 91 118
-0.547322 0.694164 2.542000 109 91 116
-0.539355 0.688446 2.505000 111 91 115
-0.535480 0.687852 2.487000 114 91 118
-0.527728 0.682186 2.451000 114 89 121
-0.527728 0.686476 2.451000 115 89 118
-0.520408 0.681185 2.417000 118 92 116
-0.516748 0.680595 2.400000 122 93 118
-0.513303 0.680230 2.384000 119 95 121
-0.509642 0.679523 2.367000 116 92 124
-0.506197 0.679045 2.351000 118 90 128
-0.502752 0.678511 2.335000 120 93 128
-0.502752 0.682599 2.335000 120 94 129
-0.499523 0.682275 2.320000 120 94 134
-0.496078 0.681603 2.304000 113 96 138
-0.492848 0.681172 2.289000 107 97 136
-0.489618 0.680689 2.274000 112 99 135
-0.483159 0.675637 2.244000 118 100 135
-0.480145 0.675325 2.230000 120 100 135
-0.476915 0.674660 2.215000 123 101 137
-0.473901 0.674249 2.201000 126 104 139
-0.470886 0.673789 2.187000 130 104 140
-0.468087 0.673589 2.174000 126 105 140
-0.465073 0.673032 2.160000 123 106 138
-0.459259 0.668353 2.133000 123 106 137
-0.456460 0.667991 2.120000 124 104 138
-0.453661 0.667583 2.107000 125 104 140
-0.453661 0.671271 2.107000 127 103 143
-0.451078 0.671116 2.095000 128 102 146
