ply
format ascii 1.0
element vertex 1293
property float x
property float y
property float z
property uchar red
property uchar green
property uchar blue
end_header
-0.503435 0.711928 2.905000 70 37 49
-0.499276 0.711090 2.881000 67 35 44
-0.499276 0.716133 2.881000 64 36 51
-0.491131 0.709411 2.834000 63 40 58
-0.486972 0.708323 2.810000 62 39 43
-0.486972 0.713241 2.810000 65 34 29
-0.483159 0.712538 2.788000 69 37 35
-0.479173 0.711500 2.765000 64 44 40
-0.475361 0.710640 2.743000 59 41 34
-0.468082 0.704487 2.701000 60 41 28
-0.460803 0.698187 2.659000 62 40 34
-0.457337 0.697555 2.639000 63 42 41
-0.457337 0.702175 2.639000 64 42 47
-0.453872 0.701438 2.619000 65 42 53
-0.453872 0.706022 2.619000 66 39 44
-0.443647 0.694599 2.560000 69 41 34
-0.440527 0.694164 2.542000 73 44 30
-0.437235 0.693392 2.523000 70 45 26
-0.434115 0.692831 2.505000 67 43 35
-0.430996 0.692206 2.487000 69 46 44
-0.427877 0.691518 2.469000 71 42 50
-0.424757 0.690767 2.451000 69 42 56
-0.424757 0.695057 2.451000 67 43 53
-0.421811 0.694497 2.434000 67 46 50
-0.418865 0.693877 2.417000 68 47 49
-0.415919 0.693198 2.400000 64 49 48
-0.415919 0.697399 2.400000 60 46 39
-0.413146 0.696923 2.384000 64 44 31
-0.404654 0.686686 2.335000 69 47 38
-0.402055 0.686336 2.320000 69 49 45
-0.399282 0.685636 2.304000 69 47 53
-0.396683 0.685179 2.289000 67 52 61
-0.394083 0.684670 2.274000 65 46 51
-0.394083 0.688650 2.274000 65 44 41
-0.391484 0.688062 2.259000 65 43 44
-0.388884 0.687422 2.244000 64 44 47
-0.386458 0.687036 2.230000 64 44 55
-0.383859 0.686292 2.215000 64 45 64
-0.381432 0.685808 2.201000 65 41 61
-0.379006 0.685274 2.187000 69 35 58
-0.374327 0.680595 2.160000 73 41 57
-0.369648 0.675821 2.133000 69 42 57
-0.367395 0.675413 2.120000 66 43 58
-0.365142 0.674960 2.107000 62 43 60
-0.363063 0.674783 2.095000 59 42 65
-0.360810 0.674240 2.082000 61 39 71
-0.358557 0.673652 2.069000 63 38 61
-0.356477 0.673346 2.057000 63 42 51
-0.354398 0.672997 2.045000 64 43 52
-0.354398 0.676577 2.045000 62 41 53
-0.352318 0.676166 2.033000 60 42 59
-0.352318 0.679725 2.033000 64 41 64
-0.350238 0.679250 2.021000 68 41 46
-0.348159 0.678734 2.009000 72 43 28
-0.344173 0.674440 1.986000 77 40 51
-0.340360 0.670407 1.964000 72 39 74
-0.338281 0.669727 1.952000 67 41 60
-0.336374 0.669351 1.941000 67 42 46
-0.332735 0.665470 1.920000 68 44 43
-0.332735 0.668831 1.920000 65 44 40
-0.330829 0.668341 1.909000 63 38 44
-0.330829 0.671683 1.909000 64 41 48
-0.329096 0.671488 1.899000 66 42 47
-0.327190 0.670904 1.888000 63 42 47
-0.325457 0.670638 1.878000 60 41 53
-0.323724 0.670337 1.868000 59 38 60
-0.321991 0.670000 1.858000 58 41 55
-0.318525 0.666006 1.838000 53 45 50
-0.316792 0.665582 1.828000 49 43 41
-0.313499 0.661831 1.809000 54 41 33
-0.311939 0.661689 1.800000 59 42 40
-0.311939 0.664840 1.800000 61 43 47
-0.310206 0.664280 1.790000 64 44 52
-0.308647 0.664057 1.781000 70 45 57
-0.307087 0.663804 1.772000 76 41 52
-0.303967 0.660131 1.754000 70 38 48
-0.302408 0.659799 1.745000 64 43 50
-0.302408 0.662853 1.745000 62 47 53
-0.300848 0.662473 1.736000 60 42 54
-0.299462 0.662445 1.728000 57 40 55
-0.297902 0.662004 1.719000 55 39 43
-0.297902 0.665013 1.719000 59 44 30
-0.296515 0.664914 1.711000 63 42 47
-0.681907 0.758448 3.975000 55 29 19
-0.681907 0.765406 3.975000 54 36 14
-0.674188 0.763621 3.930000 55 34 10
-0.674188 0.770500 3.930000 57 32 33
-0.674188 0.777380 3.930000 58 28 56
-0.666468 0.775279 3.885000 59 26 47
-0.666468 0.782080 3.885000 52 32 38
-0.659091 0.780149 3.842000 45 41 50
-0.644853 0.769875 3.759000 51 40 62
-0.637819 0.767987 3.718000 57 40 51
-0.624438 0.758247 3.640000 59 38 41
-0.611572 0.748864 3.565000 61 41 38
-0.605225 0.747268 3.528000 65 35 35
-0.599221 0.745969 3.493000 70 26 37
-0.599221 0.752083 3.493000 63 32 39
-0.587212 0.743003 3.423000 56 39 40
-0.581551 0.741774 3.390000 56 39 41
-0.570229 0.733152 3.324000 57 42 43
-0.564911 0.732078 3.293000 62 38 46
-0.559593 0.730897 3.262000 68 38 38
-0.549128 0.722832 3.201000 65 41 31
-0.544153 0.721836 3.172000 63 42 38
-0.544153 0.727389 3.172000 64 41 45
-0.534375 0.719771 3.115000 65 39 44
-0.529572 0.718705 3.087000 65 41 44
-0.529572 0.724108 3.087000 64 46 44
-0.524768 0.722896 3.059000 65 39 45
-0.520308 0.722060 3.033000 66 39 47
-0.515676 0.720895 3.006000 67 42 50
-0.511216 0.719876 2.980000 69 47 56
-0.506927 0.719009 2.955000 69 42 62
-0.502639 0.718055 2.930000 69 39 53
-0.494233 0.711090 2.881000 68 36 45
-0.490116 0.710167 2.857000 68 30 58
-0.486170 0.709411 2.834000 62 36 71
-0.482053 0.708323 2.810000 57 38 56
-0.478279 0.707657 2.788000 61 33 41
-0.474333 0.706660 2.765000 66 33 44
-0.470559 0.705838 2.743000 63 38 47
-0.466956 0.705200 2.722000 61 36 43
-0.463354 0.704487 2.701000 64 37 39
-0.459751 0.703701 2.680000 68 35 38
-0.456149 0.702842 2.659000 66 38 38
-0.456149 0.707496 2.659000 65 41 43
-0.452718 0.706794 2.639000 65 39 49
-0.445856 0.700631 2.599000 65 36 42
-0.439165 0.694599 2.560000 66 41 35
-0.436078 0.694164 2.542000 68 44 24
-0.432818 0.693392 2.523000 68 43 14
-0.429730 0.692831 2.505000 67 44 28
-0.426642 0.692206 2.487000 67 43 43
-0.423554 0.691518 2.469000 68 39 55
-0.420467 0.690767 2.451000 68 41 68
-0.420467 0.695057 2.451000 68 42 60
-0.417550 0.694497 2.434000 72 44 53
-0.414634 0.693877 2.417000 75 45 55
-0.411718 0.693198 2.400000 68 47 58
-0.411718 0.697399 2.400000 60 47 51
-0.406056 0.691954 2.367000 64 45 45
-0.400567 0.686686 2.335000 67 47 46
-0.397994 0.686336 2.320000 69 45 47
-0.395249 0.685636 2.304000 72 42 61
-0.392676 0.685179 2.289000 72 44 76
-0.390102 0.684670 2.274000 72 41 60
-0.390102 0.688650 2.274000 69 41 44
-0.387529 0.688062 2.259000 66 42 47
-0.387529 0.692017 2.259000 65 43 50
-0.382554 0.687036 2.230000 63 43 61
-0.379981 0.686292 2.215000 64 45 73
-0.377579 0.685808 2.201000 66 46 68
-0.372947 0.681200 2.174000 67 41 63
-0.370546 0.680595 2.160000 69 41 58
-0.368316 0.680257 2.147000 68 44 53
-0.365914 0.679555 2.133000 67 47 54
-0.361454 0.674960 2.107000 66 46 55
-0.359395 0.674783 2.095000 65 47 67
-0.359395 0.678450 2.095000 65 40 79
-0.357165 0.677885 2.082000 65 30 66
-0.352876 0.673346 2.057000 64 45 54
-0.350818 0.672997 2.045000 63 51 53
-0.350818 0.676577 2.045000 61 45 53
-0.350818 0.680157 2.045000 60 44 53
-0.348759 0.679725 2.033000 62 43 53
-0.346701 0.679250 2.021000 65 42 51
-0.344642 0.678734 2.009000 68 41 49
-0.338809 0.670704 1.975000 71 39 68
-0.336922 0.670407 1.964000 68 41 87
-0.334864 0.669727 1.952000 65 41 69
-0.331261 0.665903 1.931000 67 43 51
-0.329374 0.665470 1.920000 69 47 43
-0.327487 0.664999 1.909000 69 40 35
-0.327487 0.668341 1.909000 69 33 42
-0.327487 0.671683 1.909000 67 38 49
-0.325772 0.671488 1.899000 65 42 49
-0.323885 0.670904 1.888000 62 42 49
-0.322169 0.670638 1.878000 60 42 52
-0.320454 0.670337 1.868000 59 41 56
-0.318738 0.670000 1.858000 57 42 53
-0.317023 0.669629 1.848000 55 46 50
-0.312048 0.662305 1.819000 54 47 48
-0.310332 0.661831 1.809000 57 42 47
-0.310332 0.664998 1.809000 60 40 47
-0.308788 0.664840 1.800000 62 41 47
-0.307073 0.664280 1.790000 64 43 46
-0.305529 0.664057 1.781000 67 42 45
-0.303985 0.663804 1.772000 70 40 44
-0.302441 0.663518 1.763000 66 41 44
-0.300897 0.663202 1.754000 62 45 43
-0.299353 0.662853 1.745000 62 45 43
-0.297809 0.662473 1.736000 62 43 52
-0.296437 0.662445 1.728000 64 38 62
-0.296437 0.665470 1.728000 65 30 58
-0.294893 0.665013 1.719000 65 39 54
-0.293520 0.664914 1.711000 65 44 66
-0.674949 0.765406 3.975000 54 34 15
-0.667308 0.763621 3.930000 56 34 11
-0.667308 0.770500 3.930000 58 31 21
-0.667308 0.777380 3.930000 58 30 31
-0.659667 0.775279 3.885000 58 31 27
-0.659667 0.782080 3.885000 47 36 24
-0.652366 0.780149 3.842000 37 41 32
-0.638273 0.769875 3.759000 46 44 41
-0.624689 0.759931 3.679000 55 41 36
-0.618067 0.758247 3.640000 59 37 31
-0.605332 0.748864 3.565000 63 38 29
-0.599049 0.747268 3.528000 71 36 28
-0.593106 0.745969 3.493000 79 32 29
-0.587163 0.744547 3.458000 67 32 30
-0.581220 0.743003 3.423000 56 37 33
-0.570014 0.734554 3.357000 54 39 37
-0.564410 0.733152 3.324000 52 41 39
-0.564410 0.738970 3.324000 57 41 41
-0.559147 0.737843 3.293000 63 41 37
-0.553883 0.736607 3.262000 63 44 32
-0.543525 0.728436 3.201000 63 43 36
-0.538601 0.727389 3.172000 63 43 41
-0.533677 0.726241 3.143000 64 40 43
-0.528922 0.725224 3.115000 64 41 46
-0.524168 0.724108 3.087000 64 42 50
-0.519414 0.722896 3.059000 63 41 55
-0.514999 0.722060 3.033000 63 40 51
-0.510414 0.720895 3.006000 64 41 48
-0.506000 0.719876 2.980000 65 44 51
-0.506000 0.725092 2.980000 66 44 54
-0.497510 0.718055 2.930000 68 43 40
-0.489190 0.711090 2.881000 70 41 27
-0.485114 0.710167 2.857000 72 39 41
-0.477134 0.703404 2.810000 62 39 55
-0.477134 0.708323 2.810000 53 37 47
-0.473398 0.707657 2.788000 58 30 39
-0.473398 0.712538 2.788000 63 35 51
-0.469493 0.711500 2.765000 63 40 64
-0.465757 0.710640 2.743000 64 37 52
-0.458626 0.704487 2.701000 69 37 40
-0.455060 0.703701 2.680000 74 35 41
-0.455060 0.708392 2.680000 70 34 42
-0.451494 0.707496 2.659000 67 39 44
-0.448098 0.706794 2.639000 65 40 46
-0.444702 0.706022 2.619000 64 39 41
-0.434684 0.694599 2.560000 64 45 36
-0.431628 0.694164 2.542000 64 45 28
-0.428402 0.693392 2.523000 66 42 20
-0.425345 0.692831 2.505000 68 45 27
-0.422289 0.692206 2.487000 66 46 34
-0.419233 0.691518 2.469000 65 43 35
-0.416176 0.690767 2.451000 67 41 35
-0.413290 0.690236 2.434000 70 43 40
-0.413290 0.694497 2.434000 76 43 45
-0.410403 0.693877 2.417000 83 45 40
-0.407516 0.693198 2.400000 72 47 35
-0.407516 0.697399 2.400000 61 47 36
-0.401913 0.691954 2.367000 63 44 38
-0.396480 0.686686 2.335000 66 44 34
-0.393933 0.686336 2.320000 70 42 29
-0.391216 0.685636 2.304000 75 41 45
-0.388669 0.685179 2.289000 77 44 62
-0.388669 0.689186 2.289000 80 42 45
-0.386122 0.688650 2.274000 74 39 28
-0.383575 0.688062 2.259000 68 43 38
-0.381028 0.687422 2.244000 65 44 47
-0.378651 0.687036 2.230000 63 44 56
-0.373727 0.681955 2.201000 65 46 66
-0.371349 0.681445 2.187000 67 46 61
-0.369142 0.681200 2.174000 66 45 56
-0.364557 0.676498 2.147000 65 44 52
-0.364557 0.680257 2.147000 67 47 48
-0.362180 0.679555 2.133000 69 47 49
-0.359973 0.679124 2.120000 70 50 49
-0.355728 0.674783 2.095000 72 47 56
-0.355728 0.678450 2.095000 69 44 64
-0.353521 0.677885 2.082000 67 43 56
-0.349276 0.673346 2.057000 64 57 49
-0.349276 0.676947 2.057000 62 52 50
-0.347238 0.676577 2.045000 61 46 51
-0.345200 0.676166 2.033000 60 47 50
-0.345200 0.679725 2.033000 61 46 50
-0.341125 0.675217 2.009000 62 44 46
-0.339257 0.675017 1.998000 64 41 42
-0.333484 0.666969 1.964000 66 41 55
-0.331447 0.666310 1.952000 65 46 69
-0.331447 0.669727 1.952000 64 44 59
-0.329579 0.669351 1.941000 67 44 50
-0.327881 0.669283 1.931000 71 43 50
-0.326013 0.668831 1.920000 73 36 50
-0.324145 0.668341 1.909000 76 37 48
-0.322447 0.668164 1.899000 70 37 47
-0.322447 0.671488 1.899000 64 41 44
-0.318882 0.667350 1.878000 62 44 42
-0.318882 0.670638 1.878000 61 43 48
-0.317184 0.670337 1.868000 59 42 55
-0.315486 0.670000 1.858000 57 44 57
-0.313788 0.669629 1.848000 58 50 59
-0.310392 0.665582 1.828000 59 46 55
-0.308864 0.665489 1.819000 60 42 51
-0.307166 0.664998 1.809000 62 41 49
-0.305637 0.664840 1.800000 63 39 47
-0.303939 0.664280 1.790000 65 40 39
-0.302411 0.664057 1.781000 64 41 32
-0.300883 0.663804 1.772000 64 42 37
-0.299355 0.663518 1.763000 62 44 42
-0.297827 0.663202 1.754000 60 45 35
-0.296298 0.662853 1.745000 62 47 29
-0.294770 0.662473 1.736000 65 43 41
-0.293412 0.662445 1.728000 70 39 54
-0.291884 0.662004 1.719000 76 37 44
-0.291884 0.665013 1.719000 72 38 35
-0.290525 0.664914 1.711000 68 43 48
-0.667991 0.765406 3.975000 49 34 15
-0.667991 0.772365 3.975000 56 32 13
-0.667991 0.779323 3.975000 62 28 10
-0.660429 0.777380 3.930000 60 31 7
-0.660429 0.784259 3.930000 58 32 8
-0.652867 0.782080 3.885000 52 38 10
-0.631693 0.763295 3.759000 46 46 15
-0.624971 0.761683 3.719000 50 44 21
-0.618249 0.759931 3.679000 55 44 21
-0.611695 0.758247 3.640000 58 40 21
-0.599091 0.748864 3.565000 61 39 21
-0.586992 0.739854 3.493000 66 38 21
-0.581110 0.738494 3.458000 71 35 21
-0.581110 0.744547 3.458000 63 37 21
-0.575228 0.743003 3.423000 56 41 27
-0.564137 0.734554 3.357000 55 41 34
-0.558592 0.733152 3.324000 55 43 35
-0.558592 0.738970 3.324000 58 42 37
-0.553382 0.737843 3.293000 61 44 35
-0.542963 0.729607 3.231000 61 44 34
-0.537922 0.728436 3.201000 61 45 35
-0.533048 0.727389 3.172000 62 41 37
-0.523470 0.719771 3.115000 63 40 43
-0.518764 0.718705 3.087000 62 41 49
-0.518764 0.724108 3.087000 61 42 57
-0.514059 0.722896 3.059000 61 41 65
-0.509690 0.722060 3.033000 61 39 56
-0.505152 0.720895 3.006000 61 41 47
-0.500783 0.719876 2.980000 62 44 47
-0.500783 0.725092 2.980000 64 46 47
-0.492381 0.718055 2.930000 66 49 28
-0.484146 0.711090 2.881000 66 45 9
-0.480113 0.710167 2.857000 67 47 24
-0.472215 0.703404 2.810000 63 44 39
-0.468518 0.702777 2.788000 60 42 38
-0.468518 0.707657 2.788000 61 38 37
-0.464653 0.706660 2.765000 63 39 59
-0.460956 0.705838 2.743000 62 39 81
-0.460956 0.710640 2.743000 62 38 61
-0.453898 0.704487 2.701000 64 38 41
-0.450369 0.703701 2.680000 67 36 43
-0.450369 0.708392 2.680000 65 39 46
-0.446840 0.707496 2.659000 64 42 45
-0.443479 0.706794 2.639000 65 40 44
-0.440118 0.706022 2.619000 67 38 40
-0.433564 0.700025 2.580000 63 44 37
-0.427178 0.694164 2.542000 59 51 31
-0.423985 0.693392 2.523000 62 49 26
-0.420960 0.692831 2.505000 65 49 26
-0.417936 0.692206 2.487000 65 48 26
-0.414911 0.691518 2.469000 65 49 14
-0.411886 0.690767 2.451000 65 46 3
-0.409029 0.690236 2.434000 65 47 20
-0.409029 0.694497 2.434000 70 46 38
-0.406172 0.693877 2.417000 75 47 25
-0.403315 0.693198 2.400000 67 48 12
-0.400627 0.692750 2.384000 60 51 22
-0.395081 0.687276 2.351000 57 47 32
-0.392392 0.686686 2.335000 54 46 22
-0.389872 0.686336 2.320000 62 43 12
-0.387183 0.685636 2.304000 71 39 30
-0.387183 0.689669 2.304000 73 43 48
-0.384662 0.689186 2.289000 74 46 30
-0.382141 0.688650 2.274000 70 46 13
-0.382141 0.692631 2.274000 66 50 29
-0.377100 0.687422 2.244000 63 45 45
-0.374747 0.687036 2.230000 60 45 52
-0.369874 0.681955 2.201000 62 48 59
-0.367521 0.681445 2.187000 64 50 54
-0.365336 0.681200 2.174000 62 47 50
-0.362984 0.680595 2.160000 59 45 47
-0.360799 0.680257 2.147000 63 46 44
-0.358447 0.679555 2.133000 67 46 44
-0.356262 0.679124 2.120000 68 47 44
-0.354077 0.678648 2.107000 69 49 46
-0.352061 0.678450 2.095000 66 45 49
-0.349876 0.677885 2.082000 64 44 47
-0.347691 0.677274 2.069000 64 51 45
-0.345675 0.676947 2.057000 64 56 47
-0.343658 0.676577 2.045000 62 53 49
-0.343658 0.680157 2.045000 60 54 48
-0.341642 0.679725 2.033000 58 48 48
-0.337609 0.675217 2.009000 56 47 41
-0.336600 0.676707 2.003000 60 42 35
-0.330046 0.666969 1.964000 64 39 43
-0.328030 0.666310 1.952000 64 44 52
-0.328030 0.669727 1.952000 64 47 50
-0.326181 0.669351 1.941000 65 46 49
-0.324501 0.669283 1.931000 66 45 57
-0.322652 0.668831 1.920000 67 43 65
-0.320804 0.668341 1.909000 68 45 55
-0.319123 0.668164 1.899000 62 42 46
-0.317275 0.667599 1.888000 57 42 40
-0.317275 0.670904 1.888000 62 43 35
-0.315594 0.670638 1.878000 66 44 44
-0.313914 0.670337 1.868000 62 43 54
-0.312233 0.670000 1.858000 59 44 61
-0.310553 0.669629 1.848000 57 46 68
-0.307192 0.665582 1.828000 56 46 61
-0.305679 0.665489 1.819000 58 42 55
-0.303999 0.664998 1.809000 61 44 51
-0.302486 0.664840 1.800000 61 41 47
-0.300806 0.664280 1.790000 61 40 33
-0.299294 0.664057 1.781000 62 42 19
-0.297781 0.663804 1.772000 64 45 29
-0.296269 0.663518 1.763000 61 44 40
-0.294756 0.663202 1.754000 59 45 27
-0.293916 0.664373 1.749000 60 46 15
-0.291731 0.662473 1.736000 60 46 31
-0.290387 0.662445 1.728000 65 43 47
-0.290387 0.665470 1.728000 71 42 31
-0.288875 0.665013 1.719000 69 42 16
-0.287530 0.664914 1.711000 67 46 31
-0.661033 0.765406 3.975000 45 31 21
-0.653549 0.763621 3.930000 56 34 22
-0.653549 0.770500 3.930000 67 31 13
-0.653549 0.777380 3.930000 62 34 4
-0.611809 0.753491 3.679000 55 44 15
-0.599004 0.750331 3.602000 58 42 14
-0.592851 0.748864 3.565000 60 40 16
-0.580877 0.739854 3.493000 61 45 19
-0.575057 0.738494 3.458000 63 40 20
-0.575057 0.744547 3.458000 59 42 21
-0.569236 0.743003 3.423000 56 42 25
-0.558261 0.734554 3.357000 57 44 29
-0.552773 0.733152 3.324000 59 43 31
-0.552773 0.738970 3.324000 59 42 33
-0.547618 0.737843 3.293000 59 43 33
-0.542463 0.736607 3.262000 59 46 34
-0.532318 0.728436 3.201000 59 41 27
-0.527496 0.727389 3.172000 60 37 20
-0.518017 0.719771 3.115000 62 38 32
-0.513360 0.718705 3.087000 60 42 45
-0.513360 0.724108 3.087000 59 42 51
-0.508704 0.722896 3.059000 59 43 57
-0.504380 0.722060 3.033000 59 41 49
-0.499890 0.720895 3.006000 59 41 40
-0.499890 0.726157 3.006000 60 44 47
-0.495567 0.725092 2.980000 62 47 54
-0.487252 0.718055 2.930000 64 46 39
-0.479103 0.711090 2.881000 63 46 24
-0.475112 0.710167 2.857000 62 47 29
-0.471287 0.709411 2.834000 64 48 34
-0.467296 0.708323 2.810000 67 42 36
-0.463637 0.707657 2.788000 65 44 38
-0.459813 0.706660 2.765000 64 42 51
-0.456154 0.705838 2.743000 62 42 65
-0.452662 0.705200 2.722000 60 41 55
-0.449170 0.704487 2.701000 60 42 45
-0.449170 0.709215 2.701000 61 41 53
-0.445677 0.708392 2.680000 61 44 60
-0.442185 0.707496 2.659000 61 43 54
-0.438859 0.706794 2.639000 66 41 49
-0.435533 0.706022 2.619000 71 41 44
-0.429048 0.700025 2.580000 62 44 40
-0.425722 0.699080 2.560000 54 49 41
-0.419569 0.693392 2.523000 58 54 41
-0.419569 0.697809 2.523000 62 50 37
-0.413582 0.692206 2.487000 63 51 32
-0.410589 0.691518 2.469000 65 50 23
-0.407595 0.690767 2.451000 63 48 15
-0.407595 0.695057 2.451000 61 47 27
-0.404768 0.694497 2.434000 64 49 40
-0.401941 0.693877 2.417000 67 48 34
-0.399114 0.693198 2.400000 63 50 28
-0.396453 0.692750 2.384000 60 49 32
-0.388305 0.682599 2.335000 51 48 36
-0.388305 0.686686 2.335000 42 46 34
-0.385810 0.686336 2.320000 55 45 31
-0.383150 0.685636 2.304000 68 46 46
-0.383150 0.689669 2.304000 68 46 62
-0.380655 0.689186 2.289000 69 47 46
-0.378161 0.688650 2.274000 66 51 31
-0.375666 0.688062 2.259000 64 47 39
-0.373172 0.687422 2.244000 61 43 47
-0.370843 0.687036 2.230000 58 47 50
-0.368349 0.686292 2.215000 60 51 54
-0.366021 0.685808 2.201000 62 50 49
-0.363693 0.685274 2.187000 58 51 44
-0.359203 0.680595 2.160000 54 48 40
-0.357041 0.680257 2.147000 59 47 36
-0.357041 0.684015 2.147000 65 46 45
-0.354713 0.683289 2.133000 65 45 54
-0.350389 0.678648 2.107000 66 45 48
-0.348393 0.678450 2.095000 64 44 42
-0.346231 0.677885 2.082000 62 44 46
-0.344070 0.677274 2.069000 64 48 51
-0.342074 0.676947 2.057000 66 53 55
-0.340078 0.676577 2.045000 63 58 59
-0.340078 0.680157 2.045000 60 52 56
-0.338083 0.679725 2.033000 55 47 53
-0.334092 0.675217 2.009000 51 43 54
-0.334092 0.678734 2.009000 57 43 54
-0.328438 0.670704 1.975000 63 42 52
-0.326608 0.670407 1.964000 63 46 51
-0.322783 0.665953 1.941000 64 47 44
-0.322783 0.669351 1.941000 63 48 38
-0.321121 0.669283 1.931000 62 47 47
-0.319291 0.668831 1.920000 61 47 57
-0.317462 0.668341 1.909000 60 44 51
-0.315799 0.668164 1.899000 55 44 45
-0.313970 0.667599 1.888000 51 42 43
-0.312307 0.667350 1.878000 61 42 42
-0.312307 0.670638 1.878000 72 43 45
-0.310644 0.670337 1.868000 66 43 49
-0.308981 0.670000 1.858000 61 44 54
-0.307318 0.669629 1.848000 57 47 60
-0.302495 0.662305 1.819000 53 43 56
-0.300832 0.661831 1.809000 56 39 52
-0.300832 0.664998 1.809000 60 41 52
-0.299336 0.664840 1.800000 58 44 51
-0.297673 0.664280 1.790000 57 46 38
-0.296176 0.664057 1.781000 60 45 25
-0.296176 0.667175 1.781000 64 44 36
-0.293183 0.663518 1.763000 61 44 47
-0.293183 0.666605 1.763000 59 45 49
-0.291686 0.666272 1.754000 57 47 52
-0.290189 0.665908 1.745000 56 45 54
-0.287362 0.662445 1.728000 61 45 56
-0.287362 0.665470 1.728000 66 43 45
-0.285865 0.665013 1.719000 66 45 34
-0.283038 0.661416 1.702000 66 44 48
-0.654074 0.758448 3.975000 52 26 24
-0.646670 0.756741 3.930000 48 32 27
-0.639265 0.754877 3.885000 54 30 31
-0.639265 0.761678 3.885000 61 29 16
-0.639265 0.768478 3.885000 59 30 1
-0.592698 0.750331 3.602000 59 41 7
-0.580522 0.741092 3.528000 62 37 12
-0.574763 0.739854 3.493000 61 41 18
-0.569004 0.738494 3.458000 61 41 19
-0.569004 0.744547 3.458000 59 40 21
-0.563244 0.743003 3.423000 57 43 22
-0.557814 0.741774 3.390000 58 44 24
-0.552384 0.740430 3.357000 59 45 27
-0.546954 0.738970 3.324000 60 42 30
-0.541853 0.737843 3.293000 61 41 32
-0.531651 0.729607 3.231000 63 41 34
-0.526715 0.728436 3.201000 65 39 18
-0.517171 0.720739 3.143000 64 36 3
-0.512564 0.719771 3.115000 63 34 22
-0.507957 0.718705 3.087000 61 40 42
-0.507957 0.724108 3.087000 59 44 46
-0.503349 0.722896 3.059000 60 43 50
-0.499071 0.722060 3.033000 61 43 42
-0.499071 0.727370 3.033000 61 41 34
-0.494628 0.726157 3.006000 61 44 47
-0.490350 0.725092 2.980000 62 43 61
-0.486237 0.724182 2.955000 64 43 50
-0.474060 0.711090 2.881000 63 45 39
-0.470111 0.710167 2.857000 63 47 34
-0.462377 0.703404 2.810000 66 43 29
-0.462377 0.708323 2.810000 70 34 34
-0.458757 0.707657 2.788000 67 40 39
-0.454973 0.706660 2.765000 64 43 44
-0.451353 0.705838 2.743000 61 43 50
-0.447897 0.705200 2.722000 59 44 50
-0.444442 0.704487 2.701000 60 42 50
-0.444442 0.709215 2.701000 60 43 62
-0.440986 0.708392 2.680000 61 45 75
-0.437531 0.707496 2.659000 62 47 64
-0.434240 0.706794 2.639000 65 43 54
-0.430949 0.706022 2.619000 68 42 49
-0.424531 0.700025 2.580000 63 45 44
-0.421240 0.699080 2.560000 58 49 50
-0.418279 0.698614 2.542000 62 49 57
-0.415152 0.697809 2.523000 66 49 48
-0.409229 0.692206 2.487000 69 50 39
-0.406267 0.691518 2.469000 72 53 33
-0.406267 0.695840 2.469000 66 50 27
-0.403305 0.695057 2.451000 60 47 34
-0.400507 0.694497 2.434000 63 48 42
-0.397710 0.693877 2.417000 66 49 43
-0.394913 0.693198 2.400000 66 50 45
-0.394913 0.697399 2.400000 66 49 43
-0.386850 0.687276 2.351000 59 48 41
-0.384217 0.686686 2.335000 52 48 46
-0.381749 0.686336 2.320000 61 49 51
-0.381749 0.690397 2.320000 70 55 63
-0.379116 0.689669 2.304000 68 48 76
-0.379116 0.693702 2.304000 66 47 63
-0.374180 0.688650 2.274000 65 48 50
-0.371712 0.688062 2.259000 64 46 50
-0.369244 0.687422 2.244000 64 46 50
-0.366940 0.687036 2.230000 65 49 49
-0.364472 0.686292 2.215000 68 49 49
-0.362168 0.685808 2.201000 71 49 44
-0.359864 0.685274 2.187000 66 49 39
-0.355422 0.680595 2.160000 61 49 33
-0.353283 0.680257 2.147000 61 47 28
-0.353283 0.684015 2.147000 62 46 46
-0.350979 0.683289 2.133000 63 44 64
-0.346701 0.678648 2.107000 64 42 49
-0.344726 0.678450 2.095000 63 42 35
-0.342587 0.677885 2.082000 63 41 46
-0.340448 0.677274 2.069000 68 46 57
-0.338473 0.676947 2.057000 74 50 63
-0.336499 0.676577 2.045000 68 52 70
-0.334524 0.676166 2.033000 63 51 64
-0.332550 0.675712 2.021000 63 44 59
-0.330575 0.675217 2.009000 62 37 66
-0.328765 0.675017 1.998000 62 42 74
-0.324980 0.670704 1.975000 63 43 62
-0.323170 0.670407 1.964000 66 45 50
-0.321196 0.669727 1.952000 69 50 39
-0.319386 0.669351 1.941000 65 49 28
-0.317740 0.669283 1.931000 62 51 38
-0.314120 0.664999 1.909000 61 46 49
-0.312475 0.664840 1.899000 60 42 47
-0.310665 0.664294 1.888000 58 43 45
-0.310665 0.667599 1.888000 55 43 47
-0.309019 0.667350 1.878000 61 43 49
-0.307374 0.667067 1.868000 67 46 46
-0.307374 0.670337 1.868000 62 44 44
-0.305728 0.670000 1.858000 58 43 48
-0.304083 0.669629 1.848000 57 43 53
-0.299311 0.662305 1.819000 56 40 51
-0.297666 0.661831 1.809000 60 38 50
-0.297666 0.664998 1.809000 63 37 53
-0.296185 0.664840 1.800000 61 46 56
-0.294539 0.664280 1.790000 58 55 44
-0.293058 0.664057 1.781000 62 49 32
-0.293058 0.667175 1.781000 66 45 43
-0.291577 0.666906 1.772000 60 44 54
-0.290096 0.666605 1.763000 54 46 71
-0.287135 0.662853 1.745000 55 46 89
-0.285654 0.662473 1.736000 57 45 77
-0.284337 0.662445 1.728000 63 44 65
-0.282856 0.662004 1.719000 69 42 59
-0.281540 0.661918 1.711000 67 40 53
-0.280059 0.661416 1.702000 64 40 65
-0.647116 0.758448 3.975000 52 29 22
-0.639790 0.756741 3.930000 51 27 25
-0.632464 0.754877 3.885000 53 27 27
-0.632464 0.761678 3.885000 56 26 16
-0.580369 0.742624 3.565000 60 42 13
-0.568648 0.733740 3.493000 65 39 14
-0.562950 0.732441 3.458000 62 41 16
-0.562950 0.738494 3.458000 59 39 15
-0.557252 0.737011 3.423000 59 35 15
-0.557252 0.743003 3.423000 59 40 21
-0.551880 0.741774 3.390000 59 44 28
-0.546508 0.740430 3.357000 60 42 32
-0.541136 0.738970 3.324000 61 41 37
-0.536089 0.737843 3.293000 63 40 41
-0.531042 0.736607 3.262000 67 41 46
-0.525995 0.735263 3.231000 71 40 35
-0.516391 0.727389 3.172000 68 37 25
-0.511669 0.726241 3.143000 65 39 33
-0.502553 0.718705 3.087000 62 43 42
-0.502553 0.724108 3.087000 60 42 47
-0.502553 0.729512 3.087000 61 42 52
-0.497995 0.728250 3.059000 63 39 48
-0.493762 0.727370 3.033000 62 36 44
-0.489366 0.726157 3.006000 62 39 50
-0.489366 0.731419 3.006000 63 38 56
-0.481064 0.724182 2.955000 64 42 46
-0.472924 0.717014 2.905000 64 45 36
-0.465110 0.710167 2.857000 64 45 27
-0.457458 0.703404 2.810000 69 45 18
-0.457458 0.708323 2.810000 74 39 32
-0.453877 0.707657 2.788000 69 39 46
-0.450132 0.706660 2.765000 64 41 44
-0.446551 0.705838 2.743000 61 43 41
-0.443132 0.705200 2.722000 59 43 45
-0.439713 0.704487 2.701000 59 40 48
-0.439713 0.709215 2.701000 60 42 55
-0.436295 0.708392 2.680000 62 47 62
-0.432876 0.707496 2.659000 64 45 54
-0.429620 0.706794 2.639000 64 43 46
-0.426364 0.706022 2.619000 65 43 44
-0.420015 0.700025 2.580000 64 48 41
-0.416759 0.699080 2.560000 63 48 43
-0.413829 0.698614 2.542000 66 46 45
-0.410736 0.697809 2.523000 70 47 37
-0.404875 0.692206 2.487000 74 50 29
-0.401945 0.691518 2.469000 79 50 33
-0.399014 0.690767 2.451000 69 52 38
-0.399014 0.695057 2.451000 60 48 42
-0.396247 0.694497 2.434000 62 47 47
-0.393479 0.693877 2.417000 65 49 54
-0.390712 0.693198 2.400000 68 52 60
-0.390712 0.697399 2.400000 72 48 42
-0.382735 0.687276 2.351000 67 47 24
-0.380130 0.686686 2.335000 62 48 35
-0.377688 0.686336 2.320000 67 49 46
-0.377688 0.690397 2.320000 72 50 56
-0.377688 0.694459 2.320000 68 47 67
-0.375083 0.693702 2.304000 64 48 57
-0.372641 0.693193 2.289000 64 51 48
-0.367757 0.688062 2.259000 65 48 43
-0.365315 0.687422 2.244000 68 47 39
-0.363036 0.687036 2.230000 72 48 44
-0.360594 0.686292 2.215000 76 50 49
-0.358315 0.685808 2.201000 80 50 41
-0.356036 0.685274 2.187000 74 48 34
-0.351640 0.680595 2.160000 68 49 24
-0.349524 0.680257 2.147000 64 46 15
-0.349524 0.684015 2.147000 60 45 34
-0.345129 0.679124 2.120000 61 43 54
-0.343012 0.678648 2.107000 62 41 47
-0.341059 0.678450 2.095000 63 43 40
-0.338942 0.677885 2.082000 64 44 46
-0.334872 0.673346 2.057000 73 46 53
-0.334872 0.676947 2.057000 82 48 50
-0.332919 0.676577 2.045000 74 50 48
-0.330965 0.676166 2.033000 67 48 51
-0.329012 0.675712 2.021000 70 44 54
-0.327058 0.675217 2.009000 74 42 61
-0.325267 0.675017 1.998000 68 46 68
-0.321523 0.670704 1.975000 63 44 60
-0.319732 0.670407 1.964000 68 41 53
-0.317779 0.669727 1.952000 74 46 44
-0.315988 0.669351 1.941000 68 49 36
-0.314360 0.669283 1.931000 62 47 42
-0.310778 0.664999 1.909000 61 45 48
-0.309151 0.664840 1.899000 61 43 50
-0.307360 0.664294 1.888000 60 43 52
-0.307360 0.667599 1.888000 60 42 50
-0.305732 0.667350 1.878000 61 43 49
-0.304104 0.667067 1.868000 62 45 47
-0.304104 0.670337 1.868000 59 45 45
-0.302476 0.670000 1.858000 56 44 46
-0.300848 0.669629 1.848000 58 43 48
-0.297592 0.665582 1.828000 60 41 39
-0.296127 0.665489 1.819000 63 39 30
-0.294499 0.664998 1.809000 67 42 36
-0.293034 0.664840 1.800000 63 49 42
-0.293034 0.667991 1.800000 60 51 36
-0.291406 0.667413 1.790000 64 51 30
-0.289941 0.667175 1.781000 68 46 36
-0.288475 0.666906 1.772000 58 44 42
-0.285545 0.663202 1.754000 49 45 58
-0.284080 0.662853 1.745000 54 46 74
-0.282615 0.662473 1.736000 59 45 65
-0.281312 0.662445 1.728000 66 45 56
-0.279847 0.662004 1.719000 73 39 52
-0.279847 0.665013 1.719000 68 36 49
-0.278545 0.664914 1.711000 63 40 48
-0.640158 0.751490 3.975000 54 23 25
-0.640158 0.758448 3.975000 53 23 21
-0.632911 0.756741 3.930000 53 22 22
-0.625664 0.754877 3.885000 55 26 24
-0.580088 0.744026 3.602000 49 41 34
-0.574129 0.742624 3.565000 55 38 20
-0.568170 0.741092 3.528000 62 38 17
-0.556897 0.732441 3.458000 61 40 14
-0.556897 0.738494 3.458000 60 42 11
-0.551261 0.737011 3.423000 60 38 9
-0.551261 0.743003 3.423000 60 40 21
-0.545946 0.741774 3.390000 59 41 33
-0.545946 0.747709 3.390000 57 40 38
-0.535317 0.738970 3.324000 57 39 44
-0.530325 0.737843 3.293000 57 39 51
-0.520340 0.729607 3.231000 61 41 59
-0.515508 0.728436 3.201000 66 45 53
-0.506168 0.720739 3.143000 64 40 47
-0.506168 0.726241 3.143000 63 42 45
-0.497149 0.718705 3.087000 61 41 43
-0.497149 0.724108 3.087000 60 39 48
-0.492640 0.722896 3.059000 62 36 54
-0.488453 0.722060 3.033000 65 35 54
-0.488453 0.727370 3.033000 63 36 54
-0.484104 0.726157 3.006000 62 39 53
-0.479917 0.725092 2.980000 63 42 52
-0.475891 0.724182 2.955000 63 43 43
-0.471865 0.723184 2.930000 63 44 34
-0.460109 0.710167 2.857000 64 45 21
-0.452539 0.703404 2.810000 67 44 8
-0.448996 0.702777 2.788000 70 41 31
-0.448996 0.707657 2.788000 66 40 54
-0.445292 0.706660 2.765000 62 41 43
-0.441749 0.705838 2.743000 58 44 33
-0.438367 0.705200 2.722000 55 47 40
-0.434985 0.704487 2.701000 57 44 47
-0.434985 0.709215 2.701000 60 39 48
-0.431603 0.708392 2.680000 62 44 50
-0.428221 0.707496 2.659000 64 46 44
-0.428221 0.712151 2.659000 65 43 39
-0.421780 0.706022 2.619000 66 42 39
-0.415499 0.700025 2.580000 64 47 39
-0.415499 0.704541 2.580000 63 49 36
-0.409379 0.698614 2.542000 64 47 34
-0.406319 0.697809 2.523000 66 45 27
-0.400521 0.692206 2.487000 68 47 20
-0.397623 0.691518 2.469000 71 47 34
-0.394724 0.690767 2.451000 66 47 49
-0.391986 0.690236 2.434000 61 47 51
-0.391986 0.694497 2.434000 62 48 53
-0.389248 0.693877 2.417000 63 51 64
-0.386510 0.693198 2.400000 60 49 76
-0.383934 0.692750 2.384000 56 44 41
-0.378619 0.687276 2.351000 59 48 7
-0.376042 0.686686 2.335000 61 51 24
-0.373627 0.686336 2.320000 65 49 41
-0.373627 0.690397 2.320000 68 49 49
-0.371050 0.689669 2.304000 66 47 58
-0.371050 0.693702 2.304000 64 48 52
-0.366219 0.688650 2.274000 64 50 46
-0.363803 0.688062 2.259000 64 50 37
-0.361387 0.687422 2.244000 66 46 29
-0.359133 0.687036 2.230000 68 49 39
-0.356717 0.686292 2.215000 71 50 50
-0.354462 0.685808 2.201000 74 53 39
-0.352208 0.685274 2.187000 70 51 29
-0.347859 0.680595 2.160000 66 53 16
-0.345766 0.680257 2.147000 63 48 3
-0.343511 0.679555 2.133000 59 45 23
-0.341418 0.679124 2.120000 63 42 44
-0.339324 0.678648 2.107000 68 38 44
-0.337391 0.678450 2.095000 63 43 45
-0.335298 0.677885 2.082000 59 46 47
-0.331272 0.673346 2.057000 66 45 50
-0.331272 0.676947 2.057000 73 47 38
-0.329339 0.676577 2.045000 69 49 26
-0.327407 0.676166 2.033000 66 49 38
-0.325474 0.675712 2.021000 66 45 50
-0.323541 0.675217 2.009000 67 42 56
-0.321770 0.675017 1.998000 64 44 63
-0.316294 0.666969 1.964000 61 46 59
-0.316294 0.670407 1.964000 64 43 56
-0.314362 0.669727 1.952000 68 44 50
-0.312590 0.669351 1.941000 65 44 45
-0.310980 0.669283 1.931000 63 44 46
-0.309208 0.668831 1.920000 61 45 48
-0.307437 0.668341 1.909000 60 45 53
-0.304055 0.664294 1.888000 61 41 59
-0.302444 0.664063 1.878000 62 41 54
-0.302444 0.667350 1.878000 62 44 49
-0.300834 0.667067 1.868000 62 46 48
-0.300834 0.670337 1.868000 61 46 47
-0.299224 0.670000 1.858000 60 46 45
-0.297613 0.669629 1.848000 59 44 43
-0.292943 0.662305 1.819000 58 45 26
-0.291332 0.661831 1.809000 57 42 10
-0.291332 0.664998 1.809000 56 45 19
-0.289883 0.664840 1.800000 56 48 28
-0.288272 0.664280 1.790000 57 50 28
-0.288272 0.667413 1.790000 60 49 29
-0.286823 0.667175 1.781000 64 45 30
-0.285374 0.666906 1.772000 59 45 31
-0.283924 0.666605 1.763000 54 47 45
-0.281025 0.662853 1.745000 57 44 59
-0.279576 0.662473 1.736000 59 44 53
-0.278288 0.662445 1.728000 63 40 47
-0.276838 0.662004 1.719000 68 35 46
-0.276838 0.665013 1.719000 61 38 46
-0.275550 0.664914 1.711000 54 42 31
-0.633200 0.751490 3.975000 54 20 28
-0.633200 0.758448 3.975000 54 19 30
-0.618863 0.748076 3.885000 55 23 24
-0.612014 0.746522 3.842000 56 32 17
-0.573783 0.744026 3.602000 42 38 28
-0.567889 0.742624 3.565000 50 34 20
-0.561995 0.741092 3.528000 59 36 16
-0.556419 0.739854 3.493000 60 41 12
-0.550844 0.738494 3.458000 62 39 12
-0.545269 0.737011 3.423000 62 37 12
-0.545269 0.743003 3.423000 62 40 27
-0.545269 0.748995 3.423000 58 42 43
-0.540012 0.747709 3.390000 55 38 44
-0.529498 0.738970 3.324000 53 37 45
-0.519622 0.730897 3.262000 51 40 57
-0.514684 0.729607 3.231000 56 42 69
-0.509905 0.728436 3.201000 61 41 59
-0.505286 0.727389 3.172000 61 39 50
-0.500666 0.726241 3.143000 62 41 45
-0.496206 0.725224 3.115000 61 43 40
-0.491745 0.724108 3.087000 60 40 45
-0.487285 0.722896 3.059000 63 31 49
-0.483143 0.722060 3.033000 67 34 49
-0.478842 0.720895 3.006000 65 34 49
-0.478842 0.726157 3.006000 63 40 48
-0.474701 0.725092 2.980000 63 48 47
-0.470718 0.724182 2.955000 63 45 41
-0.466736 0.723184 2.930000 63 44 36
-0.458930 0.716133 2.881000 64 44 28
-0.447621 0.703404 2.810000 65 46 21
-0.447621 0.708323 2.810000 66 43 32
-0.444116 0.707657 2.788000 63 42 44
-0.444116 0.712538 2.788000 60 44 42
-0.436948 0.705838 2.743000 56 46 39
-0.433602 0.705200 2.722000 52 48 49
-0.430257 0.704487 2.701000 56 53 59
-0.430257 0.709215 2.701000 60 46 54
-0.426912 0.708392 2.680000 62 44 50
-0.423567 0.707496 2.659000 64 44 46
-0.420381 0.706794 2.639000 65 44 41
-0.417195 0.706022 2.619000 67 45 41
-0.410983 0.700025 2.580000 65 50 41
-0.407797 0.699080 2.560000 63 48 41
-0.404929 0.698614 2.542000 62 48 40
-0.399035 0.692831 2.505000 62 47 36
-0.396168 0.692206 2.487000 62 47 32
-0.393301 0.691518 2.469000 63 47 40
-0.390433 0.690767 2.451000 63 42 48
-0.387725 0.690236 2.434000 63 45 50
-0.387725 0.694497 2.434000 62 47 51
-0.385017 0.693877 2.417000 62 48 56
-0.382309 0.693198 2.400000 51 50 62
-0.379761 0.692750 2.384000 41 48 43
-0.371955 0.682599 2.335000 51 50 25
-0.371955 0.686686 2.335000 61 51 36
-0.369566 0.686336 2.320000 63 50 46
-0.369566 0.690397 2.320000 65 49 56
-0.367017 0.689669 2.304000 64 47 67
-0.364628 0.689186 2.289000 64 48 60
-0.362238 0.688650 2.274000 64 51 53
-0.359849 0.688062 2.259000 64 46 49
-0.357459 0.687422 2.244000 64 41 45
-0.355229 0.687036 2.230000 65 45 54
-0.352840 0.686292 2.215000 67 48 63
-0.350610 0.685808 2.201000 69 49 51
-0.348379 0.685274 2.187000 67 50 40
-0.344078 0.680595 2.160000 65 49 31
-0.342008 0.680257 2.147000 62 48 22
-0.339777 0.679555 2.133000 59 44 36
-0.337707 0.679124 2.120000 66 42 50
-0.333724 0.674783 2.095000 74 41 49
-0.333724 0.678450 2.095000 64 45 49
-0.329583 0.673652 2.069000 54 44 49
-0.327671 0.673346 2.057000 59 43 49
-0.327671 0.676947 2.057000 65 49 42
-0.325759 0.676577 2.045000 65 53 36
-0.323848 0.676166 2.033000 65 49 43
-0.321936 0.675712 2.021000 63 46 50
-0.320025 0.675217 2.009000 61 44 55
-0.316361 0.670963 1.986000 60 45 61
-0.314609 0.670704 1.975000 60 45 58
-0.312856 0.670407 1.964000 61 44 55
-0.310945 0.669727 1.952000 62 43 49
-0.309193 0.669351 1.941000 63 41 43
-0.309193 0.672749 1.941000 64 44 48
-0.307600 0.672663 1.931000 62 47 54
-0.304095 0.668341 1.909000 60 41 66
-0.300750 0.664294 1.888000 62 36 78
-0.299157 0.664063 1.878000 65 41 66
-0.299157 0.667350 1.878000 63 46 55
-0.297564 0.667067 1.868000 62 46 49
-0.297564 0.670337 1.868000 63 48 43
-0.295971 0.670000 1.858000 64 47 43
-0.294378 0.669629 1.848000 60 45 43
-0.289759 0.662305 1.819000 56 43 30
-0.288166 0.661831 1.809000 50 41 18
-0.288166 0.664998 1.809000 45 42 22
-0.286732 0.664840 1.800000 49 49 27
-0.286732 0.667991 1.800000 54 49 23
-0.285139 0.667413 1.790000 57 50 19
-0.283705 0.667175 1.781000 60 45 28
-0.282272 0.666906 1.772000 60 45 37
-0.280838 0.666605 1.763000 60 44 45
-0.278608 0.664373 1.749000 60 42 53
-0.276537 0.662473 1.736000 60 40 49
-0.275263 0.662445 1.728000 61 37 45
-0.273829 0.662004 1.719000 63 38 50
-0.273829 0.665013 1.719000 54 41 55
-0.272555 0.664914 1.711000 46 40 43
-0.626241 0.751490 3.975000 53 24 31
-0.626241 0.758448 3.975000 55 22 40
-0.612062 0.748076 3.885000 56 21 25
-0.605288 0.746522 3.842000 59 31 11
-0.573464 0.745503 3.640000 52 39 26
-0.567477 0.744026 3.602000 49 38 23
-0.561648 0.742624 3.565000 54 35 21
-0.555819 0.741092 3.528000 60 33 16
-0.550305 0.739854 3.493000 63 35 11
-0.544791 0.738494 3.458000 66 37 13
-0.544791 0.744547 3.458000 65 39 15
-0.539277 0.743003 3.423000 63 43 34
-0.539277 0.748995 3.423000 61 39 53
-0.534078 0.747709 3.390000 60 35 50
-0.523680 0.738970 3.324000 58 39 47
-0.509028 0.723951 3.231000 56 44 63
-0.504302 0.722832 3.201000 61 41 79
-0.504302 0.728436 3.201000 67 41 66
-0.499733 0.727389 3.172000 63 40 53
-0.495164 0.726241 3.143000 59 41 45
-0.490753 0.725224 3.115000 60 45 38
-0.486341 0.724108 3.087000 61 47 41
-0.481930 0.722896 3.059000 66 40 45
-0.477834 0.722060 3.033000 72 39 44
-0.473580 0.720895 3.006000 67 39 44
-0.469484 0.719876 2.980000 62 42 43
-0.469484 0.725092 2.980000 62 45 42
-0.465546 0.724182 2.955000 62 46 40
-0.461607 0.723184 2.930000 63 44 39
-0.453887 0.716133 2.881000 63 44 36
-0.446483 0.709411 2.834000 61 44 34
-0.442702 0.708323 2.810000 60 43 34
-0.439236 0.707657 2.788000 60 45 35
-0.439236 0.712538 2.788000 60 47 40
-0.432146 0.705838 2.743000 58 46 46
-0.428838 0.705200 2.722000 56 46 58
-0.428838 0.709964 2.722000 58 48 71
-0.425529 0.709215 2.701000 60 51 61
-0.422221 0.708392 2.680000 62 47 51
-0.418912 0.707496 2.659000 64 44 47
-0.415761 0.706794 2.639000 68 45 44
-0.412610 0.706022 2.619000 72 47 44
-0.406466 0.700025 2.580000 65 47 44
-0.403315 0.699080 2.560000 59 45 45
-0.400479 0.698614 2.542000 62 46 47
-0.397486 0.697809 2.523000 65 50 45
-0.391814 0.692206 2.487000 64 49 44
-0.388979 0.691518 2.469000 64 53 46
-0.386143 0.690767 2.451000 65 46 48
-0.386143 0.695057 2.451000 67 44 49
-0.383465 0.694497 2.434000 64 45 50
-0.380786 0.693877 2.417000 62 44 49
-0.378108 0.693198 2.400000 56 48 48
-0.375587 0.692750 2.384000 50 50 46
-0.367868 0.682599 2.335000 59 50 44
-0.367868 0.686686 2.335000 68 53 48
-0.365504 0.686336 2.320000 66 51 52
-0.365504 0.690397 2.320000 65 51 64
-0.362984 0.689669 2.304000 63 49 76
-0.360621 0.689186 2.289000 62 49 68
-0.358257 0.688650 2.274000 61 48 60
-0.355894 0.688062 2.259000 61 45 61
-0.353531 0.687422 2.244000 63 44 62
-0.351325 0.687036 2.230000 66 43 69
-0.348962 0.686292 2.215000 68 45 76
-0.346757 0.685808 2.201000 70 46 64
-0.344551 0.685274 2.187000 67 47 52
-0.340297 0.680595 2.160000 65 48 47
-0.338249 0.680257 2.147000 63 46 42
-0.336044 0.679555 2.133000 61 44 49
-0.333995 0.679124 2.120000 65 43 56
-0.330057 0.674783 2.095000 69 42 55
-0.328009 0.674240 2.082000 64 43 54
-0.325961 0.673652 2.069000 59 43 51
-0.324070 0.673346 2.057000 63 49 48
-0.322180 0.672997 2.045000 66 54 47
-0.322180 0.676577 2.045000 67 51 46
-0.320289 0.676166 2.033000 68 49 48
-0.318398 0.675712 2.021000 65 45 51
-0.316508 0.675217 2.009000 62 43 55
-0.312884 0.670963 1.986000 60 43 59
-0.311151 0.670704 1.975000 58 45 57
-0.309418 0.670407 1.964000 56 45 55
-0.307528 0.669727 1.952000 54 46 48
-0.305795 0.669351 1.941000 63 45 41
-0.304219 0.669283 1.931000 72 45 51
-0.302486 0.668831 1.920000 67 42 61
-0.300753 0.668341 1.909000 62 39 79
-0.297445 0.664294 1.888000 63 40 97
-0.295870 0.664063 1.878000 64 44 79
-0.295870 0.667350 1.878000 63 45 61
-0.294294 0.667067 1.868000 63 47 50
-0.294294 0.670337 1.868000 63 48 39
-0.292719 0.670000 1.858000 63 49 41
-0.291143 0.669629 1.848000 61 45 44
-0.287992 0.665582 1.828000 59 44 35
-0.284999 0.661831 1.809000 58 40 26
-0.283581 0.661689 1.800000 56 36 26
-0.283581 0.664840 1.800000 57 45 27
-0.282006 0.664280 1.790000 57 49 18
-0.282006 0.667413 1.790000 58 46 9
-0.280588 0.667175 1.781000 59 42 26
-0.280588 0.670293 1.781000 60 44 44
-0.277752 0.666605 1.763000 61 45 46
-0.276334 0.666272 1.754000 64 43 48
-0.273498 0.662473 1.736000 68 40 46
-0.272238 0.662445 1.728000 65 39 44
-0.270820 0.662004 1.719000 62 42 54
-0.269560 0.661918 1.711000 57 40 65
-0.268142 0.661416 1.702000 52 41 54
-0.619283 0.751490 3.975000 53 23 19
-0.605262 0.741276 3.885000 55 26 26
-0.605262 0.748076 3.885000 58 30 18
-0.579244 0.741953 3.718000 56 31 15
-0.573168 0.740610 3.679000 57 39 15
-0.573168 0.747051 3.679000 59 39 19
-0.567092 0.745503 3.640000 57 39 23
-0.561172 0.744026 3.602000 56 37 17
-0.555408 0.742624 3.565000 59 35 11
-0.555408 0.748864 3.565000 62 34 18
-0.544190 0.739854 3.493000 66 32 26
-0.538738 0.738494 3.458000 71 35 20
-0.538738 0.744547 3.458000 68 39 14
-0.533285 0.743003 3.423000 65 41 27
-0.533285 0.748995 3.423000 65 39 40
-0.528144 0.747709 3.390000 65 39 39
-0.517861 0.738970 3.324000 63 42 37
-0.503372 0.723951 3.231000 61 41 48
-0.498698 0.722832 3.201000 67 40 60
-0.498698 0.728436 3.201000 73 39 49
-0.494180 0.727389 3.172000 64 42 39
-0.494180 0.732942 3.172000 56 42 39
-0.489662 0.731743 3.143000 59 49 38
-0.480938 0.724108 3.087000 63 47 47
-0.472525 0.716751 3.033000 70 45 56
-0.468318 0.715633 3.006000 77 43 43
-0.468318 0.720895 3.006000 69 44 30
-0.464268 0.719876 2.980000 62 44 40
-0.460373 0.719009 2.955000 62 46 51
-0.460373 0.724182 2.955000 62 46 45
-0.452583 0.717014 2.905000 62 44 40
-0.445105 0.710167 2.857000 63 44 40
-0.441522 0.709411 2.834000 58 45 40
-0.437783 0.708323 2.810000 54 45 36
-0.434355 0.707657 2.788000 57 49 32
-0.434355 0.712538 2.788000 61 47 36
-0.430772 0.711500 2.765000 60 46 41
-0.427344 0.710640 2.743000 60 45 49
-0.424073 0.709964 2.722000 60 45 57
-0.420801 0.709215 2.701000 60 49 46
-0.417529 0.708392 2.680000 62 49 35
-0.414258 0.707496 2.659000 65 46 39
-0.411142 0.706794 2.639000 71 47 44
-0.404910 0.700631 2.599000 77 47 46
-0.401950 0.700025 2.580000 66 46 48
-0.398834 0.699080 2.560000 55 45 49
-0.396030 0.698614 2.542000 61 44 50
-0.393070 0.697809 2.523000 68 46 51
-0.387461 0.692206 2.487000 66 46 53
-0.384657 0.691518 2.469000 65 48 45
-0.381852 0.690767 2.451000 68 48 37
-0.381852 0.695057 2.451000 71 45 42
-0.379204 0.694497 2.434000 67 45 48
-0.376555 0.693877 2.417000 63 48 45
-0.373907 0.693198 2.400000 61 51 43
-0.371414 0.692750 2.384000 60 51 42
-0.363780 0.682599 2.335000 67 50 41
-0.361443 0.682275 2.320000 75 50 45
-0.361443 0.686336 2.320000 70 50 50
-0.358951 0.685636 2.304000 65 49 53
-0.358951 0.689669 2.304000 62 50 57
-0.354277 0.684670 2.274000 60 50 55
-0.354277 0.688650 2.274000 59 50 52
-0.351940 0.688062 2.259000 59 48 54
-0.349603 0.687422 2.244000 63 47 56
-0.347422 0.687036 2.230000 67 46 55
-0.342904 0.681955 2.201000 69 46 54
-0.340723 0.681445 2.187000 72 46 51
-0.338697 0.681200 2.174000 68 44 49
-0.336516 0.680595 2.160000 65 47 42
-0.334491 0.680257 2.147000 64 46 36
-0.332310 0.679555 2.133000 63 45 44
-0.330284 0.679124 2.120000 63 44 53
-0.326390 0.674783 2.095000 64 42 51
-0.324364 0.674240 2.082000 64 44 49
-0.322339 0.673652 2.069000 65 46 49
-0.320469 0.673346 2.057000 66 56 48
-0.318600 0.672997 2.045000 68 52 47
-0.318600 0.676577 2.045000 70 50 45
-0.316730 0.676166 2.033000 72 48 55
-0.314861 0.675712 2.021000 67 43 65
-0.312991 0.675217 2.009000 63 41 63
-0.311277 0.675017 1.998000 59 40 61
-0.309408 0.674440 1.986000 56 44 62
-0.305980 0.670407 1.964000 51 47 63
-0.304111 0.669727 1.952000 47 47 46
-0.302397 0.669351 1.941000 63 49 30
-0.300839 0.669283 1.931000 80 45 38
-0.299125 0.668831 1.920000 72 40 46
-0.297412 0.668341 1.909000 65 41 49
-0.294140 0.664294 1.888000 64 41 53
-0.294140 0.667599 1.888000 63 45 51
-0.292582 0.667350 1.878000 64 46 49
-0.291024 0.667067 1.868000 65 46 39
-0.291024 0.670337 1.868000 63 48 30
-0.289466 0.670000 1.858000 62 47 33
-0.287908 0.669629 1.848000 62 43 37
-0.284792 0.665582 1.828000 63 41 32
-0.281832 0.661831 1.809000 65 41 27
-0.280430 0.661689 1.800000 68 42 27
-0.280430 0.664840 1.800000 64 46 28
-0.278872 0.664280 1.790000 61 46 33
-0.278872 0.667413 1.790000 60 44 39
-0.277470 0.667175 1.781000 59 44 44
-0.276068 0.666906 1.772000 60 46 48
-0.274666 0.666605 1.763000 62 45 48
-0.273264 0.666272 1.754000 69 47 48
-0.271861 0.665908 1.745000 76 42 41
-0.269213 0.662445 1.728000 69 39 35
-0.267811 0.662004 1.719000 62 39 45
-0.267811 0.665013 1.719000 60 36 56
-0.266564 0.664914 1.711000 58 39 51
-0.579051 0.743555 3.759000 57 32 21
-0.572736 0.741953 3.718000 54 33 20
-0.566728 0.740610 3.679000 55 37 19
-0.566728 0.747051 3.679000 57 40 19
-0.560720 0.745503 3.640000 58 39 20
-0.554866 0.744026 3.602000 59 37 10
-0.549167 0.742624 3.565000 59 38 1
-0.543467 0.741092 3.528000 60 39 21
-0.538076 0.739854 3.493000 63 37 42
-0.532684 0.738494 3.458000 66 34 27
-0.532684 0.744547 3.458000 65 40 13
-0.527293 0.743003 3.423000 63 44 20
-0.522209 0.741774 3.390000 63 41 28
-0.517126 0.740430 3.357000 62 43 28
-0.507267 0.732078 3.293000 61 42 28
-0.497716 0.723951 3.231000 59 41 34
-0.493095 0.722832 3.201000 63 37 41
-0.493095 0.728436 3.201000 66 36 33
-0.488628 0.727389 3.172000 59 38 26
-0.484160 0.726241 3.143000 51 39 32
-0.479847 0.725224 3.115000 56 46 39
-0.475534 0.724108 3.087000 61 48 53
-0.467215 0.716751 3.033000 66 44 68
-0.467215 0.722060 3.033000 70 45 42
-0.463056 0.720895 3.006000 65 43 17
-0.459051 0.719876 2.980000 60 46 38
-0.459051 0.725092 2.980000 59 46 60
-0.455200 0.724182 2.955000 57 48 50
-0.447498 0.717014 2.905000 61 45 41
-0.440104 0.710167 2.857000 64 45 44
-0.432864 0.703404 2.810000 61 44 47
-0.432864 0.708323 2.810000 59 46 38
-0.429475 0.707657 2.788000 63 47 29
-0.429475 0.712538 2.788000 68 47 33
-0.425932 0.711500 2.765000 65 46 37
-0.422543 0.710640 2.743000 63 46 40
-0.419308 0.709964 2.722000 58 48 43
-0.416073 0.709215 2.701000 54 52 31
-0.416073 0.713943 2.701000 58 49 19
-0.412838 0.713084 2.680000 62 46 32
-0.409603 0.712151 2.659000 67 48 45
-0.400360 0.700631 2.599000 72 49 48
-0.397434 0.700025 2.580000 65 47 52
-0.394353 0.699080 2.560000 59 47 53
-0.391580 0.698614 2.542000 63 45 54
-0.388653 0.697809 2.523000 67 44 58
-0.385880 0.697216 2.505000 66 45 62
-0.383107 0.696559 2.487000 65 46 44
-0.380335 0.695840 2.469000 67 45 27
-0.377562 0.695057 2.451000 70 45 36
-0.374943 0.694497 2.434000 67 47 46
-0.372324 0.693877 2.417000 64 52 42
-0.369706 0.693198 2.400000 61 54 38
-0.367241 0.692750 2.384000 59 54 38
-0.362157 0.687276 2.351000 63 50 39
-0.359693 0.686686 2.335000 68 48 43
-0.357382 0.686336 2.320000 66 47 48
-0.354917 0.685636 2.304000 65 48 43
-0.352607 0.685179 2.289000 63 50 39
-0.350296 0.684670 2.274000 62 53 42
-0.350296 0.688650 2.274000 61 51 45
-0.347985 0.688062 2.259000 60 51 48
-0.345675 0.687422 2.244000 63 50 51
-0.343518 0.687036 2.230000 66 50 41
-0.339051 0.681955 2.201000 65 48 32
-0.336894 0.681445 2.187000 65 49 39
-0.334892 0.681200 2.174000 65 47 46
-0.330732 0.676498 2.147000 66 50 38
-0.328576 0.675821 2.133000 63 48 31
-0.328576 0.679555 2.133000 61 46 40
-0.326573 0.679124 2.120000 59 44 50
-0.322722 0.674783 2.095000 56 38 47
-0.318717 0.670030 2.069000 60 42 45
-0.316869 0.669745 2.057000 64 44 47
-0.316869 0.673346 2.057000 66 49 49
-0.315020 0.672997 2.045000 68 51 47
-0.313171 0.672607 2.033000 66 51 45
-0.311323 0.672175 2.021000 65 51 62
-0.311323 0.675712 2.021000 63 42 79
-0.309474 0.675217 2.009000 62 38 71
-0.305931 0.670963 1.986000 61 41 63
-0.304237 0.670704 1.975000 60 44 67
-0.302542 0.670407 1.964000 57 45 71
-0.300694 0.669727 1.952000 55 47 45
-0.298999 0.669351 1.941000 63 48 20
-0.297459 0.669283 1.931000 72 49 25
-0.295764 0.668831 1.920000 67 45 31
-0.294070 0.668341 1.909000 62 47 20
-0.290835 0.664294 1.888000 62 46 10
-0.290835 0.667599 1.888000 63 49 24
-0.289295 0.667350 1.878000 65 47 38
-0.287754 0.667067 1.868000 68 45 29
-0.287754 0.670337 1.868000 65 47 21
-0.286214 0.670000 1.858000 62 49 25
-0.283133 0.666006 1.838000 61 45 30
-0.281592 0.665582 1.828000 59 39 29
-0.278666 0.661831 1.809000 61 41 28
-0.277279 0.661689 1.800000 63 46 28
-0.277279 0.664840 1.800000 61 44 29
-0.275739 0.664280 1.790000 60 47 49
-0.275739 0.667413 1.790000 58 46 70
-0.274352 0.667175 1.781000 57 46 61
-0.272966 0.666906 1.772000 59 46 53
-0.271580 0.666605 1.763000 62 45 50
