ply
format ascii 1.0
element vertex 1292
property float x
property float y
property float z
property uchar red
property uchar green
property uchar blue
end_header
-0.290096 0.663518 1.763000 93 67 88
-0.288615 0.663202 1.754000 91 68 90
-0.288615 0.666272 1.754000 89 71 93
-0.285654 0.662473 1.736000 88 73 93
-0.284337 0.662445 1.728000 87 72 93
-0.282856 0.662004 1.719000 87 71 93
-0.281540 0.661918 1.711000 87 73 94
-0.280059 0.661416 1.702000 88 74 95
-0.647116 0.758448 3.975000 68 33 37
-0.639790 0.756741 3.930000 71 33 35
-0.632464 0.754877 3.885000 69 34 34
-0.632464 0.761678 3.885000 68 34 35
-0.625464 0.759973 3.842000 67 33 37
-0.611952 0.750135 3.759000 67 33 42
-0.605277 0.748461 3.718000 69 36 48
-0.598928 0.747051 3.679000 71 37 37
-0.592579 0.745503 3.640000 73 31 25
-0.586393 0.744026 3.602000 76 32 29
-0.580369 0.742624 3.565000 80 34 33
-0.574346 0.741092 3.528000 84 37 32
-0.568648 0.739854 3.493000 76 39 32
-0.562950 0.738494 3.458000 68 39 27
-0.562950 0.744547 3.458000 65 40 23
-0.557252 0.743003 3.423000 62 44 29
-0.551880 0.741774 3.390000 66 49 35
-0.546508 0.740430 3.357000 70 46 33
-0.541136 0.738970 3.324000 74 44 31
-0.536089 0.737843 3.293000 78 45 40
-0.531042 0.736607 3.262000 73 44 48
-0.525995 0.735263 3.231000 68 45 48
-0.521112 0.734039 3.201000 67 46 47
-0.511669 0.726241 3.143000 67 42 47
-0.507111 0.725224 3.115000 69 34 47
-0.502553 0.724108 3.087000 71 39 46
-0.497995 0.722896 3.059000 71 41 45
-0.489366 0.715633 3.006000 71 43 49
-0.485134 0.714659 2.980000 69 46 54
-0.485134 0.719876 2.980000 68 46 51
-0.481064 0.719009 2.955000 67 49 48
-0.472924 0.711928 2.905000 66 45 45
-0.469017 0.711090 2.881000 58 42 41
-0.461365 0.704450 2.834000 51 45 50
-0.457458 0.703404 2.810000 65 46 59
-0.453877 0.702777 2.788000 80 45 55
-0.450132 0.701819 2.765000 75 46 52
-0.450132 0.706660 2.765000 71 49 52
-0.446551 0.705838 2.743000 62 52 53
-0.443132 0.705200 2.722000 53 48 50
-0.439713 0.704487 2.701000 62 45 47
-0.439713 0.709215 2.701000 72 47 50
-0.436295 0.708392 2.680000 74 53 53
-0.432876 0.707496 2.659000 77 52 54
-0.429620 0.706794 2.639000 78 50 56
-0.426364 0.706022 2.619000 80 48 57
-0.420015 0.700025 2.580000 79 48 57
-0.416759 0.699080 2.560000 79 50 63
-0.410736 0.693392 2.523000 83 51 69
-0.407805 0.692831 2.505000 87 51 60
-0.404875 0.692206 2.487000 80 50 52
-0.401945 0.691518 2.469000 74 54 59
-0.399014 0.690767 2.451000 68 54 66
-0.399014 0.695057 2.451000 62 53 66
-0.396247 0.694497 2.434000 70 52 66
-0.393479 0.693877 2.417000 79 52 69
-0.393479 0.698108 2.417000 80 51 73
-0.390712 0.697399 2.400000 81 53 74
-0.382735 0.687276 2.351000 80 51 76
-0.380130 0.686686 2.335000 79 52 79
-0.377688 0.686336 2.320000 79 55 82
-0.377688 0.690397 2.320000 79 55 75
-0.375083 0.689669 2.304000 79 58 69
-0.372641 0.689186 2.289000 79 57 73
-0.370199 0.688650 2.274000 79 58 77
-0.367757 0.688062 2.259000 79 56 78
-0.365315 0.687422 2.244000 81 53 79
-0.363036 0.687036 2.230000 83 57 78
-0.358315 0.681955 2.201000 83 60 78
-0.356036 0.681445 2.187000 84 60 78
-0.353920 0.681200 2.174000 84 59 79
-0.349524 0.676498 2.147000 84 60 80
-0.349524 0.680257 2.147000 83 58 82
-0.347245 0.679555 2.133000 82 60 72
-0.345129 0.679124 2.120000 82 61 62
-0.343012 0.678648 2.107000 82 63 73
-0.343012 0.682336 2.107000 81 64 84
-0.341059 0.682117 2.095000 81 64 89
-0.336826 0.677274 2.069000 81 62 93
-0.334872 0.676947 2.057000 82 64 87
-0.332919 0.676577 2.045000 81 67 81
-0.332919 0.680157 2.045000 80 63 82
-0.330965 0.679725 2.033000 82 63 83
-0.329012 0.679250 2.021000 84 64 84
-0.327058 0.678734 2.009000 84 67 86
-0.323314 0.674440 1.986000 85 65 85
-0.321523 0.674161 1.975000 87 62 83
-0.319732 0.673845 1.964000 90 65 76
-0.317779 0.673144 1.952000 87 65 70
-0.314360 0.669283 1.931000 84 67 80
-0.312569 0.668831 1.920000 79 73 90
-0.310778 0.668341 1.909000 75 71 87
-0.309151 0.668164 1.899000 80 68 84
-0.309151 0.671488 1.899000 85 66 86
-0.307360 0.670904 1.888000 91 67 88
-0.305732 0.670638 1.878000 97 67 85
-0.304104 0.670337 1.868000 90 69 83
-0.302476 0.670000 1.858000 83 68 91
-0.300848 0.669629 1.848000 84 68 99
-0.297592 0.665582 1.828000 85 67 97
-0.296127 0.665489 1.819000 84 68 96
-0.294499 0.664998 1.809000 84 67 97
-0.293034 0.664840 1.800000 86 70 98
-0.291406 0.664280 1.790000 88 68 94
-0.291406 0.667413 1.790000 94 69 89
-0.289941 0.667175 1.781000 100 67 86
-0.288475 0.666906 1.772000 96 68 83
-0.287010 0.666605 1.763000 92 68 87
-0.284080 0.662853 1.745000 93 71 92
-0.282615 0.662473 1.736000 94 72 90
-0.281312 0.662445 1.728000 91 69 89
-0.279847 0.662004 1.719000 88 71 91
-0.278545 0.661918 1.711000 87 73 93
-0.277080 0.661416 1.702000 87 73 94
-0.640158 0.765406 3.975000 74 32 41
-0.632911 0.763621 3.930000 71 32 34
-0.625664 0.761678 3.885000 68 34 33
-0.618739 0.759973 3.842000 64 35 32
-0.605372 0.750135 3.759000 60 34 37
-0.605372 0.756715 3.759000 63 37 42
-0.598769 0.754970 3.718000 67 42 38
-0.592488 0.753491 3.679000 70 34 34
-0.580088 0.744026 3.602000 73 32 34
-0.580088 0.750331 3.602000 74 35 35
-0.574129 0.748864 3.565000 76 37 32
-0.568170 0.747268 3.528000 72 36 30
-0.556897 0.738494 3.458000 68 39 18
-0.556897 0.744547 3.458000 66 41 7
-0.551261 0.743003 3.423000 64 44 19
-0.540631 0.734554 3.357000 67 46 32
-0.535317 0.733152 3.324000 70 46 29
-0.535317 0.738970 3.324000 71 43 26
-0.530325 0.737843 3.293000 73 42 41
-0.520340 0.729607 3.231000 68 43 56
-0.515508 0.728436 3.201000 63 45 51
-0.510838 0.727389 3.172000 66 44 46
-0.506168 0.726241 3.143000 69 44 47
-0.497149 0.718705 3.087000 70 40 49
-0.492640 0.717541 3.059000 72 40 46
-0.492640 0.722896 3.059000 70 43 44
-0.484104 0.715633 3.006000 69 45 48
-0.479917 0.714659 2.980000 69 45 52
-0.475891 0.713836 2.955000 70 46 51
-0.471865 0.712926 2.930000 72 48 50
-0.467839 0.711928 2.905000 74 49 49
-0.463974 0.711090 2.881000 67 46 49
-0.456404 0.704450 2.834000 61 47 59
-0.452539 0.703404 2.810000 69 45 70
-0.448996 0.702777 2.788000 77 45 62
-0.445292 0.701819 2.765000 73 47 55
-0.445292 0.706660 2.765000 70 50 54
-0.441749 0.705838 2.743000 65 48 54
-0.438367 0.705200 2.722000 61 46 50
-0.434985 0.704487 2.701000 67 44 46
-0.431603 0.703701 2.680000 74 42 47
-0.431603 0.708392 2.680000 75 48 49
-0.428221 0.707496 2.659000 77 53 51
-0.425000 0.706794 2.639000 78 49 54
-0.421780 0.706022 2.619000 78 47 53
-0.415499 0.700025 2.580000 79 47 52
-0.412278 0.699080 2.560000 80 47 62
-0.409379 0.698614 2.542000 81 49 73
-0.403420 0.692831 2.505000 83 49 65
-0.400521 0.692206 2.487000 80 52 57
-0.397623 0.691518 2.469000 77 55 62
-0.394724 0.690767 2.451000 76 54 67
-0.394724 0.695057 2.451000 75 53 67
-0.391986 0.694497 2.434000 78 51 67
-0.389248 0.693877 2.417000 81 51 69
-0.386510 0.693198 2.400000 80 52 72
-0.383934 0.692750 2.384000 80 56 74
-0.378619 0.687276 2.351000 78 53 76
-0.376042 0.686686 2.335000 77 51 76
-0.373627 0.686336 2.320000 78 51 76
-0.373627 0.690397 2.320000 79 51 71
-0.371050 0.689669 2.304000 81 55 66
-0.368634 0.689186 2.289000 84 55 71
-0.366219 0.688650 2.274000 82 57 76
-0.363803 0.688062 2.259000 80 60 77
-0.361387 0.687422 2.244000 81 57 78
-0.359133 0.687036 2.230000 83 60 76
-0.354462 0.681955 2.201000 83 62 74
-0.354462 0.685808 2.201000 84 65 77
-0.352208 0.685274 2.187000 84 60 81
-0.345766 0.676498 2.147000 85 60 84
-0.343511 0.675821 2.133000 86 59 87
-0.343511 0.679555 2.133000 87 60 68
-0.341418 0.679124 2.120000 84 61 49
-0.339324 0.678648 2.107000 82 64 66
-0.337391 0.678450 2.095000 79 66 84
-0.335298 0.677885 2.082000 76 71 93
-0.333204 0.677274 2.069000 82 65 103
-0.331272 0.676947 2.057000 87 64 91
-0.331272 0.680547 2.057000 82 64 80
-0.329339 0.680157 2.045000 78 63 81
-0.327407 0.679725 2.033000 83 62 82
-0.325474 0.679250 2.021000 89 65 84
-0.323541 0.678734 2.009000 87 67 87
-0.319837 0.674440 1.986000 84 69 86
-0.318066 0.674161 1.975000 84 67 86
-0.316294 0.673845 1.964000 83 69 82
-0.314362 0.673144 1.952000 83 65 79
-0.312590 0.672749 1.941000 83 64 80
-0.309208 0.668831 1.920000 80 70 82
-0.307437 0.668341 1.909000 78 73 80
-0.305826 0.668164 1.899000 81 69 79
-0.304055 0.667599 1.888000 85 64 84
-0.304055 0.670904 1.888000 88 65 90
-0.302444 0.670638 1.878000 92 65 90
-0.300834 0.670337 1.868000 88 66 90
-0.299224 0.670000 1.858000 85 67 93
-0.299224 0.673253 1.858000 85 66 96
-0.294392 0.665582 1.828000 86 65 96
-0.291332 0.661831 1.809000 85 67 96
-0.291332 0.664998 1.809000 85 69 97
-0.289883 0.664840 1.800000 85 67 98
-0.288272 0.664280 1.790000 85 67 94
-0.286823 0.664057 1.781000 91 68 90
-0.286823 0.667175 1.781000 96 68 84
-0.285374 0.666906 1.772000 94 67 78
-0.282475 0.663202 1.754000 91 68 84
-0.281025 0.662853 1.745000 90 71 91
-0.279576 0.662473 1.736000 90 76 88
-0.278288 0.662445 1.728000 89 73 85
-0.276838 0.662004 1.719000 88 74 88
-0.275550 0.661918 1.711000 87 74 92
-0.274100 0.661416 1.702000 87 75 94
-0.633200 0.765406 3.975000 78 32 31
-0.633200 0.772365 3.975000 73 31 30
-0.626032 0.770500 3.930000 68 35 32
-0.618863 0.768478 3.885000 60 39 33
-0.598792 0.750135 3.759000 53 37 40
-0.592261 0.748461 3.718000 58 39 47
-0.592261 0.754970 3.718000 63 38 40
-0.586048 0.753491 3.679000 66 34 34
-0.579836 0.751875 3.640000 70 35 34
-0.567889 0.742624 3.565000 69 38 34
-0.567889 0.748864 3.565000 69 36 32
-0.556419 0.739854 3.493000 68 32 30
-0.550844 0.738494 3.458000 68 38 23
-0.550844 0.744547 3.458000 67 44 17
-0.545269 0.743003 3.423000 67 44 26
-0.540012 0.741774 3.390000 68 45 35
-0.534755 0.740430 3.357000 70 44 34
-0.529498 0.738970 3.324000 69 43 33
-0.524560 0.737843 3.293000 68 42 42
-0.519622 0.736607 3.262000 63 43 51
-0.514684 0.735263 3.231000 59 43 45
-0.505286 0.727389 3.172000 65 44 40
-0.500666 0.726241 3.143000 71 44 43
-0.491745 0.718705 3.087000 72 45 47
-0.491745 0.724108 3.087000 74 42 42
-0.487285 0.722896 3.059000 70 46 36
-0.478842 0.715633 3.006000 67 46 43
-0.474701 0.714659 2.980000 69 45 50
-0.470718 0.713836 2.955000 72 46 53
-0.466736 0.712926 2.930000 77 49 56
-0.462754 0.711928 2.905000 83 48 51
-0.458930 0.711090 2.881000 77 47 46
-0.455107 0.710167 2.857000 71 46 50
-0.447621 0.703404 2.810000 73 45 54
-0.444116 0.702777 2.788000 75 45 53
-0.440452 0.701819 2.765000 72 47 52
-0.440452 0.706660 2.765000 69 46 53
-0.436948 0.705838 2.743000 69 46 54
-0.433602 0.705200 2.722000 69 45 52
-0.430257 0.704487 2.701000 72 45 50
-0.426912 0.703701 2.680000 76 43 52
-0.426912 0.708392 2.680000 77 46 54
-0.423567 0.707496 2.659000 78 49 54
-0.420381 0.706794 2.639000 77 49 55
-0.417195 0.706022 2.619000 77 48 55
-0.410983 0.700025 2.580000 79 46 55
-0.404929 0.694164 2.542000 81 48 62
-0.401903 0.693392 2.523000 80 49 69
-0.399035 0.692831 2.505000 80 51 64
-0.393301 0.687196 2.469000 80 54 60
-0.393301 0.691518 2.469000 80 55 62
-0.390433 0.690767 2.451000 84 55 65
-0.387725 0.690236 2.434000 88 52 64
-0.387725 0.694497 2.434000 85 49 63
-0.385017 0.693877 2.417000 83 49 67
-0.382309 0.693198 2.400000 81 50 72
-0.379761 0.692750 2.384000 79 52 73
-0.374504 0.687276 2.351000 77 54 74
-0.371955 0.686686 2.335000 75 50 74
-0.369566 0.686336 2.320000 77 47 74
-0.369566 0.690397 2.320000 80 51 68
-0.367017 0.689669 2.304000 84 57 62
-0.364628 0.689186 2.289000 89 56 70
-0.362238 0.688650 2.274000 85 55 77
-0.359849 0.688062 2.259000 81 57 76
-0.355229 0.683133 2.230000 82 56 76
-0.352840 0.682415 2.215000 83 59 75
-0.350610 0.681955 2.201000 83 64 75
-0.348379 0.681445 2.187000 84 62 77
-0.346308 0.681200 2.174000 85 59 79
-0.342008 0.676498 2.147000 87 59 81
-0.339777 0.675821 2.133000 89 60 83
-0.339777 0.679555 2.133000 92 60 72
-0.337707 0.679124 2.120000 87 62 62
-0.335636 0.678648 2.107000 82 63 72
-0.333724 0.678450 2.095000 77 67 83
-0.331653 0.677885 2.082000 72 66 85
-0.329583 0.677274 2.069000 82 64 87
-0.327671 0.676947 2.057000 93 63 83
-0.327671 0.680547 2.057000 84 62 79
-0.325759 0.680157 2.045000 76 62 79
-0.323848 0.679725 2.033000 85 59 79
-0.321936 0.679250 2.021000 95 63 82
-0.318273 0.675017 1.998000 89 68 85
-0.316361 0.674440 1.986000 84 67 88
-0.312856 0.670407 1.964000 80 68 91
-0.310945 0.669727 1.952000 77 66 86
-0.310945 0.673144 1.952000 79 65 81
-0.309193 0.672749 1.941000 82 68 81
-0.307600 0.672663 1.931000 82 73 82
-0.305847 0.672192 1.920000 82 71 82
-0.302502 0.668164 1.899000 83 71 82
-0.300750 0.667599 1.888000 85 66 87
-0.300750 0.670904 1.888000 86 64 92
-0.299157 0.670638 1.878000 87 65 92
-0.297564 0.670337 1.868000 87 64 93
-0.297564 0.673607 1.868000 87 65 97
-0.295971 0.673253 1.858000 87 65 101
-0.291192 0.665582 1.828000 87 65 98
-0.289759 0.665489 1.819000 86 68 96
-0.288166 0.664998 1.809000 86 67 99
-0.286732 0.664840 1.800000 84 65 103
-0.285139 0.664280 1.790000 83 67 97
-0.285139 0.667413 1.790000 88 71 91
-0.283705 0.667175 1.781000 93 69 87
-0.282272 0.666906 1.772000 92 64 83
-0.279404 0.663202 1.754000 91 66 88
-0.277971 0.662853 1.745000 88 70 93
-0.275263 0.659420 1.728000 86 73 90
-0.275263 0.662445 1.728000 87 76 87
-0.273829 0.662004 1.719000 88 74 89
-0.272555 0.661918 1.711000 88 75 92
-0.271121 0.661416 1.702000 88 75 94
-0.626241 0.765406 3.975000 72 34 22
-0.626241 0.772365 3.975000 70 34 27
-0.619152 0.770500 3.930000 67 36 31
-0.612062 0.768478 3.885000 61 36 35
-0.592212 0.750135 3.759000 55 36 43
-0.592212 0.756715 3.759000 60 39 52
-0.585752 0.754970 3.718000 64 39 43
-0.579608 0.753491 3.679000 66 37 35
-0.573464 0.751875 3.640000 69 39 34
-0.561648 0.742624 3.565000 68 36 33
-0.561648 0.748864 3.565000 68 38 32
-0.555819 0.747268 3.528000 69 38 31
-0.550305 0.745969 3.493000 71 40 29
-0.544791 0.744547 3.458000 69 43 27
-0.539277 0.743003 3.423000 67 46 33
-0.534078 0.741774 3.390000 68 45 39
-0.528879 0.740430 3.357000 70 45 40
-0.523680 0.738970 3.324000 68 42 41
-0.518796 0.737843 3.293000 67 42 44
-0.509028 0.729607 3.231000 66 42 47
-0.504302 0.728436 3.201000 65 43 40
-0.499733 0.727389 3.172000 68 44 34
-0.495164 0.726241 3.143000 72 45 40
-0.490753 0.725224 3.115000 74 42 46
-0.481930 0.717541 3.059000 76 40 37
-0.481930 0.722896 3.059000 68 45 29
-0.473580 0.715633 3.006000 60 50 38
-0.469484 0.714659 2.980000 65 47 48
-0.465546 0.713836 2.955000 70 47 55
-0.461607 0.712926 2.930000 74 49 62
-0.457668 0.711928 2.905000 77 47 53
-0.453887 0.711090 2.881000 75 46 44
-0.450106 0.710167 2.857000 73 47 41
-0.442702 0.703404 2.810000 73 44 39
-0.439236 0.702777 2.788000 73 44 44
-0.435612 0.701819 2.765000 71 46 49
-0.435612 0.706660 2.765000 70 42 52
-0.432146 0.705838 2.743000 70 46 55
-0.428838 0.705200 2.722000 71 46 54
-0.425529 0.704487 2.701000 75 43 54
-0.425529 0.709215 2.701000 79 42 56
-0.422221 0.708392 2.680000 78 45 59
-0.418912 0.707496 2.659000 77 49 57
-0.415761 0.706794 2.639000 76 49 56
-0.412610 0.706022 2.619000 75 50 57
-0.406466 0.700025 2.580000 76 50 58
-0.403315 0.699080 2.560000 77 50 62
-0.400479 0.698614 2.542000 76 52 66
-0.394650 0.692831 2.505000 74 54 64
-0.391814 0.692206 2.487000 76 53 63
-0.388979 0.691518 2.469000 77 56 63
-0.386143 0.690767 2.451000 78 54 64
-0.386143 0.695057 2.451000 79 53 62
-0.383465 0.694497 2.434000 80 51 60
-0.380786 0.693877 2.417000 81 49 66
-0.378108 0.693198 2.400000 79 51 72
-0.375587 0.692750 2.384000 78 51 72
-0.370388 0.687276 2.351000 77 51 73
-0.367868 0.686686 2.335000 75 51 73
-0.365504 0.686336 2.320000 77 50 73
-0.365504 0.690397 2.320000 79 51 66
-0.362984 0.689669 2.304000 79 55 59
-0.360621 0.689186 2.289000 79 59 69
-0.358257 0.688650 2.274000 79 58 79
-0.355894 0.688062 2.259000 79 57 76
-0.353531 0.687422 2.244000 81 56 74
-0.348962 0.682415 2.215000 83 56 75
-0.346757 0.681955 2.201000 83 61 76
-0.344551 0.681445 2.187000 83 63 76
-0.342503 0.681200 2.174000 84 60 77
-0.338249 0.676498 2.147000 85 60 78
-0.336044 0.675821 2.133000 86 61 79
-0.336044 0.679555 2.133000 87 59 77
-0.333995 0.679124 2.120000 85 60 76
-0.331947 0.678648 2.107000 83 60 79
-0.330057 0.678450 2.095000 80 64 82
-0.328009 0.677885 2.082000 77 63 77
-0.325961 0.677274 2.069000 83 63 72
-0.324070 0.676947 2.057000 89 64 75
-0.324070 0.680547 2.057000 84 63 78
-0.322180 0.680157 2.045000 79 64 77
-0.320289 0.679725 2.033000 84 62 77
-0.318398 0.679250 2.021000 89 60 80
-0.314775 0.675017 1.998000 86 65 83
-0.312884 0.674440 1.986000 84 65 90
-0.311151 0.674161 1.975000 82 66 97
-0.307528 0.669727 1.952000 81 65 90
-0.307528 0.673144 1.952000 83 66 84
-0.304219 0.669283 1.931000 85 70 83
-0.302486 0.668831 1.920000 83 68 82
-0.302486 0.672192 1.920000 81 68 84
-0.299178 0.668164 1.899000 82 69 86
-0.299178 0.671488 1.899000 83 68 90
-0.297445 0.670904 1.888000 84 67 94
-0.295870 0.670638 1.878000 85 68 95
-0.294294 0.670337 1.868000 86 65 97
-0.294294 0.673607 1.868000 86 65 101
-0.292719 0.673253 1.858000 86 65 106
-0.287992 0.665582 1.828000 87 65 101
-0.284999 0.661831 1.809000 86 68 96
-0.283581 0.661689 1.800000 85 69 102
-0.283581 0.664840 1.800000 82 67 108
-0.282006 0.664280 1.790000 80 67 100
-0.282006 0.667413 1.790000 86 71 92
-0.280588 0.667175 1.781000 92 74 90
-0.279170 0.666906 1.772000 93 67 89
-0.276334 0.663202 1.754000 93 63 92
-0.275546 0.664373 1.749000 91 69 96
-0.273498 0.662473 1.736000 88 71 93
-0.272238 0.662445 1.728000 88 73 90
-0.270820 0.662004 1.719000 89 73 91
-0.269560 0.661918 1.711000 89 74 92
-0.268142 0.661416 1.702000 89 76 95
-0.619283 0.765406 3.975000 67 37 28
-0.619283 0.772365 3.975000 67 38 27
-0.612273 0.770500 3.930000 67 38 29
-0.605262 0.768478 3.885000 62 35 32
-0.579244 0.741953 3.718000 58 37 37
-0.579244 0.748461 3.718000 62 42 41
-0.579244 0.754970 3.718000 66 39 37
-0.573168 0.753491 3.679000 67 36 33
-0.573168 0.759931 3.679000 68 36 39
-0.555408 0.742624 3.565000 68 31 44
-0.555408 0.748864 3.565000 68 37 32
-0.544190 0.739854 3.493000 71 42 20
-0.538738 0.738494 3.458000 74 41 24
-0.538738 0.744547 3.458000 71 42 27
-0.533285 0.743003 3.423000 68 42 33
-0.533285 0.748995 3.423000 69 44 38
-0.523002 0.740430 3.357000 70 43 43
-0.517861 0.738970 3.324000 68 41 48
-0.513031 0.737843 3.293000 67 41 54
-0.508202 0.736607 3.262000 69 40 60
-0.503372 0.735263 3.231000 71 44 51
-0.494180 0.727389 3.172000 72 47 42
-0.489662 0.726241 3.143000 74 44 44
-0.485300 0.725224 3.115000 76 40 47
-0.476576 0.717541 3.059000 79 41 41
-0.476576 0.722896 3.059000 66 44 35
-0.468318 0.715633 3.006000 53 47 41
-0.468318 0.720895 3.006000 61 49 48
-0.464268 0.719876 2.980000 69 49 50
-0.460373 0.719009 2.955000 70 54 53
-0.456478 0.718055 2.930000 72 50 49
-0.452583 0.717014 2.905000 74 46 46
-0.445105 0.710167 2.857000 76 46 47
-0.441522 0.709411 2.834000 73 40 48
-0.434355 0.702777 2.788000 71 45 48
-0.434355 0.707657 2.788000 71 53 48
-0.430772 0.706660 2.765000 71 48 50
-0.427344 0.705838 2.743000 72 50 52
-0.424073 0.705200 2.722000 73 46 55
-0.424073 0.709964 2.722000 78 41 58
-0.420801 0.709215 2.701000 83 43 63
-0.417529 0.708392 2.680000 79 44 68
-0.414258 0.707496 2.659000 76 47 64
-0.411142 0.706794 2.639000 74 50 60
-0.404910 0.700631 2.599000 73 52 58
-0.398834 0.694599 2.560000 73 56 56
-0.396030 0.694164 2.542000 74 54 61
-0.393070 0.693392 2.523000 71 55 66
-0.390265 0.692831 2.505000 69 53 67
-0.387461 0.692206 2.487000 72 51 68
-0.384657 0.691518 2.469000 75 52 67
-0.381852 0.690767 2.451000 73 52 65
-0.381852 0.695057 2.451000 71 53 56
-0.379204 0.694497 2.434000 75 56 46
-0.376555 0.693877 2.417000 79 55 57
-0.373907 0.693198 2.400000 78 55 68
-0.371414 0.692750 2.384000 78 50 73
-0.366273 0.687276 2.351000 77 50 78
-0.363780 0.686686 2.335000 76 51 75
-0.361443 0.686336 2.320000 77 54 72
-0.361443 0.690397 2.320000 79 53 69
-0.358951 0.689669 2.304000 74 54 67
-0.354277 0.684670 2.274000 69 60 72
-0.354277 0.688650 2.274000 73 62 77
-0.351940 0.688062 2.259000 78 59 72
-0.349603 0.687422 2.244000 81 58 68
-0.347422 0.687036 2.230000 84 57 72
-0.342904 0.681955 2.201000 83 62 76
-0.338697 0.677395 2.174000 83 62 77
-0.336516 0.676813 2.160000 83 61 79
-0.334491 0.676498 2.147000 83 62 79
-0.332310 0.675821 2.133000 82 65 79
-0.332310 0.679555 2.133000 82 61 79
-0.330284 0.679124 2.120000 83 60 80
-0.328259 0.678648 2.107000 84 62 80
-0.326390 0.678450 2.095000 83 67 81
-0.324364 0.677885 2.082000 82 64 79
-0.322339 0.677274 2.069000 84 61 77
-0.320469 0.676947 2.057000 86 63 77
-0.320469 0.680547 2.057000 84 65 78
-0.318600 0.680157 2.045000 82 66 78
-0.316730 0.679725 2.033000 82 67 78
-0.314861 0.679250 2.021000 83 65 80
-0.311277 0.675017 1.998000 84 67 82
-0.309408 0.674440 1.986000 85 66 87
-0.307694 0.674161 1.975000 85 66 92
-0.305980 0.673845 1.964000 85 65 88
-0.304111 0.673144 1.952000 87 65 85
-0.300839 0.669283 1.931000 89 65 82
-0.299125 0.668831 1.920000 84 62 80
-0.299125 0.672192 1.920000 80 66 83
-0.297412 0.671683 1.909000 80 70 86
-0.295854 0.671488 1.899000 81 71 88
-0.294140 0.670904 1.888000 82 70 91
-0.292582 0.670638 1.878000 84 68 91
-0.291024 0.670337 1.868000 85 65 91
-0.291024 0.673607 1.868000 86 65 95
-0.289466 0.673253 1.858000 86 65 100
-0.284792 0.665582 1.828000 87 67 96
-0.281832 0.661831 1.809000 85 71 93
-0.281832 0.664998 1.809000 84 71 96
-0.280430 0.664840 1.800000 81 69 100
-0.278872 0.664280 1.790000 78 69 96
-0.278872 0.667413 1.790000 85 73 92
-0.277470 0.667175 1.781000 92 70 89
-0.276068 0.666906 1.772000 94 67 87
-0.274666 0.666605 1.763000 96 69 91
-0.273264 0.666272 1.754000 93 73 95
-0.270459 0.662473 1.736000 91 73 94
-0.269213 0.662445 1.728000 90 72 93
-0.267811 0.662004 1.719000 90 73 96
-0.266564 0.661918 1.711000 90 75 99
-0.265162 0.661416 1.702000 90 75 99
-0.612325 0.751490 3.975000 61 38 40
-0.612325 0.758448 3.975000 64 38 43
-0.612325 0.765406 3.975000 68 39 35
-0.605393 0.763621 3.930000 66 41 27
-0.605393 0.770500 3.930000 65 43 28
-0.598461 0.768478 3.885000 63 39 30
-0.579051 0.750135 3.759000 60 36 30
-0.572736 0.748461 3.718000 62 40 31
-0.572736 0.754970 3.718000 64 42 31
-0.566728 0.753491 3.679000 64 39 32
-0.560720 0.751875 3.640000 65 39 44
-0.549167 0.742624 3.565000 67 35 56
-0.543467 0.741092 3.528000 69 37 33
-0.538076 0.739854 3.493000 73 40 10
-0.532684 0.738494 3.458000 78 40 19
-0.532684 0.744547 3.458000 73 40 28
-0.527293 0.743003 3.423000 69 39 33
-0.527293 0.748995 3.423000 71 42 38
-0.517126 0.740430 3.357000 73 44 47
-0.512042 0.738970 3.324000 71 42 56
-0.507267 0.737843 3.293000 69 42 64
-0.502492 0.736607 3.262000 69 44 73
-0.497716 0.735263 3.231000 70 46 61
-0.488628 0.727389 3.172000 72 46 50
-0.484160 0.726241 3.143000 75 46 49
-0.479847 0.725224 3.115000 75 42 49
-0.475534 0.724108 3.087000 76 41 45
-0.471221 0.722896 3.059000 68 43 41
-0.467215 0.722060 3.033000 61 47 45
-0.463056 0.720895 3.006000 64 48 49
-0.459051 0.719876 2.980000 68 49 46
-0.455200 0.719009 2.955000 68 51 44
-0.455200 0.724182 2.955000 67 53 46
-0.447498 0.717014 2.905000 73 50 49
-0.440104 0.710167 2.857000 80 53 53
-0.432864 0.703404 2.810000 69 47 58
-0.429475 0.702777 2.788000 59 46 52
-0.425932 0.701819 2.765000 63 49 47
-0.425932 0.706660 2.765000 68 50 48
-0.422543 0.705838 2.743000 71 48 50
-0.419308 0.705200 2.722000 74 47 56
-0.416073 0.704487 2.701000 76 44 62
-0.416073 0.709215 2.701000 79 45 69
-0.412838 0.708392 2.680000 74 45 77
-0.409603 0.707496 2.659000 70 47 70
-0.406522 0.706794 2.639000 71 51 64
-0.400360 0.700631 2.599000 72 55 59
-0.394353 0.694599 2.560000 73 55 54
-0.391580 0.694164 2.542000 75 56 60
-0.391580 0.698614 2.542000 73 54 66
-0.385880 0.692831 2.505000 71 53 70
-0.383107 0.692206 2.487000 73 52 74
-0.380335 0.691518 2.469000 76 51 70
-0.380335 0.695840 2.469000 75 51 67
-0.377562 0.695057 2.451000 74 51 50
-0.374943 0.694497 2.434000 76 54 33
-0.372324 0.693877 2.417000 79 60 48
-0.369706 0.693198 2.400000 78 54 64
-0.367241 0.692750 2.384000 77 46 74
-0.362157 0.687276 2.351000 75 48 84
-0.359693 0.686686 2.335000 73 51 78
-0.357382 0.686336 2.320000 75 53 72
-0.357382 0.690397 2.320000 78 53 73
-0.354917 0.689669 2.304000 76 57 75
-0.352607 0.689186 2.289000 74 65 75
-0.350296 0.688650 2.274000 76 63 75
-0.347985 0.688062 2.259000 79 62 69
-0.347985 0.692017 2.259000 81 57 63
-0.343518 0.687036 2.230000 83 54 69
-0.339051 0.681955 2.201000 82 60 76
-0.334892 0.677395 2.174000 82 63 79
-0.332735 0.676813 2.160000 82 62 82
-0.330732 0.676498 2.147000 83 63 80
-0.328576 0.675821 2.133000 81 63 79
-0.328576 0.679555 2.133000 79 63 81
-0.326573 0.679124 2.120000 81 61 84
-0.324571 0.678648 2.107000 83 62 82
-0.322722 0.678450 2.095000 83 65 81
-0.320720 0.677885 2.082000 83 67 81
-0.318717 0.677274 2.069000 84 64 82
-0.316869 0.676947 2.057000 85 65 80
-0.315020 0.676577 2.045000 79 66 78
-0.315020 0.680157 2.045000 73 69 78
-0.313171 0.679725 2.033000 78 67 79
-0.311323 0.679250 2.021000 82 67 80
-0.307780 0.675017 1.998000 85 68 82
-0.305931 0.674440 1.986000 88 67 84
-0.304237 0.674161 1.975000 86 65 87
-0.302542 0.673845 1.964000 84 65 87
-0.300694 0.673144 1.952000 86 65 87
-0.297459 0.669283 1.931000 88 65 82
-0.295764 0.668831 1.920000 85 64 78
-0.295764 0.672192 1.920000 82 64 82
-0.292530 0.668164 1.899000 82 70 86
-0.290835 0.667599 1.888000 82 76 87
-0.290835 0.670904 1.888000 83 71 88
-0.289295 0.670638 1.878000 85 72 86
-0.287754 0.670337 1.868000 88 67 85
-0.287754 0.673607 1.868000 91 65 90
-0.283133 0.666006 1.838000 89 67 95
-0.281592 0.665582 1.828000 87 70 92
-0.278666 0.661831 1.809000 86 73 90
-0.277279 0.661689 1.800000 84 76 91
-0.277279 0.664840 1.800000 83 72 93
-0.275739 0.664280 1.790000 81 68 92
-0.275739 0.667413 1.790000 86 70 92
-0.274352 0.667175 1.781000 91 69 89
-0.272966 0.666906 1.772000 92 70 86
-0.271580 0.666605 1.763000 94 74 90
-0.270193 0.666272 1.754000 93 75 95
-0.267420 0.662473 1.736000 91 77 96
-0.266188 0.662445 1.728000 90 73 97
-0.264802 0.662004 1.719000 90 73 102
-0.263569 0.661918 1.711000 90 75 107
-0.262183 0.661416 1.702000 91 76 103
-0.605367 0.751490 3.975000 58 36 31
-0.598514 0.749862 3.930000 63 39 34
-0.598514 0.756741 3.930000 69 40 31
-0.598514 0.763621 3.930000 66 44 28
-0.598514 0.770500 3.930000 64 42 31
-0.585112 0.759973 3.842000 63 44 34
-0.572471 0.750135 3.759000 63 40 34
-0.566227 0.748461 3.718000 62 43 34
-0.560288 0.747051 3.679000 62 43 28
-0.560288 0.753491 3.679000 62 42 23
-0.554348 0.751875 3.640000 63 39 36
-0.542926 0.742624 3.565000 66 36 50
-0.537292 0.741092 3.528000 70 38 37
-0.531961 0.739854 3.493000 76 43 24
-0.526631 0.738494 3.458000 82 40 31
-0.521301 0.737011 3.423000 76 39 37
-0.521301 0.743003 3.423000 71 40 39
-0.516275 0.741774 3.390000 73 44 42
-0.511249 0.740430 3.357000 76 44 47
-0.506224 0.738970 3.324000 74 42 52
-0.501503 0.737843 3.293000 72 44 55
-0.496781 0.736607 3.262000 70 48 59
-0.492060 0.735263 3.231000 69 46 54
-0.487492 0.734039 3.201000 72 46 50
-0.478659 0.726241 3.143000 76 44 53
-0.474394 0.725224 3.115000 75 41 57
-0.470130 0.724108 3.087000 74 41 51
-0.465866 0.722896 3.059000 71 42 45
-0.461906 0.722060 3.033000 69 46 47
-0.457794 0.720895 3.006000 68 48 49
-0.453835 0.719876 2.980000 68 48 51
-0.450027 0.719009 2.955000 65 50 53
-0.450027 0.724182 2.955000 63 50 50
-0.446220 0.723184 2.930000 73 50 47
-0.438758 0.716133 2.881000 84 50 48
-0.427945 0.703404 2.810000 66 51 49
-0.424594 0.702777 2.788000 48 50 49
-0.421092 0.701819 2.765000 56 49 49
-0.421092 0.706660 2.765000 65 48 49
-0.417741 0.705838 2.743000 70 46 50
-0.414543 0.705200 2.722000 76 45 54
-0.411345 0.704487 2.701000 75 45 58
-0.411345 0.709215 2.701000 75 46 60
-0.408147 0.708392 2.680000 70 47 62
-0.404948 0.707496 2.659000 65 48 62
-0.401903 0.706794 2.639000 68 53 61
-0.392917 0.695509 2.580000 72 54 58
-0.389871 0.694599 2.560000 74 55 55
-0.387130 0.694164 2.542000 76 54 61
-0.384237 0.693392 2.523000 75 54 68
-0.381495 0.692831 2.505000 74 53 74
-0.378754 0.692206 2.487000 75 53 81
-0.376013 0.691518 2.469000 77 51 76
-0.376013 0.695840 2.469000 77 53 72
-0.373271 0.695057 2.451000 77 52 60
-0.370682 0.694497 2.434000 78 50 49
-0.368093 0.693877 2.417000 79 54 58
-0.365504 0.693198 2.400000 77 58 66
-0.363068 0.692750 2.384000 76 51 73
-0.358042 0.687276 2.351000 73 46 80
-0.355605 0.686686 2.335000 70 51 73
-0.353321 0.686336 2.320000 73 55 67
-0.353321 0.690397 2.320000 77 55 72
-0.348600 0.685179 2.289000 78 57 76
-0.346316 0.684670 2.274000 79 61 76
-0.346316 0.688650 2.274000 80 65 77
-0.344031 0.688062 2.259000 81 60 72
-0.344031 0.692017 2.259000 81 56 68
-0.339615 0.687036 2.230000 82 58 72
-0.335198 0.681955 2.201000 82 62 77
-0.331086 0.677395 2.174000 82 62 79
-0.328954 0.676813 2.160000 82 63 82
-0.326974 0.676498 2.147000 83 63 81
-0.324842 0.675821 2.133000 79 64 81
-0.324842 0.679555 2.133000 76 62 84
-0.322862 0.679124 2.120000 79 60 88
-0.320882 0.678648 2.107000 82 62 85
-0.317075 0.674240 2.082000 83 66 82
-0.315095 0.673652 2.069000 85 66 85
-0.315095 0.677274 2.069000 84 63 89
-0.313268 0.676947 2.057000 84 65 85
-0.311440 0.676577 2.045000 74 67 81
-0.309613 0.676166 2.033000 65 67 81
-0.307785 0.675712 2.021000 73 68 82
-0.307785 0.679250 2.021000 82 68 85
-0.304282 0.675017 1.998000 86 71 87
-0.302455 0.674440 1.986000 91 67 87
-0.300780 0.674161 1.975000 87 65 86
-0.299104 0.673845 1.964000 84 65 86
-0.297277 0.673144 1.952000 85 67 87
-0.294079 0.669283 1.931000 87 67 84
-0.292404 0.668831 1.920000 86 67 82
-0.290728 0.668341 1.909000 85 67 87
-0.289205 0.668164 1.899000 84 71 92
-0.287530 0.667599 1.888000 84 72 90
-0.287530 0.670904 1.888000 85 69 89
-0.286007 0.670638 1.878000 86 68 88
-0.284484 0.670337 1.868000 91 67 87
-0.284484 0.673607 1.868000 97 66 89
-0.279915 0.666006 1.838000 92 69 91
-0.278393 0.665582 1.828000 88 72 89
-0.275499 0.661831 1.809000 86 75 87
-0.274128 0.661689 1.800000 85 75 85
-0.274128 0.664840 1.800000 85 76 84
-0.272605 0.664280 1.790000 85 72 86
-0.272605 0.667413 1.790000 87 71 88
-0.271235 0.667175 1.781000 90 71 88
-0.269864 0.666906 1.772000 91 72 88
-0.268493 0.666605 1.763000 93 72 93
-0.267123 0.666272 1.754000 92 76 98
-0.265752 0.665908 1.745000 92 74 97
-0.263163 0.662445 1.728000 91 73 96
-0.261793 0.662004 1.719000 90 75 99
-0.260574 0.661918 1.711000 91 77 102
-0.259204 0.661416 1.702000 93 75 100
-0.598409 0.751490 3.975000 61 36 23
-0.598409 0.758448 3.975000 66 37 25
-0.598409 0.765406 3.975000 71 39 27
-0.591634 0.763621 3.930000 69 40 30
-0.584860 0.761678 3.885000 67 39 34
-0.578386 0.759973 3.842000 68 40 38
-0.565891 0.750135 3.759000 69 38 37
-0.565891 0.756715 3.759000 66 41 37
-0.559719 0.754970 3.718000 63 47 25
-0.553848 0.753491 3.679000 64 42 14
-0.553848 0.759931 3.679000 65 41 29
-0.536686 0.742624 3.565000 67 35 44
-0.531116 0.741092 3.528000 69 37 41
-0.525847 0.739854 3.493000 72 41 39
-0.520578 0.738494 3.458000 75 40 43
-0.520578 0.744547 3.458000 70 40 47
-0.515309 0.743003 3.423000 65 39 46
-0.510341 0.741774 3.390000 69 41 46
-0.505373 0.740430 3.357000 73 48 47
-0.500405 0.738970 3.324000 71 45 48
-0.495738 0.737843 3.293000 69 47 47
-0.491071 0.736607 3.262000 69 47 46
-0.486405 0.735263 3.231000 70 47 48
-0.477523 0.727389 3.172000 74 45 50
-0.473157 0.726241 3.143000 78 44 57
-0.468942 0.725224 3.115000 77 42 65
-0.464726 0.724108 3.087000 76 41 57
-0.460511 0.722896 3.059000 75 43 50
-0.456597 0.722060 3.033000 75 47 49
-0.452532 0.720895 3.006000 72 46 49
-0.448618 0.719876 2.980000 70 45 56
-0.444855 0.719009 2.955000 68 48 63
-0.441091 0.718055 2.930000 67 49 54
-0.441091 0.723184 2.930000 74 48 45
-0.433715 0.716133 2.881000 80 46 43
-0.426639 0.709411 2.834000 70 51 41
-0.419714 0.702777 2.788000 60 55 46
-0.416252 0.701819 2.765000 65 50 52
-0.416252 0.706660 2.765000 71 50 51
-0.412940 0.705838 2.743000 73 46 50
-0.409778 0.705200 2.722000 75 44 52
-0.406617 0.704487 2.701000 74 47 55
-0.406617 0.709215 2.701000 74 47 51
-0.403455 0.708392 2.680000 71 46 48
-0.403455 0.713084 2.680000 68 47 53
-0.400294 0.712151 2.659000 71 51 59
-0.391261 0.700631 2.599000 75 53 57
-0.385390 0.694599 2.560000 77 54 56
-0.382680 0.694164 2.542000 79 53 63
-0.379820 0.693392 2.523000 77 53 71
-0.377110 0.692831 2.505000 75 54 79
-0.374401 0.692206 2.487000 77 51 88
-0.371691 0.691518 2.469000 79 50 82
-0.368981 0.690767 2.451000 79 52 77
-0.368981 0.695057 2.451000 79 54 71
-0.366422 0.694497 2.434000 79 51 66
-0.363863 0.693877 2.417000 79 51 67
-0.361303 0.693198 2.400000 78 55 69
-0.358895 0.692750 2.384000 78 56 72
-0.351518 0.682599 2.335000 75 53 76
-0.349260 0.682275 2.320000 73 52 69
-0.349260 0.686336 2.320000 76 54 63
-0.349260 0.690397 2.320000 80 57 70
-0.344593 0.685179 2.289000 80 55 78
-0.342335 0.684670 2.274000 81 58 78
-0.342335 0.688650 2.274000 81 59 79
-0.340077 0.688062 2.259000 81 57 76
-0.337819 0.687422 2.244000 83 59 73
-0.333453 0.682415 2.215000 85 63 76
-0.331345 0.681955 2.201000 82 61 79
-0.329238 0.681445 2.187000 80 63 80
-0.325173 0.676813 2.160000 81 62 82
-0.323216 0.676498 2.147000 82 62 83
-0.323216 0.680257 2.147000 80 62 84
-0.321108 0.679555 2.133000 77 63 88
-0.319151 0.679124 2.120000 79 61 92
-0.317194 0.678648 2.107000 81 60 88
-0.313431 0.674240 2.082000 83 65 84
-0.313431 0.677885 2.082000 85 68 90
-0.311474 0.677274 2.069000 85 66 96
-0.309667 0.676947 2.057000 85 65 90
-0.307861 0.676577 2.045000 81 65 84
-0.306054 0.676166 2.033000 78 67 85
-0.306054 0.679725 2.033000 80 66 86
-0.304247 0.679250 2.021000 83 66 89
-0.300785 0.675017 1.998000 85 68 93
-0.298979 0.674440 1.986000 88 68 89
-0.297323 0.674161 1.975000 86 65 86
-0.295667 0.673845 1.964000 84 65 86
-0.293860 0.673144 1.952000 87 69 87
-0.292204 0.672749 1.941000 91 71 87
-0.289043 0.668831 1.920000 88 68 87
-0.289043 0.672192 1.920000 86 68 92
-0.285881 0.668164 1.899000 84 71 98
-0.284225 0.667599 1.888000 83 72 94
-0.282720 0.667350 1.878000 84 69 90
-0.282720 0.670638 1.878000 86 67 90
-0.281214 0.670337 1.868000 89 66 90
-0.281214 0.673607 1.868000 92 63 88
-0.278204 0.669629 1.848000 90 71 87
-0.276698 0.669223 1.838000 88 76 85
-0.273838 0.665489 1.819000 86 74 84
-0.272332 0.664998 1.809000 85 73 79
-0.270977 0.664840 1.800000 85 74 75
-0.269472 0.664280 1.790000 84 73 80
-0.268117 0.664057 1.781000 87 72 85
-0.266762 0.663804 1.772000 89 72 87
-0.265407 0.663518 1.763000 91 70 90
-0.265407 0.666605 1.763000 92 69 95
-0.264053 0.666272 1.754000 92 70 101
-0.262698 0.665908 1.745000 92 72 98
-0.261343 0.665512 1.736000 92 74 96
-0.260138 0.665470 1.728000 91 77 96
-0.257579 0.661918 1.711000 93 76 97
-0.256224 0.661416 1.702000 96 76 97
-0.591450 0.751490 3.975000 64 37 23
-0.591450 0.758448 3.975000 68 36 29
-0.591450 0.765406 3.975000 73 38 30
-0.591450 0.772365 3.975000 71 41 32
-0.584755 0.770500 3.930000 70 40 36
-0.578059 0.768478 3.885000 73 39 41
-0.565412 0.758317 3.800000 76 40 46
-0.559311 0.756715 3.759000 70 39 50
-0.553211 0.754970 3.718000 65 41 38
-0.547408 0.753491 3.679000 66 39 26
-0.541605 0.751875 3.640000 68 37 31
-0.535951 0.750331 3.602000 68 29 37
-0.530445 0.748864 3.565000 69 38 34
-0.524940 0.747268 3.528000 68 44 32
-0.519732 0.745969 3.493000 68 42 39
-0.514525 0.744547 3.458000 63 42 45
-0.514525 0.750601 3.458000 59 39 44
-0.504407 0.741774 3.390000 65 36 44
-0.499496 0.740430 3.357000 71 43 45
-0.494586 0.738970 3.324000 68 46 47
-0.489974 0.737843 3.293000 66 46 40
-0.485361 0.736607 3.262000 68 47 33
-0.485361 0.742317 3.262000 71 45 39
-0.471970 0.727389 3.172000 76 45 45
-0.467655 0.726241 3.143000 81 45 50
-0.463489 0.725224 3.115000 79 43 56
-0.459322 0.724108 3.087000 78 42 48
-0.455156 0.722896 3.059000 79 45 41
-0.451288 0.722060 3.033000 81 45 44
-0.451288 0.727370 3.033000 76 45 46
-0.443402 0.719876 2.980000 72 46 46
-0.439682 0.719009 2.955000 72 48 46
-0.435962 0.718055 2.930000 72 48 46
-0.432242 0.717014 2.905000 74 47 45
-0.428671 0.716133 2.881000 77 48 35
-0.421678 0.709411 2.834000 74 54 25
-0.418107 0.708323 2.810000 72 52 37
-0.414833 0.707657 2.788000 74 49 50
-0.411411 0.706660 2.765000 77 48 52
-0.408138 0.705838 2.743000 75 45 53
-0.405013 0.705200 2.722000 74 48 55
-0.401889 0.704487 2.701000 73 54 57
-0.401889 0.709215 2.701000 73 49 57
-0.398764 0.708392 2.680000 72 44 56
-0.398764 0.713084 2.680000 72 47 58
-0.395639 0.712151 2.659000 75 51 61
-0.386712 0.700631 2.599000 78 52 58
-0.380909 0.694599 2.560000 80 55 56
-0.378231 0.694164 2.542000 82 53 62
-0.375403 0.693392 2.523000 79 51 68
-0.375403 0.697809 2.523000 77 52 71
-0.372725 0.697216 2.505000 79 49 74
-0.367369 0.691518 2.469000 81 51 73
-0.367369 0.695840 2.469000 81 51 73
-0.364690 0.695057 2.451000 82 52 65
-0.362161 0.694497 2.434000 81 49 57
-0.362161 0.698758 2.434000 80 51 61
-0.357102 0.693198 2.400000 80 55 65
-0.354721 0.692750 2.384000 80 57 67
-0.347431 0.682599 2.335000 78 59 69
-0.345199 0.682275 2.320000 76 56 68
-0.342818 0.681603 2.304000 79 55 67
-0.342818 0.685636 2.304000 83 53 72
-0.340586 0.685179 2.289000 83 49 77
-0.338354 0.684670 2.274000 83 55 82
-0.338354 0.688650 2.274000 82 56 87
-0.336122 0.688062 2.259000 82 57 80
-0.333890 0.687422 2.244000 85 60 74
-0.329575 0.682415 2.215000 88 60 77
-0.327492 0.681955 2.201000 83 58 81
-0.323475 0.677395 2.174000 79 59 78
-0.323475 0.681200 2.174000 80 62 76
-0.319458 0.676498 2.147000 82 61 78
-0.319458 0.680257 2.147000 80 59 81
-0.317374 0.679555 2.133000 79 61 81
-0.317374 0.683289 2.133000 79 64 80
-0.313506 0.678648 2.107000 80 63 81
-0.311720 0.678450 2.095000 82 66 81
-0.309786 0.677885 2.082000 85 67 85
-0.306066 0.673346 2.057000 85 68 89
-0.306066 0.676947 2.057000 86 66 83
-0.304281 0.676577 2.045000 89 64 77
-0.302495 0.676166 2.033000 92 66 79
-0.302495 0.679725 2.033000 88 66 81
-0.300710 0.679250 2.021000 84 67 80
-0.297287 0.675017 1.998000 85 68 80
-0.295502 0.674440 1.986000 86 66 83
-0.293865 0.674161 1.975000 85 62 86
-0.292228 0.673845 1.964000 84 66 86
-0.290443 0.673144 1.952000 90 74 87
-0.287318 0.669283 1.931000 96 71 84
-0.285682 0.668831 1.920000 91 68 82
-0.285682 0.672192 1.920000 87 69 88
-0.284045 0.671683 1.909000 84 73 94
-0.280920 0.667599 1.888000 82 71 91
-0.280920 0.670904 1.888000 84 69 89
-0.279432 0.670638 1.878000 86 68 90
-0.277944 0.670337 1.868000 87 67 91
-0.276456 0.670000 1.858000 88 69 90
-0.274969 0.669629 1.848000 88 77 89
-0.273481 0.669223 1.838000 88 76 87
-0.270654 0.665489 1.819000 87 74 85
-0.269166 0.664998 1.809000 86 74 83
-0.267826 0.664840 1.800000 85 76 81
-0.266339 0.664280 1.790000 84 74 84
-0.264999 0.664057 1.781000 86 73 87
-0.263660 0.663804 1.772000 89 71 90
-0.262321 0.663518 1.763000 90 68 93
-0.260982 0.663202 1.754000 92 68 94
-0.260982 0.666272 1.754000 92 65 95
-0.259643 0.665908 1.745000 93 71 92
-0.258304 0.665512 1.736000 93 76 90
-0.257113 0.665470 1.728000 93 76 91
-0.255774 0.665013 1.719000 96 77 93
-0.254584 0.664914 1.711000 99 75 90
-0.584492 0.751490 3.975000 59 41 24
-0.584492 0.758448 3.975000 63 39 34
-0.584492 0.765406 3.975000 68 39 34
-0.577875 0.763621 3.930000 68 41 34
-0.571258 0.761678 3.885000 68 42 39
-0.564936 0.759973 3.842000 68 41 45
-0.552731 0.750135 3.759000 67 44 54
-0.552731 0.756715 3.759000 66 41 64
-0.546702 0.754970 3.718000 65 40 51
-0.540968 0.753491 3.679000 66 40 39
-0.535233 0.751875 3.640000 68 41 34
-0.524205 0.742624 3.565000 67 39 30
-0.518764 0.741092 3.528000 66 43 28
-0.513618 0.739854 3.493000 68 44 26
-0.513618 0.745969 3.493000 69 45 35
-0.508471 0.744547 3.458000 67 43 44
-0.508471 0.750601 3.458000 64 39 43
-0.503325 0.748995 3.423000 68 38 42
-0.493620 0.740430 3.357000 72 42 44
-0.488768 0.738970 3.324000 71 44 47
-0.484209 0.737843 3.293000 70 46 34
-0.479651 0.736607 3.262000 70 46 21
-0.479651 0.742317 3.262000 70 44 31
-0.470682 0.734039 3.201000 71 47 41
-0.462153 0.726241 3.143000 72 49 44
-0.458036 0.725224 3.115000 74 44 47
-0.453919 0.724108 3.087000 76 41 40
-0.449802 0.722896 3.059000 77 44 33
-0.445978 0.722060 3.033000 77 46 38
-0.445978 0.727370 3.033000 75 46 44
-0.442008 0.726157 3.006000 73 46 37
-0.438185 0.725092 2.980000 73 48 30
-0.434509 0.724182 2.955000 73 50 38
-0.430833 0.723184 2.930000 74 48 46
-0.423628 0.716133 2.881000 75 46 27
-0.420099 0.715169 2.857000 74 51 9
-0.413188 0.708323 2.810000 72 53 29
-0.409953 0.707657 2.788000 74 50 49
-0.406571 0.706660 2.765000 76 50 53
-0.403336 0.705838 2.743000 75 48 57
-0.400248 0.705200 2.722000 74 49 58
-0.397161 0.704487 2.701000 70 50 60
-0.397161 0.709215 2.701000 66 51 62
-0.394073 0.708392 2.680000 70 49 65
-0.394073 0.713084 2.680000 73 49 64
-0.390985 0.712151 2.659000 75 49 63
-0.382162 0.700631 2.599000 78 50 59
-0.376428 0.694599 2.560000 75 52 56
-0.373781 0.694164 2.542000 73 54 60
-0.370987 0.693392 2.523000 75 54 65
-0.370987 0.697809 2.523000 77 54 62
-0.368340 0.697216 2.505000 80 52 60
-0.365694 0.696559 2.487000 82 54 65
-0.363047 0.695840 2.469000 84 53 70
-0.363047 0.700162 2.469000 85 54 59
-0.360400 0.699348 2.451000 83 50 49
-0.355401 0.693877 2.417000 82 49 55
-0.352901 0.693198 2.400000 81 56 61
-0.350548 0.692750 2.384000 81 60 62
-0.345696 0.687276 2.351000 80 58 63
-0.343343 0.686686 2.335000 80 58 67
-0.341138 0.686336 2.320000 85 55 71
-0.338785 0.685636 2.304000 90 53 73
-0.336579 0.685179 2.289000 85 53 76
-0.334374 0.684670 2.274000 81 58 85
-0.334374 0.688650 2.274000 81 57 95
-0.332168 0.688062 2.259000 82 57 85
-0.329962 0.687422 2.244000 82 58 76
-0.327904 0.687036 2.230000 82 61 79
-0.323640 0.681955 2.201000 81 58 83
-0.321581 0.681445 2.187000 81 56 76
-0.317611 0.676813 2.160000 81 60 70
-0.315699 0.676498 2.147000 82 61 74
-0.315699 0.680257 2.147000 81 59 79
-0.315699 0.684015 2.147000 81 60 74
-0.313641 0.683289 2.133000 81 63 69
-0.309818 0.678648 2.107000 81 62 74
-0.308053 0.678450 2.095000 83 64 79
-0.306141 0.677885 2.082000 86 67 80
-0.304230 0.677274 2.069000 86 68 82
-0.302465 0.676947 2.057000 86 70 76
-0.300701 0.676577 2.045000 88 69 71
-0.300701 0.680157 2.045000 90 69 73
-0.298936 0.679725 2.033000 87 66 76
-0.297172 0.679250 2.021000 84 68 71
-0.293790 0.675017 1.998000 86 69 67
-0.292025 0.674440 1.986000 89 68 76
-0.290408 0.674161 1.975000 87 66 86
-0.288791 0.673845 1.964000 85 65 86
-0.287026 0.673144 1.952000 89 70 87
-0.283938 0.669283 1.931000 92 74 82
-0.282321 0.668831 1.920000 90 70 78
-0.282321 0.672192 1.920000 87 68 84
-0.280703 0.671683 1.909000 85 71 90
-0.277615 0.667599 1.888000 83 72 89
-0.276145 0.667350 1.878000 84 71 89
-0.276145 0.670638 1.878000 86 72 91
-0.274675 0.670337 1.868000 85 71 93
-0.273204 0.670000 1.858000 84 70 92
-0.271734 0.669629 1.848000 85 75 92
-0.270263 0.669223 1.838000 87 79 89
-0.268793 0.668782 1.828000 87 76 87
-0.265999 0.664998 1.809000 88 76 87
-0.264676 0.664840 1.800000 86 75 87
-0.263205 0.664280 1.790000 85 76 88
-0.261882 0.664057 1.781000 85 73 89
-0.260558 0.663804 1.772000 84 72 92
-0.259235 0.663518 1.763000 88 70 96
-0.257912 0.663202 1.754000 92 70 93
-0.257912 0.666272 1.754000 94 70 90
-0.255265 0.662473 1.736000 96 73 87
-0.255265 0.665512 1.736000 92 75 84
-0.254089 0.665470 1.728000 89 77 86
-0.252765 0.665013 1.719000 92 76 89
-0.251589 0.664914 1.711000 95 77 84
-0.577534 0.751490 3.975000 55 42 38
-0.577534 0.758448 3.975000 59 42 36
-0.570996 0.756741 3.930000 63 41 36
-0.564457 0.754877 3.885000 65 42 37
-0.564457 0.761678 3.885000 67 42 39
-0.558210 0.759973 3.842000 63 42 42
-0.546151 0.750135 3.759000 59 43 48
-0.546151 0.756715 3.759000 62 42 54
-0.540194 0.754970 3.718000 65 42 45
-0.534527 0.753491 3.679000 67 42 37
-0.523340 0.744026 3.602000 69 42 32
-0.517964 0.742624 3.565000 66 44 28
-0.512588 0.741092 3.528000 64 44 30
-0.507503 0.739854 3.493000 67 47 33
-0.502418 0.738494 3.458000 71 46 40
-0.502418 0.744547 3.458000 70 46 47
-0.497333 0.743003 3.423000 70 41 48
-0.497333 0.748995 3.423000 71 37 49
-0.487744 0.740430 3.357000 73 40 48
-0.482949 0.738970 3.324000 74 42 48
-0.478445 0.737843 3.293000 75 46 37
-0.473941 0.736607 3.262000 72 50 26
-0.465078 0.728436 3.201000 69 48 32
-0.460865 0.727389 3.172000 66 50 39
-0.460865 0.732942 3.172000 64 48 42
-0.456651 0.731743 3.143000 69 46 45
-0.452583 0.730676 3.115000 75 45 43
-0.444447 0.722896 3.059000 74 46 41
-0.440669 0.722060 3.033000 74 47 47
-0.436746 0.720895 3.006000 74 47 53
-0.432969 0.719876 2.980000 74 48 47
-0.429336 0.719009 2.955000 74 50 41
-0.425704 0.718055 2.930000 74 48 49
-0.425704 0.723184 2.930000 74 49 57
-0.415098 0.710167 2.857000 74 49 44
-0.415098 0.715169 2.857000 73 53 32
-0.408269 0.708323 2.810000 73 53 44
-0.405073 0.707657 2.788000 74 50 56
-0.401731 0.706660 2.765000 75 49 56
-0.398535 0.705838 2.743000 75 49 55
-0.395483 0.705200 2.722000 75 48 56
-0.392432 0.704487 2.701000 67 49 58
-0.389381 0.703701 2.680000 60 51 61
-0.389381 0.708392 2.680000 67 52 65
-0.389381 0.713084 2.680000 75 51 68
-0.386330 0.712151 2.659000 76 49 72
-0.380518 0.706022 2.619000 78 50 62
-0.374852 0.700025 2.580000 71 52 52
-0.369331 0.694164 2.542000 65 56 60
-0.366570 0.693392 2.523000 71 59 68
-0.366570 0.697809 2.523000 78 56 71
-0.363955 0.697216 2.505000 81 54 74
-0.361340 0.696559 2.487000 84 55 74
-0.358725 0.695840 2.469000 86 56 73
-0.356109 0.695057 2.451000 89 54 67
-0.353639 0.694497 2.434000 86 49 61
-0.351170 0.693877 2.417000 84 52 62
-0.348700 0.693198 2.400000 83 62 64
-0.346375 0.692750 2.384000 83 59 69
-0.343905 0.691954 2.367000 83 58 74
-0.339256 0.686686 2.335000 84 56 72
-0.337076 0.686336 2.320000 90 54 71
-0.334752 0.685636 2.304000 97 53 71
-0.332572 0.685179 2.289000 88 55 72
-0.330393 0.684670 2.274000 79 57 72
-0.328214 0.684108 2.259000 80 59 73
-0.328214 0.688062 2.259000 82 56 75
-0.326034 0.687422 2.244000 79 55 77
-0.324000 0.687036 2.230000 76 59 85
-0.319787 0.681955 2.201000 80 60 93
-0.317753 0.681445 2.187000 84 58 84
-0.313830 0.676813 2.160000 83 61 76
-0.313830 0.680595 2.160000 82 61 79
-0.311941 0.680257 2.147000 82 59 83
-0.311941 0.684015 2.147000 83 61 79
-0.309907 0.683289 2.133000 83 66 75
-0.306129 0.678648 2.107000 83 64 79
-0.304386 0.678450 2.095000 85 64 83
-0.302497 0.677885 2.082000 87 66 82
-0.300608 0.677274 2.069000 87 68 82
-0.298865 0.676947 2.057000 87 71 77
-0.298865 0.680547 2.057000 87 73 72
-0.297121 0.680157 2.045000 88 67 75
-0.295378 0.679725 2.033000 86 64 78
-0.293634 0.679250 2.021000 85 67 75
-0.290292 0.675017 1.998000 88 72 73
-0.288549 0.674440 1.986000 92 71 80
-0.286951 0.674161 1.975000 89 70 87
-0.285352 0.673845 1.964000 87 68 91
-0.283609 0.673144 1.952000 88 69 95
-0.282011 0.672749 1.941000 89 71 88
-0.280558 0.672663 1.931000 88 71 82
-0.278960 0.672192 1.920000 88 72 86
-0.275909 0.668164 1.899000 86 73 90
-0.274310 0.667599 1.888000 85 72 88
-0.272857 0.667350 1.878000 85 72 86
-0.272857 0.670638 1.878000 86 73 90
-0.271405 0.670337 1.868000 83 77 93
-0.269952 0.670000 1.858000 80 74 96
-0.268499 0.669629 1.848000 83 75 98
-0.267046 0.669223 1.838000 87 76 95
-0.265593 0.668782 1.828000 88 76 91
-0.264285 0.668674 1.819000 90 75 90
-0.262832 0.668164 1.809000 88 74 89
-0.261525 0.667991 1.800000 87 74 90
-0.258764 0.664057 1.781000 83 74 91
-0.257457 0.663804 1.772000 80 72 93
-0.256149 0.663518 1.763000 86 71 96
-0.256149 0.666605 1.763000 92 72 94
-0.254841 0.666272 1.754000 95 73 91
-0.253534 0.665908 1.745000 99 73 91
-0.253534 0.668962 1.745000 92 76 90
-0.252226 0.668551 1.736000 85 75 92
-0.251064 0.668495 1.728000 88 74 94
-0.249756 0.668022 1.719000 92 75 91
-0.570576 0.758448 3.975000 60 43 39
-0.564116 0.756741 3.930000 64 43 39
-0.557657 0.754877 3.885000 65 43 40
-0.551485 0.753247 3.842000 67 43 39
-0.545456 0.751665 3.800000 65 44 39
-0.539571 0.750135 3.759000 63 45 41
-0.533686 0.748461 3.718000 64 44 44
-0.528087 0.747051 3.679000 65 45 39
-0.522489 0.745503 3.640000 69 43 35
-0.517035 0.744026 3.602000 72 44 30
-0.511724 0.742624 3.565000 72 44 26
-0.506413 0.741092 3.528000 73 44 33
-0.501389 0.739854 3.493000 72 45 40
-0.496365 0.738494 3.458000 71 46 45
-0.496365 0.744547 3.458000 73 45 50
-0.491341 0.743003 3.423000 74 42 53
-0.486604 0.741774 3.390000 73 39 56
-0.481867 0.740430 3.357000 73 40 53
-0.477130 0.738970 3.324000 76 42 50
-0.468231 0.730897 3.262000 79 46 40
-0.463781 0.729607 3.231000 75 48 31
-0.459475 0.728436 3.201000 71 50 34
-0.455312 0.727389 3.172000 70 50 38
-0.455312 0.732942 3.172000 69 50 40
-0.451149 0.731743 3.143000 74 49 43
-0.447130 0.730676 3.115000 78 49 46
-0.439092 0.722896 3.059000 75 48 49
-0.435360 0.722060 3.033000 73 50 56
