ply
format ascii 1.0
element vertex 1253
property float x
property float y
property float z
property uchar red
property uchar green
property uchar blue
end_header
0.639764 0.701802 2.215000 204 168 212
0.631677 0.696759 2.187000 208 169 213
0.627922 0.696423 2.174000 207 172 215
0.620123 0.691532 2.147000 206 174 217
0.620123 0.695290 2.147000 206 176 219
0.616080 0.694490 2.133000 207 178 219
0.616080 0.698224 2.133000 215 187 220
0.612325 0.697679 2.120000 224 180 220
0.608570 0.697090 2.107000 222 180 221
0.601349 0.692463 2.082000 221 182 219
0.601349 0.696108 2.082000 224 192 218
0.597594 0.695383 2.069000 228 187 221
0.594128 0.694950 2.057000 224 188 224
0.590662 0.694476 2.045000 221 187 226
0.587196 0.693960 2.033000 221 189 228
0.583731 0.693401 2.021000 222 190 232
0.573621 0.684869 1.986000 221 191 236
0.570444 0.684533 1.975000 221 187 231
0.567267 0.684159 1.964000 222 186 225
0.563801 0.683395 1.952000 224 188 232
0.560624 0.682942 1.941000 224 195 239
0.557736 0.682804 1.931000 224 194 236
0.554558 0.682275 1.920000 223 193 234
0.551381 0.681708 1.909000 222 191 233
0.548493 0.681461 1.899000 223 188 231
0.548493 0.684785 1.899000 225 185 233
0.545316 0.684124 1.888000 226 189 234
0.545316 0.687429 1.888000 227 194 232
0.542428 0.687075 1.878000 226 202 231
0.539539 0.686686 1.868000 225 198 237
0.536651 0.686263 1.858000 226 202 244
0.533763 0.685804 1.848000 227 200 244
0.525386 0.678226 1.819000 222 197 243
0.522498 0.677664 1.809000 218 196 237
0.517010 0.673680 1.790000 223 200 231
0.514411 0.673410 1.781000 229 200 237
0.511811 0.673109 1.772000 231 201 243
0.511811 0.676211 1.772000 233 205 243
0.509212 0.675863 1.763000 234 217 244
0.506612 0.675483 1.754000 235 208 244
0.504013 0.675072 1.745000 234 206 244
0.501413 0.674629 1.736000 234 207 243
0.913302 -0.187062 3.143000 82 1 1
0.913302 -0.181560 3.143000 87 20 1
0.921729 -0.177683 3.172000 93 37 38
0.921729 -0.172130 3.172000 146 76 76
0.921729 -0.166578 3.172000 199 151 141
0.930156 -0.162497 3.201000 226 204 206
0.930156 -0.156894 3.201000 254 254 230
0.917371 0.022105 3.157000 112 65 34
0.921729 0.027763 3.172000 111 64 36
0.921729 0.033316 3.172000 110 63 35
0.921729 0.038868 3.172000 112 56 34
0.921729 0.044421 3.172000 114 53 44
0.921729 0.049973 3.172000 116 54 55
0.921729 0.055526 3.172000 119 53 49
0.921729 0.061078 3.172000 112 53 44
0.913302 0.066022 3.143000 105 55 47
0.913302 0.071524 3.143000 100 54 50
0.921729 0.077736 3.172000 96 51 44
0.921729 0.083289 3.172000 99 55 39
0.921729 0.088841 3.172000 103 58 37
0.921729 0.094394 3.172000 106 55 36
0.921729 0.099947 3.172000 109 52 43
0.921729 0.105499 3.172000 104 50 51
0.921729 0.111052 3.172000 100 53 42
0.921729 0.116604 3.172000 105 54 33
0.921729 0.122157 3.172000 110 53 27
0.921729 0.127710 3.172000 108 49 21
0.921729 0.133262 3.172000 106 44 33
0.921729 0.138815 3.172000 105 47 46
0.921729 0.144367 3.172000 105 51 41
0.921729 0.149920 3.172000 104 51 37
0.921729 0.155472 3.172000 104 46 51
0.921729 0.161025 3.172000 109 57 65
0.921729 0.166578 3.172000 114 77 82
0.930156 0.173704 3.201000 112 79 99
0.947882 0.182724 3.262000 110 77 95
0.965898 0.192016 3.324000 108 76 91
0.975487 0.199799 3.357000 106 75 86
0.985076 0.207697 3.390000 104 74 82
0.985076 0.213631 3.390000 102 75 80
0.994666 0.221703 3.423000 100 72 78
0.994666 0.227695 3.423000 98 71 75
0.994666 0.233687 3.423000 96 71 73
0.994666 0.239679 3.423000 94 70 72
0.994666 0.245670 3.423000 92 67 72
0.994666 0.251662 3.423000 89 64 68
0.994666 0.257654 3.423000 95 62 65
0.985076 0.261105 3.390000 102 61 69
0.994666 0.269638 3.423000 98 63 74
0.994666 0.275630 3.423000 95 64 72
0.985076 0.278907 3.390000 90 68 71
0.985076 0.284841 3.390000 86 71 71
0.985076 0.290776 3.390000 88 70 72
0.985076 0.296710 3.390000 91 68 73
0.985076 0.302644 3.390000 92 63 75
0.985076 0.308578 3.390000 94 63 73
0.985076 0.314512 3.390000 92 65 72
0.985076 0.320447 3.390000 90 65 74
0.985076 0.326381 3.390000 87 64 76
0.985076 0.332315 3.390000 84 63 77
0.985076 0.338249 3.390000 85 63 78
0.985076 0.344183 3.390000 86 61 77
0.985076 0.350118 3.390000 86 61 76
0.985076 0.356052 3.390000 87 60 71
0.994666 0.365510 3.423000 90 59 67
0.985076 0.367920 3.390000 92 59 67
0.994666 0.377494 3.423000 89 59 67
0.985076 0.379789 3.390000 87 63 67
0.985076 0.385723 3.390000 86 63 68
0.985076 0.391657 3.390000 86 63 63
0.985076 0.397591 3.390000 85 60 59
0.985076 0.403525 3.390000 84 56 65
0.985076 0.409460 3.390000 85 60 71
0.985076 0.415394 3.390000 86 64 70
0.985076 0.421328 3.390000 86 57 70
0.985076 0.427262 3.390000 87 53 69
0.985076 0.433196 3.390000 90 54 68
0.985076 0.439131 3.390000 94 54 68
0.985076 0.445065 3.390000 89 53 68
0.985076 0.450999 3.390000 84 54 66
0.985076 0.456933 3.390000 83 53 65
0.985076 0.462867 3.390000 83 52 63
0.985076 0.468802 3.390000 84 51 61
0.985076 0.474736 3.390000 85 51 59
0.985076 0.480670 3.390000 84 50 58
0.985076 0.486604 3.390000 83 51 66
0.985076 0.492538 3.390000 80 51 75
0.985076 0.498472 3.390000 78 52 65
0.985076 0.504407 3.390000 74 53 56
0.985076 0.510341 3.390000 70 52 51
0.985076 0.516275 3.390000 72 53 47
0.985076 0.522209 3.390000 75 56 49
0.985076 0.528144 3.390000 74 49 52
0.985076 0.534078 3.390000 74 43 52
0.985076 0.540012 3.390000 73 42 53
0.985076 0.545946 3.390000 72 41 54
0.985076 0.551880 3.390000 70 42 56
0.985076 0.557815 3.390000 68 44 53
0.985076 0.563749 3.390000 68 40 51
0.985076 0.569683 3.390000 69 40 50
0.994666 0.581220 3.423000 70 38 49
0.994666 0.587212 3.423000 71 38 44
0.985076 0.587485 3.390000 66 39 39
0.985076 0.593420 3.390000 60 38 37
0.985076 0.599354 3.390000 57 38 36
0.985076 0.605288 3.390000 54 39 36
0.985076 0.611222 3.390000 50 35 36
0.985076 0.617156 3.390000 46 34 32
0.985076 0.623091 3.390000 47 32 28
0.985076 0.629025 3.390000 47 32 28
0.985076 0.634959 3.390000 46 28 29
0.985076 0.640893 3.390000 44 26 37
0.975487 0.640531 3.357000 45 25 46
0.975487 0.646407 3.357000 47 25 27
0.985076 0.658696 3.390000 46 22 9
0.985076 0.664630 3.390000 46 18 14
0.975487 0.664037 3.357000 44 18 20
0.975487 0.669913 3.357000 42 17 25
0.975487 0.675789 3.357000 40 17 30
0.985076 0.688367 3.390000 38 17 22
0.985076 0.694301 3.390000 35 14 14
0.985076 0.700235 3.390000 32 14 14
0.985076 0.706169 3.390000 32 11 14
0.985076 0.712104 3.390000 32 9 8
0.985076 0.718038 3.390000 26 7 3
0.985076 0.723972 3.390000 20 4 2
0.985076 0.729906 3.390000 20 7 1
0.975487 0.728677 3.357000 20 10 3
0.985076 0.741774 3.390000 20 9 6
0.975487 0.740430 3.357000 20 7 8
0.985076 0.753643 3.390000 26 9 10
0.985076 0.759577 3.390000 32 12 10
0.985076 0.765511 3.390000 36 15 10
0.985076 0.771446 3.390000 39 17 19
0.727910 0.719141 2.505000 172 138 162
0.722680 0.718327 2.487000 172 137 163
0.712219 0.712219 2.451000 173 128 165
0.712219 0.716510 2.451000 177 129 167
0.707279 0.715801 2.434000 181 128 170
0.702339 0.715032 2.417000 182 139 174
0.697399 0.714204 2.400000 183 142 178
0.692750 0.713616 2.384000 186 146 182
0.692750 0.717789 2.384000 189 147 185
0.687810 0.716814 2.367000 190 152 189
0.683161 0.716084 2.351000 192 152 192
0.674153 0.710703 2.320000 194 157 195
0.674153 0.714764 2.320000 196 159 195
0.665144 0.709220 2.289000 199 163 196
0.652068 0.699206 2.244000 201 153 195
0.652068 0.703134 2.244000 200 154 195
0.648000 0.702651 2.230000 200 150 203
0.643641 0.701802 2.215000 202 160 211
0.635505 0.696759 2.187000 205 170 210
0.631727 0.696423 2.174000 205 173 210
0.627659 0.695719 2.160000 206 176 212
0.623882 0.695290 2.147000 207 174 215
0.619814 0.694490 2.133000 208 171 217
0.619814 0.698224 2.133000 213 176 220
0.616036 0.697679 2.120000 218 171 220
0.608771 0.693119 2.095000 217 179 221
0.604994 0.692463 2.082000 216 181 221
0.601216 0.691761 2.069000 218 182 222
0.601216 0.695383 2.069000 220 180 223
0.597729 0.694950 2.057000 219 184 225
0.594242 0.694476 2.045000 219 186 227
0.590755 0.693960 2.033000 220 187 229
0.587268 0.693401 2.021000 222 192 236
0.577098 0.684869 1.986000 222 187 243
0.573901 0.684533 1.975000 222 185 237
0.573901 0.687990 1.975000 222 186 232
0.570705 0.687596 1.964000 222 190 237
0.564022 0.682942 1.941000 222 190 242
0.564022 0.686340 1.941000 223 189 240
0.561116 0.686184 1.931000 222 191 238
0.554723 0.681708 1.909000 221 196 233
0.551817 0.681461 1.899000 223 187 228
0.551817 0.684785 1.899000 225 174 227
0.548621 0.684124 1.888000 226 183 226
0.548621 0.687429 1.888000 226 184 223
0.542809 0.683416 1.868000 226 188 220
0.539903 0.683010 1.858000 226 186 233
0.536997 0.682569 1.848000 227 198 247
0.534092 0.682093 1.838000 228 201 244
0.528570 0.678226 1.819000 228 195 242
0.525665 0.677664 1.809000 228 188 238
0.523049 0.677444 1.800000 228 197 235
0.517528 0.673410 1.781000 228 202 238
0.514913 0.673109 1.772000 230 202 241
0.514913 0.676211 1.772000 232 203 243
0.512298 0.675863 1.763000 233 205 245
0.509683 0.675483 1.754000 233 201 245
0.507067 0.675072 1.745000 233 205 245
0.504452 0.674629 1.736000 234 207 243
0.918804 -0.187062 3.143000 88 13 5
0.918804 -0.181560 3.143000 91 37 10
0.918804 -0.176058 3.143000 94 54 51
0.918804 -0.170556 3.143000 151 75 92
0.918804 -0.165055 3.143000 209 166 161
0.927282 -0.161025 3.172000 231 231 230
0.927282 -0.155472 3.172000 254 248 242
0.918804 0.022007 3.143000 113 62 26
0.918804 0.027509 3.143000 112 64 35
0.918804 0.033011 3.143000 112 61 34
0.918804 0.038513 3.143000 114 56 34
0.918804 0.044015 3.143000 117 54 41
0.918804 0.049516 3.143000 121 52 48
0.918804 0.055018 3.143000 126 52 45
0.918804 0.060520 3.143000 115 49 41
0.918804 0.066022 3.143000 105 53 42
0.918804 0.071524 3.143000 97 53 44
0.918804 0.077026 3.143000 89 52 38
0.918804 0.082527 3.143000 96 55 32
0.918804 0.088029 3.143000 103 55 32
0.918804 0.093531 3.143000 108 54 33
0.918804 0.099033 3.143000 114 49 36
0.918804 0.104535 3.143000 105 44 39
0.918804 0.110036 3.143000 96 49 38
0.918804 0.115538 3.143000 102 53 37
0.918804 0.121040 3.143000 108 51 34
0.918804 0.126542 3.143000 107 50 30
0.918804 0.132044 3.143000 107 46 35
0.918804 0.137546 3.143000 109 44 41
0.918804 0.143047 3.143000 112 49 34
0.927282 0.149920 3.172000 108 53 27
0.918804 0.154051 3.143000 105 48 44
0.918804 0.159553 3.143000 110 45 61
0.918804 0.165055 3.143000 115 70 76
0.927282 0.172130 3.172000 117 78 92
0.935760 0.179307 3.201000 119 77 90
0.962654 0.190225 3.293000 113 76 89
0.981364 0.199799 3.357000 108 73 85
0.981364 0.205675 3.357000 104 69 82
0.991011 0.213631 3.390000 101 73 80
1.000658 0.221703 3.423000 100 74 78
0.991011 0.225500 3.390000 99 70 77
1.000658 0.233687 3.423000 97 70 77
1.000658 0.239679 3.423000 95 67 76
1.000658 0.245670 3.423000 89 65 75
1.000658 0.251662 3.423000 84 63 73
1.000658 0.257654 3.423000 95 61 72
0.991011 0.261105 3.390000 106 61 74
0.991011 0.267039 3.390000 101 60 77
0.991011 0.272973 3.390000 97 64 75
0.991011 0.278907 3.390000 94 71 73
0.991011 0.284841 3.390000 92 71 73
0.991011 0.290776 3.390000 92 72 72
0.981364 0.293821 3.357000 93 67 76
0.991011 0.302644 3.390000 94 63 81
0.991011 0.308578 3.390000 95 65 77
0.991011 0.314512 3.390000 93 69 74
0.991011 0.320447 3.390000 91 66 75
0.991011 0.326381 3.390000 90 60 77
0.991011 0.332315 3.390000 89 61 77
0.991011 0.338249 3.390000 88 62 78
0.991011 0.344183 3.390000 88 62 77
0.991011 0.350118 3.390000 87 64 76
0.991011 0.356052 3.390000 87 61 73
0.991011 0.361986 3.390000 89 59 71
0.991011 0.367920 3.390000 91 59 73
0.991011 0.373854 3.390000 90 57 75
0.991011 0.379789 3.390000 89 60 74
0.991011 0.385723 3.390000 93 62 72
0.991011 0.391657 3.390000 98 62 69
0.981364 0.393721 3.357000 92 63 67
0.981364 0.399597 3.357000 86 59 70
0.981364 0.405474 3.357000 87 60 73
0.981364 0.411350 3.357000 89 60 72
0.981364 0.417226 3.357000 87 56 72
0.981364 0.423103 3.357000 86 54 65
0.991011 0.433196 3.390000 86 55 58
0.991011 0.439131 3.390000 87 54 65
0.991011 0.445065 3.390000 85 53 71
0.991011 0.450999 3.390000 84 53 66
0.991011 0.456933 3.390000 88 54 61
0.991011 0.462867 3.390000 92 51 62
0.991011 0.468802 3.390000 89 50 63
0.991011 0.474736 3.390000 86 51 62
0.991011 0.480670 3.390000 85 52 61
0.991011 0.486604 3.390000 84 50 64
0.991011 0.492538 3.390000 81 48 68
0.991011 0.498472 3.390000 78 50 61
0.991011 0.504407 3.390000 71 53 54
0.991011 0.510341 3.390000 64 51 48
0.991011 0.516275 3.390000 71 49 43
0.991011 0.522209 3.390000 78 49 47
0.991011 0.528144 3.390000 79 47 51
0.991011 0.534078 3.390000 80 42 55
0.991011 0.540012 3.390000 77 40 58
0.991011 0.545946 3.390000 74 40 57
0.991011 0.551880 3.390000 71 40 55
0.991011 0.557815 3.390000 68 40 52
0.991011 0.563749 3.390000 69 36 49
0.991011 0.569683 3.390000 70 39 46
0.991011 0.575617 3.390000 70 38 43
0.991011 0.581551 3.390000 70 39 34
0.991011 0.587485 3.390000 64 41 26
0.991011 0.593420 3.390000 59 39 32
0.991011 0.599354 3.390000 56 38 38
0.991011 0.605288 3.390000 54 37 36
0.991011 0.611222 3.390000 50 35 35
0.991011 0.617156 3.390000 47 35 33
0.991011 0.623091 3.390000 46 35 31
0.981364 0.622901 3.357000 46 32 28
0.991011 0.634959 3.390000 45 27 26
0.991011 0.640893 3.390000 45 24 30
0.981364 0.640531 3.357000 47 21 34
0.981364 0.646407 3.357000 50 23 20
0.981364 0.652284 3.357000 49 20 6
0.981364 0.658160 3.357000 49 19 13
0.981364 0.664037 3.357000 47 16 21
0.981364 0.669913 3.357000 45 18 21
0.981364 0.675789 3.357000 42 21 22
0.981364 0.681666 3.357000 39 16 17
0.981364 0.687542 3.357000 37 13 13
0.981364 0.693419 3.357000 35 13 13
0.981364 0.699295 3.357000 36 12 13
0.981364 0.705172 3.357000 38 10 8
0.981364 0.711048 3.357000 31 9 4
0.981364 0.716924 3.357000 25 6 3
0.981364 0.722801 3.357000 24 3 2
0.981364 0.728677 3.357000 23 6 4
0.981364 0.734554 3.357000 21 7 5
0.981364 0.740430 3.357000 19 7 5
0.981364 0.746306 3.357000 27 10 5
0.981364 0.752183 3.357000 35 9 6
0.981364 0.758059 3.357000 35 11 7
0.981364 0.763936 3.357000 36 14 16
0.732296 0.719141 2.505000 172 137 114
0.727034 0.718327 2.487000 171 157 148
0.716510 0.712219 2.451000 171 134 155
0.716510 0.716510 2.451000 176 127 163
0.711540 0.715801 2.434000 182 130 166
0.706570 0.715032 2.417000 182 138 169
0.696923 0.709443 2.384000 182 140 173
0.696923 0.713616 2.384000 184 142 177
0.691953 0.712671 2.367000 187 146 181
0.687276 0.711969 2.351000 189 152 184
0.682599 0.711211 2.335000 191 153 189
0.678214 0.710703 2.320000 192 155 194
0.673537 0.709835 2.304000 194 157 196
0.673537 0.713868 2.304000 197 178 199
0.664766 0.708554 2.274000 200 160 197
0.655997 0.703134 2.244000 199 150 196
0.655997 0.707062 2.244000 199 153 202
0.647519 0.701802 2.215000 201 153 208
0.639333 0.696759 2.187000 203 163 209
0.635533 0.696423 2.174000 204 177 211
0.631440 0.695719 2.160000 206 171 212
0.627640 0.695290 2.147000 208 173 214
0.623547 0.694490 2.133000 210 172 214
0.623547 0.698224 2.133000 211 176 215
0.619747 0.697679 2.120000 212 175 221
0.612439 0.693119 2.095000 212 184 228
0.608638 0.692463 2.082000 212 179 225
0.604838 0.691761 2.069000 212 175 222
0.604838 0.695383 2.069000 212 178 222
0.601330 0.694950 2.057000 215 184 222
0.597822 0.694476 2.045000 218 184 225
0.594314 0.693960 2.033000 220 181 228
0.590806 0.693401 2.021000 222 184 231
0.580574 0.684869 1.986000 222 183 235
0.577359 0.684533 1.975000 223 183 232
0.577359 0.687990 1.975000 221 185 230
0.574143 0.687596 1.964000 220 188 235
0.570635 0.686812 1.952000 221 189 240
0.567419 0.686340 1.941000 223 187 240
0.564496 0.686184 1.931000 222 187 239
0.561280 0.685636 1.920000 221 191 232
0.555141 0.681461 1.899000 223 193 225
0.555141 0.684785 1.899000 226 186 226
0.551926 0.684124 1.888000 226 187 227
0.549002 0.683788 1.878000 226 185 223
0.546079 0.683416 1.868000 226 182 220
0.543156 0.683010 1.858000 227 187 227
0.540232 0.682569 1.848000 228 204 235
0.537309 0.682093 1.838000 229 196 237
0.531755 0.678226 1.819000 234 196 239
0.528831 0.677664 1.809000 239 195 238
0.526200 0.677444 1.800000 233 199 237
0.523277 0.676813 1.790000 227 199 238
0.518015 0.673109 1.772000 229 203 240
0.518015 0.676211 1.772000 232 201 242
0.515384 0.675863 1.763000 232 200 244
0.512753 0.675483 1.754000 232 200 244
0.507491 0.671590 1.736000 233 208 243
0.507491 0.674629 1.736000 234 207 243
0.907837 -0.189133 3.087000 114 5 1
0.916072 -0.185395 3.115000 88 15 10
0.916072 -0.179943 3.115000 97 38 19
0.916072 -0.174490 3.115000 107 67 63
0.924306 -0.170556 3.143000 169 120 108
0.924306 -0.165055 3.143000 231 209 181
0.924306 -0.159553 3.143000 242 237 254
0.924306 -0.154051 3.143000 254 254 254
0.924306 -0.148549 3.143000 250 250 254
0.924306 0.016506 3.143000 110 55 4
0.924306 0.022007 3.143000 118 65 19
0.924306 0.027509 3.143000 115 63 34
0.924306 0.033011 3.143000 112 63 34
0.924306 0.038513 3.143000 111 58 34
0.924306 0.044015 3.143000 111 57 38
0.924306 0.049516 3.143000 114 53 42
0.924306 0.055018 3.143000 118 54 40
0.924306 0.060520 3.143000 112 52 39
0.924306 0.066022 3.143000 106 56 38
0.924306 0.071524 3.143000 100 53 38
0.924306 0.077026 3.143000 94 51 32
0.924306 0.082527 3.143000 98 55 26
0.924306 0.088029 3.143000 103 56 28
0.924306 0.093531 3.143000 106 52 30
0.916072 0.098151 3.115000 109 48 28
0.924306 0.104535 3.143000 104 46 27
0.924306 0.110036 3.143000 99 49 34
0.924306 0.115538 3.143000 103 51 42
0.924306 0.121040 3.143000 107 51 41
0.924306 0.126542 3.143000 107 49 40
0.924306 0.132044 3.143000 106 46 38
0.924306 0.137546 3.143000 107 47 36
0.924306 0.143047 3.143000 109 50 27
0.924306 0.148549 3.143000 107 51 18
0.916072 0.152679 3.115000 105 49 37
0.916072 0.158132 3.115000 110 58 57
0.916072 0.163584 3.115000 115 81 71
0.916072 0.169037 3.115000 116 79 86
0.924306 0.176058 3.143000 117 78 86
0.932835 0.183235 3.172000 112 76 87
0.996945 0.201763 3.390000 107 74 84
0.987240 0.205675 3.357000 100 72 82
0.987240 0.211552 3.357000 94 74 80
0.996945 0.219565 3.390000 96 72 78
0.996945 0.225500 3.390000 97 67 79
0.996945 0.231434 3.390000 99 65 81
0.996945 0.237368 3.390000 100 63 79
0.996945 0.243302 3.390000 94 64 78
0.996945 0.249236 3.390000 88 62 78
0.996945 0.255170 3.390000 95 62 79
0.996945 0.261105 3.390000 102 63 80
0.987240 0.264439 3.357000 98 61 81
0.987240 0.270316 3.357000 95 63 78
0.987240 0.276192 3.357000 94 67 76
0.987240 0.282069 3.357000 93 72 74
0.987240 0.287945 3.357000 95 68 73
0.987240 0.293821 3.357000 97 65 80
0.987240 0.299698 3.357000 94 64 87
0.987240 0.305574 3.357000 92 68 81
0.987240 0.311451 3.357000 93 69 76
0.987240 0.317327 3.357000 94 73 77
0.996945 0.326381 3.390000 96 66 78
0.996945 0.332315 3.390000 98 62 78
0.996945 0.338249 3.390000 94 62 79
0.996945 0.344183 3.390000 91 64 78
0.987240 0.346709 3.357000 91 64 77
0.996945 0.356052 3.390000 91 63 76
0.996945 0.361986 3.390000 90 61 75
0.996945 0.367920 3.390000 90 62 79
0.996945 0.373854 3.390000 88 60 84
0.996945 0.379789 3.390000 87 61 80
0.996945 0.385723 3.390000 90 62 77
0.996945 0.391657 3.390000 93 63 76
0.987240 0.393721 3.357000 89 60 75
0.987240 0.399597 3.357000 86 58 75
0.987240 0.405474 3.357000 87 59 76
0.987240 0.411350 3.357000 89 60 75
0.987240 0.417226 3.357000 86 56 74
0.987240 0.423103 3.357000 84 54 61
0.987240 0.428979 3.357000 86 54 49
0.987240 0.434856 3.357000 89 55 62
0.987240 0.440732 3.357000 85 52 75
0.987240 0.446609 3.357000 82 51 66
0.987240 0.452485 3.357000 85 51 58
0.987240 0.458362 3.357000 88 51 61
0.987240 0.464238 3.357000 86 51 65
0.987240 0.470114 3.357000 85 54 64
0.987240 0.475991 3.357000 84 51 64
0.987240 0.481867 3.357000 83 51 63
0.987240 0.487744 3.357000 81 49 62
0.987240 0.493620 3.357000 78 49 57
0.987240 0.499497 3.357000 74 50 53
0.987240 0.505373 3.357000 70 51 46
0.987240 0.511249 3.357000 73 48 39
0.987240 0.517126 3.357000 77 47 45
0.987240 0.523002 3.357000 78 44 51
0.987240 0.528879 3.357000 80 39 57
0.987240 0.534755 3.357000 77 39 64
0.987240 0.540632 3.357000 74 40 59
0.987240 0.546508 3.357000 71 41 55
0.987240 0.552384 3.357000 68 42 51
0.987240 0.558261 3.357000 70 41 47
0.987240 0.564137 3.357000 72 44 42
0.987240 0.570014 3.357000 71 41 38
0.996945 0.581551 3.390000 70 39 25
0.996945 0.587485 3.390000 65 40 13
0.996945 0.593420 3.390000 60 41 26
0.987240 0.593519 3.357000 56 39 40
0.996945 0.605288 3.390000 52 38 37
0.996945 0.611222 3.390000 50 36 34
0.987240 0.611149 3.357000 48 37 34
0.987240 0.617025 3.357000 48 37 34
0.987240 0.622901 3.357000 48 36 29
0.987240 0.628778 3.357000 48 29 24
0.987240 0.634654 3.357000 49 25 23
0.987240 0.640531 3.357000 48 24 22
0.987240 0.646407 3.357000 48 26 12
0.987240 0.652284 3.357000 44 23 3
0.987240 0.658160 3.357000 41 23 13
0.987240 0.664037 3.357000 42 20 23
0.977535 0.663328 3.324000 43 20 18
0.977535 0.669146 3.324000 42 18 14
0.987240 0.681666 3.357000 40 15 13
0.987240 0.687542 3.357000 36 14 13
0.987240 0.693419 3.357000 32 14 12
0.987240 0.699295 3.357000 34 12 12
0.987240 0.705172 3.357000 36 12 9
0.987240 0.711048 3.357000 31 10 6
0.987240 0.716924 3.357000 27 9 5
0.987240 0.722801 3.357000 29 5 4
0.977535 0.721514 3.324000 32 5 4
0.987240 0.734554 3.357000 21 6 5
0.977535 0.733152 3.324000 11 5 3
0.987240 0.746306 3.357000 20 7 1
0.987240 0.752183 3.357000 30 6 2
0.987240 0.758059 3.357000 31 9 4
0.987240 0.763936 3.357000 33 12 14
0.731387 0.718327 2.487000 164 138 133
0.720800 0.712219 2.451000 168 126 146
0.720800 0.716510 2.451000 169 124 159
0.715800 0.715801 2.434000 171 127 161
0.710801 0.715032 2.417000 174 135 164
0.705802 0.714204 2.400000 177 141 168
0.701096 0.713616 2.384000 180 141 173
0.696097 0.712671 2.367000 184 143 176
0.691392 0.711969 2.351000 186 150 180
0.682275 0.706642 2.320000 188 155 187
0.677570 0.705802 2.304000 189 148 194
0.677570 0.709835 2.304000 191 138 198
0.673158 0.709220 2.289000 193 158 202
0.673158 0.713227 2.289000 196 160 200
0.668747 0.712534 2.274000 196 157 198
0.659925 0.707062 2.244000 196 159 201
0.655807 0.706554 2.230000 198 155 205
0.647279 0.701219 2.201000 200 155 208
0.639339 0.696423 2.174000 202 163 212
0.639339 0.700228 2.174000 203 159 212
0.635221 0.699500 2.160000 206 165 213
0.631398 0.699048 2.147000 209 170 211
0.627281 0.698224 2.133000 210 172 210
0.623458 0.697679 2.120000 211 169 222
0.619635 0.697090 2.107000 211 175 235
0.612283 0.692463 2.082000 211 177 228
0.612283 0.696108 2.082000 211 176 222
0.608460 0.695383 2.069000 212 176 221
0.604931 0.694950 2.057000 214 183 220
0.601402 0.694476 2.045000 217 186 223
0.597873 0.693960 2.033000 219 183 227
0.594344 0.693401 2.021000 222 182 227
0.584051 0.684869 1.986000 224 181 227
0.584051 0.688346 1.986000 227 182 228
0.580816 0.687990 1.975000 222 184 229
0.580816 0.691448 1.975000 217 189 234
0.574052 0.686812 1.952000 220 185 239
0.570817 0.686340 1.941000 223 183 240
0.567876 0.686184 1.931000 221 188 241
0.561406 0.681708 1.909000 219 191 231
0.558466 0.681461 1.899000 222 192 222
0.555231 0.680819 1.888000 225 193 225
0.555231 0.684124 1.888000 225 190 228
0.555231 0.687429 1.888000 226 189 224
0.549349 0.683416 1.868000 225 184 220
0.546408 0.683010 1.858000 225 179 222
0.546408 0.686263 1.858000 226 187 224
0.543467 0.685804 1.848000 227 185 230
0.534939 0.678226 1.819000 230 194 237
0.531998 0.677664 1.809000 233 199 238
0.529351 0.677444 1.800000 228 195 239
0.526410 0.676813 1.790000 223 193 239
0.521117 0.673109 1.772000 227 197 239
0.521117 0.676211 1.772000 231 200 241
0.518470 0.675863 1.763000 231 196 244
0.515823 0.675483 1.754000 231 194 243
0.513177 0.675072 1.745000 232 204 242
0.510530 0.674629 1.736000 233 208 243
0.913241 -0.189133 3.087000 87 1 1
0.921525 -0.185395 3.115000 88 16 6
0.921525 -0.179943 3.115000 104 33 12
0.921525 -0.174490 3.115000 121 85 75
0.921525 -0.169037 3.115000 187 130 139
0.921525 -0.163584 3.115000 254 211 196
0.921525 -0.158131 3.115000 254 254 254
0.921525 -0.152679 3.115000 254 254 254
0.921525 -0.147226 3.115000 251 254 254
0.921525 0.016358 3.115000 115 63 27
0.929808 0.022007 3.143000 123 64 33
0.921525 0.027264 3.115000 117 63 40
0.929808 0.033011 3.143000 112 60 39
0.921525 0.038170 3.115000 108 59 39
0.929808 0.044015 3.143000 105 55 40
0.929808 0.049516 3.143000 108 51 42
0.929808 0.055018 3.143000 111 51 41
0.929808 0.060520 3.143000 109 51 40
0.929808 0.066022 3.143000 108 53 41
0.929808 0.071524 3.143000 103 52 41
0.921525 0.076339 3.115000 99 52 37
0.921525 0.081792 3.115000 101 58 34
0.921525 0.087245 3.115000 103 53 34
0.921525 0.092698 3.115000 103 50 34
0.921525 0.098151 3.115000 104 49 38
0.921525 0.103603 3.115000 103 45 42
0.921525 0.109056 3.115000 102 48 42
0.921525 0.114509 3.115000 104 53 42
0.921525 0.119962 3.115000 107 51 43
0.921525 0.125415 3.115000 106 51 45
0.921525 0.130867 3.115000 106 49 41
0.921525 0.136320 3.115000 106 51 38
0.921525 0.141773 3.115000 106 52 34
0.921525 0.147226 3.115000 106 54 31
0.921525 0.152679 3.115000 106 52 45
0.921525 0.158132 3.115000 110 58 58
0.921525 0.163584 3.115000 115 73 71
0.921525 0.169037 3.115000 115 80 83
0.929808 0.176058 3.143000 116 79 86
0.929808 0.181560 3.143000 111 76 89
0.938387 0.188788 3.172000 106 75 86
1.002879 0.207697 3.390000 97 73 83
0.993116 0.211552 3.357000 88 73 81
0.993116 0.217428 3.357000 92 74 79
0.993116 0.223304 3.357000 96 68 79
0.993116 0.229181 3.357000 101 63 80
0.993116 0.235057 3.357000 106 64 81
0.993116 0.240934 3.357000 99 66 82
0.993116 0.246810 3.357000 93 64 79
0.993116 0.252686 3.357000 95 65 77
0.993116 0.258563 3.357000 98 63 77
0.993116 0.264439 3.357000 96 59 77
0.993116 0.270316 3.357000 94 61 76
0.993116 0.276192 3.357000 94 62 75
0.983354 0.279296 3.324000 95 65 75
0.983354 0.285115 3.324000 98 66 75
0.993116 0.293821 3.357000 101 63 78
0.993116 0.299698 3.357000 95 63 82
0.993116 0.305574 3.357000 89 65 78
0.993116 0.311451 3.357000 93 69 74
0.993116 0.317327 3.357000 98 70 73
0.993116 0.323204 3.357000 102 69 73
0.993116 0.329080 3.357000 107 65 75
0.993116 0.334957 3.357000 101 60 78
0.993116 0.340833 3.357000 95 62 80
0.993116 0.346709 3.357000 95 65 82
0.993116 0.352586 3.357000 95 63 78
0.993116 0.358462 3.357000 92 62 75
0.993116 0.364339 3.357000 89 62 77
0.993116 0.370215 3.357000 87 61 79
0.993116 0.376092 3.357000 86 61 78
0.993116 0.381968 3.357000 87 64 78
0.993116 0.387844 3.357000 88 65 77
0.993116 0.393721 3.357000 87 59 76
0.993116 0.399597 3.357000 87 58 79
0.993116 0.405474 3.357000 88 58 82
0.993116 0.411350 3.357000 89 58 79
0.993116 0.417226 3.357000 85 55 76
0.993116 0.423103 3.357000 82 54 66
0.993116 0.428979 3.357000 87 54 56
0.993116 0.434856 3.357000 92 54 63
0.993116 0.440732 3.357000 86 50 70
0.993116 0.446609 3.357000 80 50 66
0.993116 0.452485 3.357000 82 51 61
0.993116 0.458362 3.357000 84 50 65
0.993116 0.464238 3.357000 84 51 68
0.993116 0.470114 3.357000 85 51 69
0.993116 0.475991 3.357000 84 49 70
0.993116 0.481867 3.357000 83 48 66
0.993116 0.487744 3.357000 81 49 62
0.993116 0.493620 3.357000 79 48 59
0.993116 0.499497 3.357000 77 47 57
0.993116 0.505373 3.357000 76 49 58
0.993116 0.511249 3.357000 76 47 59
0.993116 0.517126 3.357000 77 45 56
0.993116 0.523002 3.357000 78 44 54
0.993116 0.528879 3.357000 80 41 58
0.993116 0.534755 3.357000 77 40 62
0.993116 0.540632 3.357000 74 41 58
0.993116 0.546508 3.357000 71 42 54
0.993116 0.552384 3.357000 69 43 50
0.993116 0.558261 3.357000 72 44 47
0.993116 0.564137 3.357000 75 44 44
0.993116 0.570014 3.357000 73 44 41
0.993116 0.575890 3.357000 71 41 35
0.993116 0.581766 3.357000 66 41 28
0.993116 0.587643 3.357000 62 40 36
0.993116 0.593519 3.357000 56 39 45
0.993116 0.599396 3.357000 50 36 41
0.993116 0.605272 3.357000 49 35 37
0.993116 0.611149 3.357000 49 36 37
0.993116 0.617025 3.357000 49 41 37
0.993116 0.622901 3.357000 50 36 33
0.993116 0.628778 3.357000 52 31 29
0.993116 0.634654 3.357000 54 26 26
0.983354 0.634234 3.324000 50 24 23
0.983354 0.640053 3.324000 46 26 17
0.983354 0.645872 3.324000 39 25 11
0.983354 0.651690 3.324000 33 24 16
0.983354 0.657509 3.324000 37 22 22
0.974183 0.657141 3.293000 42 21 18
0.974183 0.662906 3.293000 42 19 15
0.983354 0.674965 3.324000 42 17 13
0.983354 0.680784 3.324000 36 14 12
0.983354 0.686602 3.324000 30 14 12
0.983354 0.692421 3.324000 32 13 12
0.983354 0.698240 3.324000 34 12 10
0.983354 0.704058 3.324000 31 13 9
0.983354 0.709877 3.324000 29 9 8
0.983354 0.715696 3.324000 35 6 7
0.983354 0.721514 3.324000 41 5 7
0.983354 0.727333 3.324000 22 7 7
0.983354 0.733152 3.324000 3 7 8
0.983354 0.738970 3.324000 14 9 9
0.983354 0.744789 3.324000 25 7 6
0.993116 0.758059 3.357000 28 9 4
0.983354 0.756426 3.324000 31 11 12
0.974183 0.766665 3.293000 25 17 23
0.725090 0.712219 2.451000 166 135 133
0.725090 0.716510 2.451000 163 117 161
0.720061 0.715801 2.434000 160 125 161
0.715032 0.715032 2.417000 166 137 160
0.710003 0.714204 2.400000 173 138 168
0.705270 0.713616 2.384000 177 138 176
0.700240 0.712671 2.367000 181 142 178
0.690774 0.707123 2.335000 183 151 179
0.686336 0.706642 2.320000 185 151 185
0.681603 0.705802 2.304000 186 144 191
0.681603 0.709835 2.304000 188 145 192
0.677165 0.709220 2.289000 190 158 194
0.672728 0.708554 2.274000 192 156 196
0.663853 0.703134 2.244000 193 162 198
0.663853 0.707062 2.244000 194 158 200
0.659711 0.706554 2.230000 196 155 203
0.651132 0.701219 2.201000 198 156 205
0.646990 0.700587 2.187000 199 164 208
0.643144 0.700228 2.174000 201 162 209
0.639003 0.699500 2.160000 205 160 210
0.635157 0.699048 2.147000 209 165 210
0.631015 0.698224 2.133000 210 174 210
0.627169 0.697679 2.120000 211 168 217
0.619773 0.693119 2.095000 211 173 223
0.615927 0.692463 2.082000 211 173 222
0.615927 0.696108 2.082000 211 179 221
0.612082 0.695383 2.069000 212 179 220
0.608532 0.694950 2.057000 214 189 219
0.604982 0.694476 2.045000 217 186 223
0.601432 0.693960 2.033000 219 185 227
0.597882 0.693401 2.021000 222 181 229
0.591077 0.689007 1.998000 227 178 232
0.587527 0.688346 1.986000 232 181 232
0.587527 0.691822 1.986000 223 183 232
0.584273 0.691448 1.975000 214 183 236
0.581019 0.691035 1.964000 218 182 241
0.574215 0.686340 1.941000 223 185 243
0.571256 0.686184 1.931000 220 193 245
0.568002 0.685636 1.920000 217 187 237
0.561790 0.681461 1.899000 221 193 229
0.561790 0.684785 1.899000 225 192 232
0.561790 0.688109 1.899000 225 191 235
0.558536 0.687429 1.888000 226 189 231
0.555577 0.687075 1.878000 225 186 227
0.549661 0.683010 1.858000 224 183 228
0.546702 0.682569 1.848000 225 182 230
0.543744 0.682093 1.838000 226 185 230
0.538123 0.678226 1.819000 226 196 230
0.535165 0.677664 1.809000 227 193 234
0.532502 0.677444 1.800000 223 192 237
0.529544 0.676813 1.790000 219 193 238
0.526881 0.676528 1.781000 224 193 239
0.524219 0.676211 1.772000 230 194 242
0.524219 0.679313 1.772000 230 191 245
0.518894 0.675483 1.754000 231 195 243
0.516231 0.675072 1.745000 232 206 241
0.513569 0.674629 1.736000 233 206 241
0.918645 -0.189133 3.087000 84 9 1
0.918645 -0.183729 3.087000 91 18 3
0.918645 -0.178325 3.087000 120 47 5
0.926977 -0.174490 3.115000 149 111 87
0.926977 -0.169037 3.115000 201 165 170
0.926977 -0.163584 3.115000 254 254 212
0.926977 -0.158131 3.115000 254 254 254
0.926977 -0.152679 3.115000 254 254 254
0.926977 -0.147226 3.115000 252 254 254
0.926977 0.016358 3.115000 109 59 50
0.926977 0.021811 3.115000 113 67 48
0.926977 0.027264 3.115000 112 61 46
0.926977 0.032717 3.115000 112 58 45
0.926977 0.038170 3.115000 112 57 44
0.926977 0.043623 3.115000 113 56 43
0.926977 0.049075 3.115000 112 52 43
0.926977 0.054528 3.115000 112 51 42
0.926977 0.059981 3.115000 113 52 42
0.926977 0.065434 3.115000 114 54 43
0.926977 0.070887 3.115000 108 51 45
0.926977 0.076339 3.115000 102 49 43
0.926977 0.081792 3.115000 103 53 42
0.926977 0.087245 3.115000 104 50 40
0.926977 0.092698 3.115000 104 50 39
0.926977 0.098151 3.115000 104 54 48
0.926977 0.103603 3.115000 104 49 58
0.926977 0.109056 3.115000 103 47 50
0.926977 0.114509 3.115000 104 49 43
0.926977 0.119962 3.115000 106 50 46
0.926977 0.125415 3.115000 105 51 50
0.926977 0.130867 3.115000 105 50 45
0.926977 0.136320 3.115000 103 51 40
0.926977 0.141773 3.115000 101 53 42
0.918645 0.145903 3.087000 103 52 45
0.918645 0.151306 3.087000 106 49 52
0.918645 0.156710 3.087000 110 56 60
0.918645 0.162114 3.087000 115 74 70
0.926977 0.169037 3.115000 117 82 81
0.926977 0.174490 3.115000 120 84 86
0.935310 0.181560 3.143000 114 80 92
1.008813 0.201763 3.390000 109 78 88
0.989173 0.203653 3.324000 101 74 84
0.989173 0.209472 3.324000 94 74 82
0.998993 0.217428 3.357000 96 71 80
0.998993 0.223304 3.357000 98 70 79
0.998993 0.229181 3.357000 100 66 79
0.998993 0.235057 3.357000 102 66 82
0.998993 0.240934 3.357000 98 65 86
0.998993 0.246810 3.357000 94 65 81
0.998993 0.252686 3.357000 98 65 76
0.998993 0.258563 3.357000 103 68 75
0.998993 0.264439 3.357000 98 62 74
0.998993 0.270316 3.357000 94 62 74
0.998993 0.276192 3.357000 94 61 75
0.989173 0.279296 3.324000 95 60 76
0.989173 0.285115 3.324000 97 60 77
0.989173 0.290933 3.324000 99 59 77
0.989173 0.296752 3.324000 95 61 78
0.998993 0.305574 3.357000 92 63 75
0.989173 0.308389 3.324000 94 66 73
0.989173 0.314208 3.324000 97 71 70
0.998993 0.323204 3.357000 98 69 68
0.998993 0.329080 3.357000 100 69 72
0.998993 0.334957 3.357000 97 63 77
0.998993 0.340833 3.357000 94 60 82
0.998993 0.346709 3.357000 96 63 87
0.998993 0.352586 3.357000 98 65 81
0.998993 0.358462 3.357000 94 63 76
0.998993 0.364339 3.357000 90 63 75
0.998993 0.370215 3.357000 88 60 75
0.998993 0.376092 3.357000 87 58 77
0.998993 0.381968 3.357000 89 64 79
0.998993 0.387844 3.357000 92 74 78
0.998993 0.393721 3.357000 90 62 78
0.998993 0.399597 3.357000 88 58 83
0.998993 0.405474 3.357000 92 59 88
0.998993 0.411350 3.357000 97 59 83
0.998993 0.417226 3.357000 91 55 79
0.989173 0.418944 3.324000 85 54 71
0.989173 0.424763 3.324000 87 55 64
0.989173 0.430581 3.324000 89 59 65
0.989173 0.436400 3.324000 85 53 66
0.989173 0.442218 3.324000 81 51 65
0.989173 0.448037 3.324000 83 49 65
0.979947 0.449623 3.293000 85 47 68
0.989173 0.459674 3.324000 87 48 72
0.989173 0.465493 3.324000 89 51 74
0.989173 0.471312 3.324000 86 49 76
0.989173 0.477130 3.324000 84 46 69
0.989173 0.482949 3.324000 81 47 62
0.998993 0.493620 3.357000 78 49 62
0.998993 0.499497 3.357000 76 49 62
0.989173 0.500405 3.324000 74 52 70
0.989173 0.506224 3.324000 72 47 79
0.989173 0.512042 3.324000 70 45 68
0.989173 0.517861 3.324000 77 45 57
0.989173 0.523680 3.324000 84 43 59
0.989173 0.529498 3.324000 79 43 61
0.989173 0.535317 3.324000 75 44 57
0.979947 0.536089 3.293000 73 44 54
0.989173 0.546954 3.324000 71 45 50
0.989173 0.552773 3.324000 75 43 47
0.989173 0.558592 3.324000 79 45 46
0.989173 0.564410 3.324000 74 43 45
0.989173 0.570229 3.324000 70 40 44
0.989173 0.576048 3.324000 66 39 44
0.989173 0.581866 3.324000 62 42 47
0.989173 0.587685 3.324000 57 38 50
0.989173 0.593504 3.324000 52 34 45
0.989173 0.599322 3.324000 52 33 41
0.989173 0.605141 3.324000 52 32 41
0.989173 0.610960 3.324000 52 35 41
0.989173 0.616778 3.324000 52 36 37
0.989173 0.622597 3.324000 54 30 34
0.989173 0.628416 3.324000 57 26 29
0.979947 0.628319 3.293000 53 27 25
0.979947 0.634084 3.293000 49 30 22
0.979947 0.639848 3.293000 45 26 19
0.979947 0.645613 3.293000 42 29 20
0.979947 0.651377 3.293000 43 25 21
0.979947 0.657141 3.293000 44 23 18
0.970722 0.656665 3.262000 44 20 16
0.979947 0.668670 3.293000 44 21 14
0.979947 0.674435 3.293000 38 18 12
0.979947 0.680199 3.293000 33 16 12
0.979947 0.685963 3.293000 32 13 12
0.979947 0.691728 3.293000 32 12 12
0.989173 0.704058 3.324000 30 11 12
0.989173 0.709877 3.324000 29 9 11
0.989173 0.715696 3.324000 32 6 10
0.989173 0.721514 3.324000 35 3 10
0.989173 0.727333 3.324000 25 6 10
0.989173 0.733152 3.324000 15 9 13
0.989173 0.738970 3.324000 18 7 17
0.979947 0.737843 3.293000 21 4 10
0.979947 0.743607 3.293000 24 7 4
0.979947 0.749372 3.293000 27 10 10
0.979947 0.755136 3.293000 31 11 17
0.970722 0.753737 3.262000 35 15 23
0.970722 0.759448 3.262000 28 14 30
0.970722 0.765158 3.262000 21 13 23
0.729381 0.716510 2.451000 161 131 164
0.724322 0.715801 2.434000 158 120 160
0.719263 0.715032 2.417000 167 127 157
0.714204 0.714204 2.400000 176 136 168
0.709443 0.713616 2.384000 177 143 180
0.704384 0.712671 2.367000 178 139 179
0.699622 0.711969 2.351000 180 146 179
0.690397 0.706642 2.320000 182 155 183
0.685636 0.705802 2.304000 184 150 188
0.685636 0.709835 2.304000 186 141 187
0.681172 0.709220 2.289000 188 146 187
0.672245 0.703880 2.259000 189 145 193
0.667781 0.703134 2.244000 190 155 199
0.667781 0.707062 2.244000 191 156 200
0.663615 0.706554 2.230000 193 154 201
0.659151 0.705679 2.215000 196 152 203
0.650818 0.700587 2.187000 197 158 205
0.646950 0.700228 2.174000 199 165 206
0.642784 0.699500 2.160000 203 161 207
0.638915 0.699048 2.147000 207 157 209
0.634749 0.698224 2.133000 209 161 211
0.630880 0.697679 2.120000 211 157 211
0.623441 0.693119 2.095000 212 164 212
0.619572 0.692463 2.082000 213 166 216
0.619572 0.696108 2.082000 212 171 220
0.615703 0.695383 2.069000 212 173 219
0.612132 0.694950 2.057000 213 181 219
0.612132 0.698551 2.057000 215 185 223
0.608561 0.698056 2.045000 218 181 227
0.604990 0.697518 2.033000 221 180 232
0.597848 0.692801 2.009000 223 183 237
0.594575 0.692505 1.998000 226 183 236
0.591004 0.691822 1.986000 221 181 235
0.587730 0.691448 1.975000 217 180 239
0.584457 0.691035 1.964000 221 185 244
0.577613 0.686340 1.941000 226 184 247
0.574637 0.686184 1.931000 223 183 250
0.568090 0.681708 1.909000 221 173 243
0.565114 0.681461 1.899000 223 187 236
0.565114 0.684785 1.899000 226 194 239
0.565114 0.688109 1.899000 225 192 242
0.561841 0.687429 1.888000 225 193 238
0.558865 0.687075 1.878000 224 189 235
0.552913 0.683010 1.858000 224 188 235
0.549937 0.682569 1.848000 222 184 236
0.546961 0.682093 1.838000 220 179 230
0.538331 0.674497 1.809000 223 186 224
0.538331 0.677664 1.809000 227 187 230
0.535653 0.677444 1.800000 227 194 236
0.532677 0.676813 1.790000 227 197 238
0.529999 0.676528 1.781000 229 194 240
0.527321 0.676211 1.772000 231 192 243
0.527321 0.679313 1.772000 230 195 247
0.519286 0.672017 1.745000 230 189 243
0.519286 0.675072 1.745000 231 203 240
0.516608 0.674629 1.736000 232 208 240
0.907885 -0.191134 3.033000 67 47 34
0.915667 -0.187417 3.059000 80 19 4
0.924049 -0.183729 3.087000 94 19 22
0.924049 -0.178325 3.087000 136 28 40
0.924049 -0.172921 3.087000 178 108 108
0.932430 -0.169037 3.115000 216 168 175
0.932430 -0.163584 3.115000 254 232 214
0.932430 -0.158131 3.115000 254 254 254
0.932430 -0.152679 3.115000 254 254 254
0.915667 0.016064 3.059000 103 58 55
0.924049 0.021615 3.087000 103 59 51
0.924049 0.027019 3.087000 108 57 48
0.924049 0.032423 3.087000 113 56 46
0.932430 0.038170 3.115000 117 56 43
0.932430 0.043623 3.115000 121 54 40
0.932430 0.049075 3.115000 117 53 37
0.932430 0.054528 3.115000 113 53 39
0.932430 0.059981 3.115000 117 55 42
0.932430 0.065434 3.115000 121 53 46
0.932430 0.070887 3.115000 113 50 51
0.932430 0.076339 3.115000 105 50 46
0.924049 0.081057 3.087000 105 55 40
0.924049 0.086461 3.087000 106 52 34
0.924049 0.091865 3.087000 105 48 28
0.924049 0.097268 3.087000 105 52 35
0.924049 0.102672 3.087000 105 51 42
0.924049 0.108076 3.087000 105 48 35
0.932430 0.114509 3.115000 105 47 28
0.932430 0.119962 3.115000 105 51 34
0.932430 0.125415 3.115000 105 55 40
0.932430 0.130867 3.115000 105 51 39
0.932430 0.136320 3.115000 100 51 39
0.932430 0.141773 3.115000 96 52 42
0.924049 0.145903 3.087000 101 54 46
0.924049 0.151306 3.087000 107 50 51
0.924049 0.156710 3.087000 111 44 57
0.932430 0.163584 3.115000 115 69 69
0.932430 0.169037 3.115000 119 90 81
0.932430 0.174490 3.115000 124 84 83
0.940812 0.181560 3.143000 118 82 86
0.976432 0.194145 3.262000 112 76 84
0.985712 0.201754 3.293000 106 71 83
0.985712 0.207518 3.293000 101 71 81
0.994991 0.215291 3.324000 100 69 79
0.994991 0.221109 3.324000 100 66 78
0.985712 0.224812 3.293000 99 65 77
0.994991 0.232747 3.324000 99 65 78
0.994991 0.238565 3.324000 97 65 78
0.994991 0.244384 3.324000 95 64 75
0.994991 0.250202 3.324000 102 64 72
0.994991 0.256021 3.324000 109 63 68
0.994991 0.261840 3.324000 101 61 63
1.004869 0.270316 3.357000 94 61 66
0.994991 0.273477 3.324000 95 62 70
0.994991 0.279296 3.324000 96 58 71
0.985712 0.282456 3.293000 97 55 72
0.994991 0.290933 3.324000 98 58 68
0.994991 0.296752 3.324000 96 60 64
0.994991 0.302570 3.324000 95 60 67
0.994991 0.308389 3.324000 95 62 71
0.994991 0.314208 3.324000 96 66 64
0.994991 0.320027 3.324000 95 69 58
0.994991 0.325845 3.324000 94 66 65
0.994991 0.331664 3.324000 94 64 72
0.994991 0.337482 3.324000 94 61 76
0.994991 0.343301 3.324000 97 62 80
0.994991 0.349120 3.324000 101 61 77
1.004869 0.358462 3.357000 96 62 74
0.994991 0.360757 3.324000 91 62 71
0.994991 0.366576 3.324000 90 61 68
0.994991 0.372395 3.324000 89 59 71
1.004869 0.381968 3.357000 92 61 73
0.994991 0.384032 3.324000 96 62 66
0.994991 0.389850 3.324000 92 60 60
0.994991 0.395669 3.324000 89 57 69
0.994991 0.401488 3.324000 97 62 78
0.994991 0.407306 3.324000 106 57 75
0.994991 0.413125 3.324000 97 54 73
0.994991 0.418944 3.324000 88 53 64
0.994991 0.424763 3.324000 87 55 56
0.994991 0.430581 3.324000 87 55 59
0.985712 0.432330 3.293000 85 54 63
0.985712 0.438094 3.293000 83 51 63
0.985712 0.443859 3.293000 85 50 62
0.985712 0.449623 3.293000 87 46 66
0.985712 0.455387 3.293000 90 46 69
0.985712 0.461152 3.293000 94 49 70
0.985712 0.466916 3.293000 89 50 71
0.985712 0.472681 3.293000 85 47 66
0.985712 0.478445 3.293000 81 45 62
0.994991 0.488768 3.324000 78 47 60
0.994991 0.494586 3.324000 75 50 59
0.994991 0.500405 3.324000 73 49 60
0.994991 0.506224 3.324000 68 47 61
0.985712 0.507267 3.293000 64 46 58
0.985712 0.513031 3.293000 76 49 55
0.985712 0.518796 3.293000 88 46 59
0.985712 0.524560 3.293000 82 46 63
0.985712 0.530325 3.293000 76 45 58
0.985712 0.536089 3.293000 74 45 54
0.985712 0.541853 3.293000 73 44 51
0.994991 0.552773 3.324000 78 41 48
0.994991 0.558592 3.324000 83 42 48
0.985712 0.559147 3.293000 76 44 48
0.985712 0.564911 3.293000 70 39 47
0.994991 0.576048 3.324000 66 34 45
0.985712 0.576440 3.293000 63 37 47
0.985712 0.582204 3.293000 58 38 48
0.985712 0.587969 3.293000 54 34 44
0.994991 0.599322 3.324000 54 33 41
0.994991 0.605141 3.324000 55 31 42
0.994991 0.610960 3.324000 54 31 43
0.994991 0.616778 3.324000 54 33 43
0.994991 0.622597 3.324000 57 30 44
0.985712 0.622555 3.293000 61 27 37
0.985712 0.628319 3.293000 57 30 31
0.985712 0.634084 3.293000 53 27 33
0.985712 0.639848 3.293000 52 23 35
0.985712 0.645613 3.293000 51 23 30
0.985712 0.651377 3.293000 49 26 26
0.976432 0.650955 3.262000 47 20 22
0.976432 0.656665 3.262000 46 19 18
0.976432 0.662375 3.262000 46 19 14
0.985712 0.674435 3.293000 41 21 10
0.985712 0.680199 3.293000 37 16 9
0.985712 0.685963 3.293000 33 12 7
0.985712 0.691728 3.293000 30 12 15
0.985712 0.697492 3.293000 29 11 23
0.985712 0.703257 3.293000 29 8 16
0.985712 0.709021 3.293000 29 7 9
0.985712 0.714785 3.293000 29 5 9
0.985712 0.720550 3.293000 28 6 10
0.985712 0.726314 3.293000 27 6 12
0.976432 0.725187 3.262000 22 6 14
0.976432 0.730897 3.262000 17 5 10
0.985712 0.743607 3.293000 20 8 6
0.976432 0.742317 3.262000 24 7 9
0.976432 0.748027 3.262000 32 8 13
0.976432 0.753737 3.262000 40 11 17
0.976432 0.759448 3.262000 30 13 22
0.976432 0.765158 3.262000 21 15 18
0.967153 0.769198 3.231000 24 18 14
0.733671 0.716510 2.451000 159 157 137
0.733671 0.720800 2.451000 157 129 147
0.723494 0.715032 2.417000 168 117 157
0.713616 0.709443 2.384000 180 134 162
0.708527 0.708527 2.367000 177 161 167
0.703738 0.707853 2.351000 175 142 173
0.698948 0.707123 2.335000 177 142 180
0.694458 0.706642 2.320000 180 150 184
0.689669 0.705802 2.304000 182 160 188
0.689669 0.709835 2.304000 185 149 189
0.685179 0.709220 2.289000 186 142 189
0.676199 0.703880 2.259000 187 148 193
0.671709 0.703134 2.244000 188 158 197
0.667518 0.702651 2.230000 189 153 198
0.667518 0.706554 2.230000 191 155 199
0.658837 0.701219 2.201000 194 154 201
0.654647 0.700587 2.187000 196 154 203
0.654647 0.704415 2.187000 198 157 203
0.650755 0.704034 2.174000 201 162 204
0.646565 0.703281 2.160000 205 158 206
0.638483 0.698224 2.133000 208 159 209
0.634591 0.697679 2.120000 212 159 211
0.627108 0.693119 2.095000 213 161 213
0.623217 0.692463 2.082000 215 163 215
0.623217 0.696108 2.082000 213 167 218
0.619325 0.695383 2.069000 212 169 217
0.615733 0.694950 2.057000 213 177 217
0.615733 0.698551 2.057000 214 179 221
0.608549 0.693960 2.033000 217 177 225
0.604957 0.693401 2.021000 220 182 229
0.601365 0.692801 2.009000 220 194 233
0.598072 0.692505 1.998000 220 182 233
0.594480 0.691822 1.986000 220 180 233
0.594480 0.695299 1.986000 221 183 235
0.587895 0.691035 1.964000 225 195 237
0.581010 0.686340 1.941000 229 186 239
0.578017 0.686184 1.931000 227 182 241
0.574724 0.685636 1.920000 226 182 238
0.568438 0.681461 1.899000 226 190 236
0.568438 0.684785 1.899000 227 191 237
0.565145 0.684124 1.888000 226 192 239
0.562152 0.683788 1.878000 225 191 237
0.559159 0.683416 1.868000 224 189 235
0.556165 0.683010 1.858000 224 190 236
0.553172 0.682569 1.848000 219 190 236
0.553172 0.685804 1.848000 214 186 231
0.541498 0.674497 1.809000 220 185 225
0.541498 0.677664 1.809000 227 188 225
0.538804 0.677444 1.800000 231 200 225
0.535811 0.676813 1.790000 236 194 233
0.533117 0.676528 1.781000 234 194 240
0.530423 0.676211 1.772000 232 198 241
0.527728 0.675863 1.763000 231 211 241
0.522340 0.672017 1.745000 230 196 240
0.522340 0.675072 1.745000 230 209 240
0.519646 0.674629 1.736000 231 206 238
0.921022 -0.192772 3.059000 77 1 4
0.921022 -0.187417 3.059000 85 18 7
0.921022 -0.182063 3.059000 94 12 41
0.921022 -0.176708 3.059000 142 59 76
0.929453 -0.172921 3.087000 191 126 128
0.929453 -0.167518 3.087000 222 183 181
0.929453 -0.162114 3.087000 254 254 217
0.929453 -0.156710 3.087000 254 254 254
0.937883 -0.152679 3.115000 254 254 254
0.921022 0.016064 3.059000 108 55 60
0.929453 0.021615 3.087000 107 55 55
0.929453 0.027019 3.087000 110 55 51
0.929453 0.032423 3.087000 113 55 47
0.929453 0.037827 3.087000 114 54 43
0.929453 0.043230 3.087000 116 54 37
0.929453 0.048634 3.087000 113 53 31
0.937883 0.054528 3.115000 111 54 36
0.929453 0.059442 3.087000 113 54 42
0.929453 0.064846 3.087000 115 55 50
0.929453 0.070249 3.087000 110 50 58
0.929453 0.075653 3.087000 105 49 48
0.929453 0.081057 3.087000 106 53 39
0.929453 0.086461 3.087000 108 55 28
0.921022 0.091031 3.059000 109 53 17
0.921022 0.096386 3.059000 111 56 22
0.921022 0.101741 3.059000 108 52 27
0.921022 0.107096 3.059000 106 50 20
0.929453 0.113480 3.087000 106 51 14
0.929453 0.118884 3.087000 106 55 22
0.929453 0.124287 3.087000 107 53 31
0.929453 0.129691 3.087000 107 49 34
0.929453 0.135095 3.087000 103 50 38
0.929453 0.140499 3.087000 99 52 42
0.929453 0.145903 3.087000 104 53 47
0.921022 0.149934 3.059000 108 53 50
0.929453 0.156710 3.087000 111 54 54
0.929453 0.162114 3.087000 115 69 68
0.937883 0.169037 3.115000 116 79 82
0.937883 0.174490 3.115000 117 83 81
0.946313 0.181560 3.143000 112 79 80
