ply
format ascii 1.0
element vertex 1252
property float x
property float y
property float z
property uchar red
property uchar green
property uchar blue
end_header
-0.445105 0.735173 2.857000 117 86 99
-0.441522 0.734216 2.834000 120 86 96
-0.441522 0.739177 2.834000 124 88 94
-0.437783 0.737836 2.810000 128 85 100
-0.434355 0.736940 2.788000 124 83 106
-0.427344 0.729847 2.743000 120 81 103
-0.427344 0.734648 2.743000 117 79 100
-0.420801 0.728128 2.701000 114 80 99
-0.417529 0.727158 2.680000 112 82 98
-0.414258 0.726115 2.659000 111 81 102
-0.408026 0.719776 2.619000 110 80 105
-0.404910 0.718829 2.599000 110 83 101
-0.398834 0.712524 2.560000 113 86 98
-0.396030 0.711963 2.542000 116 84 97
-0.393070 0.711058 2.523000 113 82 96
-0.393070 0.715475 2.523000 111 81 94
-0.390265 0.714756 2.505000 111 81 92
-0.387461 0.713973 2.487000 111 79 96
-0.387461 0.718327 2.487000 116 74 100
-0.384657 0.717450 2.469000 121 77 93
-0.379204 0.711540 2.434000 117 79 87
-0.373907 0.705802 2.400000 114 78 92
-0.371414 0.705270 2.384000 110 76 97
-0.368766 0.704384 2.367000 107 78 95
-0.368766 0.708527 2.367000 106 78 93
-0.366273 0.707853 2.351000 106 77 94
-0.366273 0.711969 2.351000 111 76 96
-0.363780 0.711211 2.335000 116 79 93
-0.358951 0.705802 2.304000 111 80 91
-0.356614 0.705214 2.289000 106 78 88
-0.351940 0.699925 2.259000 104 79 84
-0.349603 0.699206 2.244000 103 78 91
-0.347422 0.698747 2.230000 103 77 97
-0.342904 0.693513 2.201000 104 76 93
-0.340723 0.692930 2.187000 104 75 89
-0.338697 0.692617 2.174000 105 73 87
-0.338697 0.696423 2.174000 105 72 86
-0.334491 0.691532 2.147000 105 74 87
-0.332310 0.690756 2.133000 98 77 89
-0.330284 0.690257 2.120000 92 77 87
-0.328259 0.689713 2.107000 97 77 86
-0.326390 0.689452 2.095000 102 77 85
-0.324364 0.688818 2.082000 100 77 85
-0.324364 0.692463 2.082000 98 77 86
-0.322339 0.691761 2.069000 100 76 87
-0.320469 0.691350 2.057000 102 75 88
-0.318600 0.690896 2.045000 101 73 89
-0.316730 0.690401 2.033000 101 73 88
-0.314861 0.689863 2.021000 100 76 87
-0.311277 0.685510 1.998000 99 73 91
-0.309408 0.684869 1.986000 100 71 96
-0.309408 0.688346 1.986000 101 69 92
-0.307694 0.687990 1.975000 99 64 88
-0.305980 0.687596 1.964000 98 67 89
-0.302397 0.682942 1.941000 89 71 90
-0.300839 0.682804 1.931000 81 74 91
-0.299125 0.682275 1.920000 87 74 93
-0.297412 0.681708 1.909000 94 71 87
-0.295854 0.681461 1.899000 95 72 82
-0.294140 0.680819 1.888000 97 73 75
-0.292582 0.680500 1.878000 97 72 69
-0.289466 0.676505 1.858000 98 70 75
-0.286350 0.672441 1.838000 103 65 82
-0.284792 0.671982 1.828000 109 66 76
-0.283390 0.671858 1.819000 103 68 71
-0.283390 0.675042 1.819000 98 67 77
-0.281832 0.674497 1.809000 102 64 83
-0.281832 0.677664 1.809000 107 65 79
-0.280430 0.677444 1.800000 100 67 75
-0.278872 0.676813 1.790000 94 68 74
-0.277470 0.676528 1.781000 95 68 74
-0.274666 0.672777 1.763000 96 67 77
-0.271861 0.668962 1.745000 95 66 81
-0.271861 0.672017 1.745000 95 63 86
-0.270459 0.671590 1.736000 94 59 92
-0.269213 0.671520 1.728000 93 64 86
-0.612325 0.779323 3.975000 122 89 87
-0.612325 0.786281 3.975000 121 84 97
-0.605393 0.784259 3.930000 120 83 99
-0.598461 0.782080 3.885000 119 84 102
-0.598461 0.788881 3.885000 117 84 95
-0.591837 0.786874 3.842000 120 83 88
-0.585367 0.784925 3.800000 122 84 104
-0.579051 0.783036 3.759000 123 85 120
-0.572736 0.781003 3.718000 123 86 113
-0.522209 0.759577 3.390000 125 89 104
-0.522209 0.765511 3.390000 124 87 108
-0.517126 0.763936 3.357000 123 87 106
-0.512042 0.762245 3.324000 122 87 105
-0.512042 0.768064 3.324000 122 89 104
-0.502492 0.759448 3.262000 121 91 104
-0.484160 0.737244 3.143000 121 93 105
-0.484160 0.742746 3.143000 121 89 106
-0.484160 0.748248 3.143000 121 84 107
-0.479847 0.747035 3.115000 123 86 108
-0.475534 0.745724 3.087000 125 87 111
-0.471221 0.744315 3.059000 126 85 114
-0.467215 0.743297 3.033000 127 84 109
-0.463056 0.741943 3.006000 122 83 104
-0.455200 0.734527 2.955000 117 83 101
-0.451349 0.733442 2.930000 116 86 99
-0.447498 0.732269 2.905000 115 88 98
-0.447498 0.737355 2.905000 115 87 98
-0.443801 0.736306 2.881000 116 87 99
-0.440104 0.735173 2.857000 117 85 100
-0.436561 0.734216 2.834000 119 87 95
-0.436561 0.739177 2.834000 120 86 90
-0.432864 0.737836 2.810000 122 85 95
-0.429475 0.736940 2.788000 118 84 101
-0.425932 0.735700 2.765000 114 83 100
-0.422543 0.734648 2.743000 113 82 100
-0.416073 0.728128 2.701000 113 83 100
-0.409603 0.721460 2.659000 109 83 100
-0.409603 0.726115 2.659000 106 85 105
-0.406522 0.725272 2.639000 107 83 110
-0.400360 0.718829 2.599000 109 83 106
-0.397434 0.718090 2.580000 111 85 102
-0.394353 0.717005 2.560000 114 87 100
-0.391580 0.716413 2.542000 112 83 98
-0.388653 0.715475 2.523000 111 82 96
-0.385880 0.714756 2.505000 111 82 94
-0.383107 0.713973 2.487000 111 82 98
-0.383107 0.718327 2.487000 110 79 103
-0.380335 0.717450 2.469000 110 79 93
-0.374943 0.711540 2.434000 110 80 83
-0.372324 0.710801 2.417000 111 82 89
-0.367241 0.705270 2.384000 107 80 95
-0.367241 0.709443 2.384000 102 81 94
-0.364622 0.708527 2.367000 103 79 93
-0.362157 0.707853 2.351000 105 79 92
-0.362157 0.711969 2.351000 108 79 91
-0.359693 0.711211 2.335000 112 80 90
-0.357382 0.710703 2.320000 107 79 89
-0.352607 0.705214 2.289000 103 79 83
-0.347985 0.699925 2.259000 100 79 77
-0.345675 0.699206 2.244000 98 78 84
-0.343518 0.698747 2.230000 104 78 91
-0.339051 0.693513 2.201000 110 80 89
-0.336894 0.692930 2.187000 108 76 88
-0.336894 0.696759 2.187000 107 73 88
-0.334892 0.696423 2.174000 108 73 89
-0.332735 0.695719 2.160000 110 74 89
-0.328576 0.690756 2.133000 104 75 89
-0.326573 0.690257 2.120000 98 77 89
-0.324571 0.689713 2.107000 103 77 89
-0.322722 0.689452 2.095000 108 79 86
-0.320720 0.688818 2.082000 104 77 84
-0.320720 0.692463 2.082000 100 78 85
-0.318717 0.691761 2.069000 103 80 86
-0.316869 0.691350 2.057000 106 76 85
-0.313171 0.686842 2.033000 105 74 84
-0.311323 0.686326 2.021000 104 74 84
-0.311323 0.689863 2.021000 104 75 84
-0.307780 0.685510 1.998000 104 75 86
-0.307780 0.689007 1.998000 102 72 89
-0.305931 0.688346 1.986000 101 76 88
-0.304237 0.687990 1.975000 101 69 88
-0.302542 0.687596 1.964000 100 66 89
-0.300694 0.686812 1.952000 97 71 90
-0.297459 0.682804 1.931000 93 76 88
-0.295764 0.682275 1.920000 95 72 87
-0.294070 0.681708 1.909000 97 69 84
-0.292530 0.681461 1.899000 98 71 81
-0.290835 0.680819 1.888000 99 74 78
-0.287754 0.676876 1.868000 98 73 76
-0.286214 0.676505 1.858000 97 74 79
-0.283133 0.672441 1.838000 99 69 82
-0.281592 0.671982 1.828000 102 67 80
-0.280206 0.671858 1.819000 96 67 78
-0.280206 0.675042 1.819000 90 68 81
-0.278666 0.674497 1.809000 95 65 84
-0.278666 0.677664 1.809000 101 67 80
-0.277279 0.677444 1.800000 96 69 77
-0.275739 0.676813 1.790000 91 71 74
-0.274352 0.676528 1.781000 93 69 72
-0.272966 0.676211 1.772000 96 67 75
-0.268807 0.668962 1.745000 95 65 78
-0.267420 0.668551 1.736000 95 64 81
-0.267420 0.671590 1.736000 95 61 84
-0.266188 0.671520 1.728000 95 63 81
-0.605367 0.779323 3.975000 122 89 89
-0.605367 0.786281 3.975000 121 85 95
-0.598514 0.784259 3.930000 120 84 98
-0.598514 0.791139 3.930000 119 87 101
-0.598514 0.798018 3.930000 119 86 97
-0.591660 0.795681 3.885000 121 83 94
-0.585112 0.793600 3.842000 123 85 103
-0.572471 0.783036 3.759000 124 89 113
-0.516275 0.759577 3.390000 126 89 106
-0.516275 0.765511 3.390000 124 89 111
-0.511249 0.763936 3.357000 122 88 109
-0.506224 0.762245 3.324000 122 87 107
-0.506224 0.768064 3.324000 123 89 105
-0.496781 0.759448 3.262000 122 93 104
-0.483075 0.744047 3.172000 122 94 105
-0.478659 0.742746 3.143000 121 93 106
-0.478659 0.748248 3.143000 121 89 106
-0.474394 0.747035 3.115000 124 86 106
-0.470130 0.745724 3.087000 127 87 107
-0.465866 0.744315 3.059000 130 87 108
-0.461906 0.743297 3.033000 134 86 107
-0.457794 0.741943 3.006000 125 85 105
-0.450027 0.734527 2.955000 116 85 104
-0.446220 0.733442 2.930000 114 88 103
-0.442413 0.732269 2.905000 112 87 101
-0.442413 0.737355 2.905000 114 87 99
-0.438758 0.736306 2.881000 117 85 101
-0.435103 0.735173 2.857000 117 83 102
-0.431600 0.734216 2.834000 118 84 100
-0.431600 0.739177 2.834000 117 84 97
-0.431600 0.744138 2.834000 117 84 98
-0.427945 0.742755 2.810000 112 86 100
-0.421092 0.735700 2.765000 108 85 101
-0.417741 0.734648 2.743000 110 83 103
-0.411345 0.728128 2.701000 113 83 99
-0.404948 0.721460 2.659000 107 83 95
-0.404948 0.726115 2.659000 101 84 101
-0.401903 0.725272 2.639000 105 86 106
-0.395811 0.718829 2.599000 109 84 103
-0.392917 0.718090 2.580000 110 86 100
-0.389871 0.717005 2.560000 112 85 99
-0.384237 0.711058 2.523000 111 84 98
-0.384237 0.715475 2.523000 111 83 96
-0.381495 0.714756 2.505000 111 83 94
-0.378754 0.713973 2.487000 111 82 97
-0.378754 0.718327 2.487000 105 82 100
-0.376013 0.717450 2.469000 99 80 94
-0.370682 0.711540 2.434000 104 81 87
-0.365504 0.705802 2.400000 109 81 93
-0.363068 0.705270 2.384000 103 83 100
-0.363068 0.709443 2.384000 98 81 94
-0.360479 0.708527 2.367000 101 78 89
-0.358042 0.707853 2.351000 104 80 92
-0.358042 0.711969 2.351000 106 82 96
-0.355605 0.711211 2.335000 109 81 94
-0.353321 0.710703 2.320000 104 80 92
-0.348600 0.705214 2.289000 100 79 87
-0.344031 0.699925 2.259000 96 80 83
-0.341747 0.699206 2.244000 93 78 86
-0.339615 0.698747 2.230000 105 80 88
-0.335198 0.693513 2.201000 117 79 85
-0.333066 0.692930 2.187000 113 78 82
-0.333066 0.696759 2.187000 109 75 87
-0.331086 0.696423 2.174000 112 73 92
-0.328954 0.695719 2.160000 116 74 91
-0.324842 0.690756 2.133000 110 73 90
-0.322862 0.690257 2.120000 105 74 90
-0.320882 0.689713 2.107000 109 75 89
-0.319055 0.689452 2.095000 114 75 86
-0.317075 0.688818 2.082000 108 76 82
-0.317075 0.692463 2.082000 102 79 84
-0.315095 0.691761 2.069000 106 91 86
-0.313268 0.691350 2.057000 111 78 85
-0.309613 0.686842 2.033000 109 74 83
-0.307785 0.686326 2.021000 108 74 84
-0.307785 0.689863 2.021000 108 77 85
-0.305044 0.687225 2.003000 109 73 85
-0.304282 0.689007 1.998000 105 68 86
-0.302455 0.688346 1.986000 102 71 86
-0.300780 0.687990 1.975000 102 71 87
-0.299104 0.687596 1.964000 103 69 88
-0.297277 0.686812 1.952000 104 71 90
-0.294079 0.682804 1.931000 106 72 90
-0.294079 0.686184 1.931000 103 72 89
-0.290728 0.681708 1.909000 100 70 85
-0.289205 0.681461 1.899000 101 69 80
-0.287530 0.680819 1.888000 102 69 79
-0.284484 0.676876 1.868000 99 73 78
-0.282961 0.676505 1.858000 96 72 80
-0.281438 0.676099 1.848000 96 73 83
-0.278393 0.671982 1.828000 96 69 81
-0.277022 0.671858 1.819000 89 67 80
-0.277022 0.675042 1.819000 82 66 81
-0.277022 0.678226 1.819000 88 63 81
-0.275499 0.677664 1.809000 95 66 77
-0.274128 0.677444 1.800000 91 72 72
-0.274128 0.680595 1.800000 88 73 67
-0.272605 0.679947 1.790000 92 73 61
-0.268493 0.672777 1.763000 96 68 68
-0.266361 0.670496 1.749000 95 64 75
-0.265752 0.672017 1.745000 95 63 78
-0.264382 0.671590 1.736000 96 60 81
-0.263163 0.671520 1.728000 97 64 80
-0.598409 0.772365 3.975000 125 88 88
-0.598409 0.779323 3.975000 124 91 91
-0.598409 0.786281 3.975000 123 85 94
-0.598409 0.793239 3.975000 122 82 97
-0.591634 0.791139 3.930000 122 87 100
-0.591634 0.798018 3.930000 123 90 100
-0.584860 0.795681 3.885000 125 86 100
-0.578386 0.793600 3.842000 127 85 103
-0.565891 0.783036 3.759000 126 86 106
-0.515309 0.760979 3.423000 125 88 103
-0.510341 0.759577 3.390000 127 89 108
-0.510341 0.765511 3.390000 125 90 114
-0.505373 0.763936 3.357000 123 90 111
-0.500405 0.762245 3.324000 123 89 109
-0.495738 0.760900 3.293000 124 89 106
-0.486405 0.752230 3.231000 123 95 104
-0.477523 0.744047 3.172000 123 97 105
-0.473157 0.742746 3.143000 124 95 107
-0.473157 0.748248 3.143000 125 95 105
-0.468942 0.747035 3.115000 125 90 104
-0.464726 0.745724 3.087000 125 89 103
-0.460511 0.744315 3.059000 127 89 103
-0.456597 0.743297 3.033000 129 91 105
-0.452532 0.741943 3.006000 123 87 107
-0.444855 0.734527 2.955000 118 86 107
-0.444855 0.739700 2.955000 119 87 107
-0.441091 0.738571 2.930000 120 88 104
-0.437328 0.737355 2.905000 120 86 101
-0.433715 0.736306 2.881000 119 85 103
-0.430101 0.735173 2.857000 119 86 105
-0.426639 0.734216 2.834000 119 82 105
-0.426639 0.739177 2.834000 118 83 105
-0.423026 0.737836 2.810000 118 83 102
-0.423026 0.742755 2.810000 115 86 99
-0.419714 0.741820 2.788000 112 89 103
-0.412940 0.734648 2.743000 113 85 107
-0.403455 0.722467 2.680000 115 83 99
-0.400294 0.721460 2.659000 113 83 91
-0.397283 0.720653 2.639000 111 82 97
-0.397283 0.725272 2.639000 112 83 103
-0.391261 0.718829 2.599000 112 84 101
-0.388401 0.718090 2.580000 115 85 99
-0.385390 0.717005 2.560000 117 86 98
-0.379820 0.711058 2.523000 116 84 98
-0.379820 0.715475 2.523000 114 84 96
-0.377110 0.714756 2.505000 114 83 94
-0.377110 0.719141 2.505000 115 84 96
-0.374401 0.718327 2.487000 111 82 98
-0.371691 0.717450 2.469000 108 81 95
-0.363863 0.706570 2.417000 109 81 92
-0.358895 0.701096 2.384000 111 81 98
-0.356335 0.700240 2.367000 106 82 105
-0.356335 0.704384 2.367000 101 82 95
-0.353927 0.703738 2.351000 102 80 86
-0.353927 0.707853 2.351000 104 81 93
-0.351518 0.707123 2.335000 105 82 101
-0.351518 0.711211 2.335000 106 83 98
-0.349260 0.710703 2.320000 104 81 95
-0.344593 0.705214 2.289000 103 80 92
-0.340077 0.699925 2.259000 101 78 90
-0.337819 0.699206 2.244000 99 77 88
-0.335711 0.698747 2.230000 106 78 86
-0.333453 0.697925 2.215000 113 79 81
-0.331345 0.697366 2.201000 110 79 76
-0.329238 0.696759 2.187000 107 76 85
-0.327281 0.696423 2.174000 107 75 95
-0.325173 0.695719 2.160000 107 77 93
-0.321108 0.690756 2.133000 105 75 92
-0.321108 0.694490 2.133000 103 74 91
-0.319151 0.693968 2.120000 106 74 90
-0.317194 0.693401 2.107000 108 72 85
-0.315388 0.693119 2.095000 100 72 81
-0.313431 0.692463 2.082000 93 73 84
-0.311474 0.691761 2.069000 99 77 87
-0.309667 0.691350 2.057000 106 74 85
-0.307861 0.690896 2.045000 106 73 83
-0.306054 0.690401 2.033000 105 71 84
-0.304247 0.689863 2.021000 105 74 86
-0.302441 0.689284 2.009000 106 72 85
-0.300785 0.689007 1.998000 102 69 84
-0.298979 0.688346 1.986000 99 71 85
-0.297323 0.687990 1.975000 100 71 86
-0.295667 0.687596 1.964000 102 71 88
-0.292204 0.682942 1.941000 101 71 91
-0.290699 0.682804 1.931000 100 72 91
-0.289043 0.682275 1.920000 100 73 92
-0.287387 0.681708 1.909000 100 71 86
-0.285881 0.681461 1.899000 104 68 80
-0.285881 0.684785 1.899000 107 61 80
-0.282720 0.680500 1.878000 99 66 80
-0.281214 0.680146 1.868000 91 69 82
-0.279709 0.679758 1.858000 94 71 84
-0.276698 0.675658 1.838000 96 72 83
-0.275193 0.675182 1.828000 92 68 83
-0.273838 0.675042 1.819000 87 66 81
-0.272332 0.674497 1.809000 91 64 79
-0.270977 0.674293 1.800000 94 62 73
-0.270977 0.677444 1.800000 91 69 68
-0.269472 0.676813 1.790000 89 76 59
-0.268117 0.676528 1.781000 91 72 51
-0.266762 0.676211 1.772000 93 69 62
-0.264053 0.672413 1.754000 90 67 73
-0.262698 0.672017 1.745000 88 67 75
-0.261343 0.671590 1.736000 94 65 78
-0.260138 0.671520 1.728000 101 64 79
-0.591450 0.786281 3.975000 125 82 96
-0.591450 0.793239 3.975000 124 83 98
-0.591450 0.800197 3.975000 126 89 100
-0.584755 0.798018 3.930000 128 89 100
-0.578059 0.795681 3.885000 130 88 100
-0.571661 0.793600 3.842000 132 87 106
-0.559311 0.783036 3.759000 129 86 112
-0.514525 0.762707 3.458000 127 90 108
-0.509317 0.760979 3.423000 127 89 105
-0.504407 0.759577 3.390000 128 90 111
-0.504407 0.765511 3.390000 126 92 117
-0.504407 0.771446 3.390000 125 91 111
-0.494586 0.762245 3.324000 125 91 105
-0.489974 0.760900 3.293000 125 94 105
-0.480749 0.752230 3.231000 125 101 105
-0.471970 0.744047 3.172000 125 97 107
-0.467655 0.742746 3.143000 127 97 108
-0.463489 0.741582 3.115000 130 94 106
-0.463489 0.747035 3.115000 127 92 105
-0.459322 0.745724 3.087000 124 89 105
-0.455156 0.744315 3.059000 124 89 105
-0.451288 0.743297 3.033000 124 90 106
-0.447270 0.741943 3.006000 122 88 108
-0.439682 0.734527 2.955000 120 88 108
-0.435962 0.733442 2.930000 124 89 109
-0.435962 0.738571 2.930000 129 87 105
-0.432242 0.737355 2.905000 125 86 101
-0.428671 0.736306 2.881000 122 89 100
-0.425100 0.735173 2.857000 121 96 98
-0.421678 0.734216 2.834000 120 87 102
-0.421678 0.739177 2.834000 119 86 105
-0.418107 0.737836 2.810000 119 86 101
-0.418107 0.742755 2.810000 117 87 98
-0.414833 0.741820 2.788000 116 87 100
-0.408138 0.734648 2.743000 117 86 102
-0.398764 0.722467 2.680000 118 84 98
-0.395639 0.721460 2.659000 120 84 94
-0.392663 0.720653 2.639000 122 83 100
-0.389688 0.719776 2.619000 119 83 106
-0.389688 0.724361 2.619000 116 84 99
-0.383885 0.718090 2.580000 119 86 92
-0.380909 0.717005 2.560000 123 85 94
-0.375403 0.711058 2.523000 120 84 97
-0.375403 0.715475 2.523000 118 84 94
-0.372725 0.714756 2.505000 118 84 92
-0.370047 0.713973 2.487000 119 83 98
-0.370047 0.718327 2.487000 118 81 105
-0.367369 0.717450 2.469000 117 81 100
-0.357102 0.701601 2.400000 115 82 95
-0.352192 0.696097 2.367000 113 80 97
-0.352192 0.700240 2.367000 108 82 100
-0.352192 0.704384 2.367000 104 82 94
-0.349811 0.703738 2.351000 104 80 87
-0.349811 0.707853 2.351000 105 81 93
-0.347431 0.707123 2.335000 104 82 98
-0.347431 0.711211 2.335000 103 81 97
-0.342818 0.705802 2.304000 104 81 96
-0.340586 0.705214 2.289000 106 80 93
-0.336122 0.699925 2.259000 106 78 91
-0.333890 0.699206 2.244000 106 76 90
-0.331807 0.698747 2.230000 108 77 90
-0.329575 0.697925 2.215000 110 80 85
-0.327492 0.697366 2.201000 108 83 81
-0.325409 0.696759 2.187000 106 78 87
-0.323475 0.696423 2.174000 102 77 93
-0.321392 0.695719 2.160000 98 77 92
-0.319458 0.695290 2.147000 100 77 92
-0.317374 0.694490 2.133000 102 76 91
-0.315440 0.693968 2.120000 102 77 91
-0.313506 0.693401 2.107000 103 73 89
-0.311720 0.693119 2.095000 93 69 87
-0.309786 0.692463 2.082000 84 72 88
-0.307852 0.691761 2.069000 93 72 88
-0.306066 0.691350 2.057000 102 74 86
-0.302495 0.686842 2.033000 102 74 84
-0.302495 0.690401 2.033000 103 74 84
-0.300710 0.689863 2.021000 103 76 84
-0.298924 0.689284 2.009000 103 72 81
-0.297287 0.689007 1.998000 99 68 79
-0.295502 0.688346 1.986000 96 70 81
-0.293865 0.687990 1.975000 98 73 84
-0.292228 0.687596 1.964000 101 72 85
-0.288806 0.682942 1.941000 97 70 87
-0.287318 0.682804 1.931000 94 73 83
-0.287318 0.686184 1.931000 97 78 80
-0.285682 0.685636 1.920000 101 74 80
-0.284045 0.685049 1.909000 107 71 80
-0.282557 0.684785 1.899000 113 66 82
-0.279432 0.680500 1.878000 100 62 83
-0.277944 0.680146 1.868000 87 67 87
-0.276456 0.679758 1.858000 92 71 92
-0.273481 0.675658 1.838000 97 69 86
-0.271993 0.675182 1.828000 95 67 81
-0.270654 0.675042 1.819000 93 67 81
-0.269166 0.674497 1.809000 93 67 81
-0.269166 0.677664 1.809000 94 67 77
-0.267826 0.677444 1.800000 92 67 74
-0.266339 0.676813 1.790000 90 71 68
-0.264999 0.676528 1.781000 90 71 63
-0.263660 0.676211 1.772000 90 69 69
-0.262321 0.675863 1.763000 85 69 75
-0.259643 0.672017 1.745000 81 68 76
-0.258304 0.671590 1.736000 93 70 78
-0.257113 0.671520 1.728000 106 68 83
-0.584492 0.800197 3.975000 126 88 100
-0.577875 0.798018 3.930000 127 92 100
-0.571258 0.795681 3.885000 126 91 100
-0.564936 0.793600 3.842000 125 91 109
-0.552731 0.783036 3.759000 126 89 118
-0.546702 0.781003 3.718000 127 90 113
-0.540968 0.779251 3.679000 128 87 108
-0.540968 0.785691 3.679000 130 88 109
-0.529645 0.775552 3.602000 132 88 111
-0.524205 0.773826 3.565000 134 90 114
-0.513618 0.764312 3.493000 131 92 117
-0.513618 0.770427 3.493000 128 94 112
-0.503325 0.760979 3.423000 128 91 107
-0.503325 0.766971 3.423000 129 92 114
-0.498473 0.765511 3.390000 127 92 121
-0.498473 0.771446 3.390000 125 92 111
-0.488768 0.762245 3.324000 126 93 102
-0.479651 0.753737 3.262000 127 95 104
-0.479651 0.759448 3.262000 126 96 107
-0.462153 0.737244 3.143000 126 96 108
-0.462153 0.742746 3.143000 125 95 110
-0.462153 0.748248 3.143000 124 95 108
-0.458036 0.747035 3.115000 125 91 106
-0.453919 0.745724 3.087000 126 87 106
-0.449802 0.744315 3.059000 125 89 107
-0.445978 0.743297 3.033000 124 93 108
-0.442008 0.741943 3.006000 121 90 109
-0.434509 0.734527 2.955000 119 90 110
-0.430833 0.733442 2.930000 123 88 112
-0.430833 0.738571 2.930000 126 87 107
-0.427157 0.737355 2.905000 125 87 102
-0.423628 0.736306 2.881000 124 89 97
-0.420099 0.735173 2.857000 123 89 92
-0.416717 0.734216 2.834000 122 85 99
-0.413188 0.732917 2.810000 123 88 106
-0.413188 0.737836 2.810000 124 90 101
-0.409953 0.736940 2.788000 121 88 97
-0.406571 0.735700 2.765000 117 88 97
-0.403336 0.734648 2.743000 118 86 97
-0.394073 0.722467 2.680000 118 84 97
-0.390985 0.721460 2.659000 119 84 97
-0.388044 0.720653 2.639000 120 84 103
-0.385103 0.719776 2.619000 116 84 109
-0.382162 0.718829 2.599000 112 84 97
-0.379368 0.718090 2.580000 117 84 86
-0.376428 0.717005 2.560000 121 84 91
-0.373781 0.716413 2.542000 120 84 96
-0.373781 0.720863 2.542000 118 87 93
-0.368340 0.714756 2.505000 119 85 90
-0.365694 0.713973 2.487000 120 84 101
-0.365694 0.718327 2.487000 122 82 112
-0.360400 0.712219 2.451000 123 81 105
-0.355401 0.706570 2.417000 119 79 98
-0.350548 0.701096 2.384000 114 78 97
-0.348048 0.700240 2.367000 111 82 96
-0.348048 0.704384 2.367000 109 87 92
-0.345696 0.703738 2.351000 107 83 89
-0.345696 0.707853 2.351000 106 82 92
-0.343343 0.707123 2.335000 102 81 96
-0.343343 0.711211 2.335000 99 80 97
-0.338785 0.705802 2.304000 106 81 98
-0.334374 0.700592 2.274000 114 82 95
-0.332168 0.699925 2.259000 111 77 92
-0.329962 0.699206 2.244000 108 74 93
-0.325698 0.694047 2.215000 107 77 94
-0.325698 0.697925 2.215000 107 83 90
-0.323640 0.697366 2.201000 106 81 86
-0.321581 0.696759 2.187000 106 79 89
-0.319669 0.696423 2.174000 103 78 92
-0.317611 0.695719 2.160000 101 78 92
-0.313641 0.690756 2.133000 102 77 92
-0.313641 0.694490 2.133000 103 77 92
-0.311729 0.693968 2.120000 105 76 92
-0.309818 0.693401 2.107000 107 77 93
-0.309818 0.697090 2.107000 99 73 94
-0.306141 0.692463 2.082000 91 75 92
-0.304230 0.691761 2.069000 96 74 90
-0.302465 0.691350 2.057000 101 76 87
-0.298936 0.686842 2.033000 102 74 85
-0.297172 0.686326 2.021000 104 78 84
-0.297172 0.689863 2.021000 106 75 83
-0.295407 0.689284 2.009000 108 72 78
-0.293790 0.689007 1.998000 104 70 74
-0.292025 0.688346 1.986000 101 71 78
-0.290408 0.687990 1.975000 102 73 83
-0.288791 0.687596 1.964000 103 76 83
-0.285409 0.682942 1.941000 102 72 83
-0.283938 0.682804 1.931000 101 72 76
-0.283938 0.686184 1.931000 101 76 69
-0.282321 0.685636 1.920000 101 78 75
-0.280703 0.685049 1.909000 104 73 81
-0.279233 0.684785 1.899000 107 73 84
-0.276145 0.680500 1.878000 100 70 87
-0.274675 0.680146 1.868000 93 68 93
-0.273204 0.679758 1.858000 99 69 100
-0.270263 0.675658 1.838000 105 69 89
-0.268793 0.675182 1.828000 100 68 79
-0.267469 0.675042 1.819000 95 68 81
-0.265999 0.674497 1.809000 95 69 84
-0.264676 0.674293 1.800000 95 73 82
-0.264676 0.677444 1.800000 93 69 80
-0.263205 0.676813 1.790000 91 72 78
-0.261882 0.676528 1.781000 91 71 76
-0.260558 0.676211 1.772000 92 68 76
-0.259235 0.675863 1.763000 89 68 77
-0.256588 0.672017 1.745000 86 67 78
-0.256588 0.675072 1.745000 92 69 79
-0.255265 0.674629 1.736000 99 73 87
-0.577534 0.800197 3.975000 127 92 101
-0.570996 0.798018 3.930000 126 93 98
-0.564457 0.795681 3.885000 122 94 96
-0.558210 0.793600 3.842000 119 92 104
-0.540194 0.774495 3.718000 124 90 113
-0.540194 0.781003 3.718000 129 89 107
-0.534527 0.779251 3.679000 129 89 101
-0.528861 0.777362 3.640000 130 88 106
-0.528861 0.783734 3.640000 130 88 110
-0.523340 0.781858 3.602000 131 90 112
-0.512588 0.771971 3.528000 130 96 114
-0.507503 0.770427 3.493000 129 95 111
-0.497333 0.760979 3.423000 129 92 108
-0.492538 0.759577 3.390000 130 93 113
-0.487744 0.758059 3.357000 128 95 118
-0.482949 0.756426 3.324000 126 93 112
-0.482949 0.762245 3.324000 127 94 106
-0.473941 0.753737 3.262000 129 94 107
-0.473941 0.759448 3.262000 128 94 108
-0.469437 0.757886 3.231000 128 95 109
-0.456651 0.742746 3.143000 123 95 110
-0.456651 0.748248 3.143000 118 93 109
-0.452583 0.747035 3.115000 123 91 108
-0.448515 0.745724 3.087000 128 89 111
-0.448515 0.751127 3.087000 126 88 114
-0.440669 0.743297 3.033000 124 90 110
-0.436746 0.741943 3.006000 121 91 107
-0.429336 0.734527 2.955000 119 90 112
-0.425704 0.733442 2.930000 121 88 118
-0.425704 0.738571 2.930000 124 88 111
-0.422072 0.737355 2.905000 125 89 103
-0.422072 0.742440 2.905000 126 89 100
-0.418585 0.741349 2.881000 125 86 97
-0.415098 0.740175 2.857000 125 88 100
-0.411756 0.739177 2.834000 127 92 103
-0.405073 0.732059 2.788000 130 90 100
-0.405073 0.736940 2.788000 124 88 98
-0.401731 0.735700 2.765000 119 88 98
-0.398535 0.734648 2.743000 119 87 97
-0.395483 0.733789 2.722000 119 85 98
-0.389381 0.727158 2.680000 118 85 99
-0.386330 0.726115 2.659000 118 84 103
-0.380518 0.719776 2.619000 113 85 107
-0.377613 0.718829 2.599000 109 83 101
-0.374852 0.718090 2.580000 114 85 94
-0.371946 0.717005 2.560000 120 84 96
-0.369331 0.716413 2.542000 119 84 97
-0.369331 0.720863 2.542000 119 84 95
-0.363955 0.714756 2.505000 120 87 93
-0.361340 0.713973 2.487000 122 85 100
-0.358725 0.713128 2.469000 126 83 107
-0.353639 0.707279 2.434000 130 81 103
-0.351170 0.706570 2.417000 123 78 99
-0.348700 0.705802 2.400000 116 79 96
-0.346375 0.705270 2.384000 115 82 94
-0.343905 0.704384 2.367000 114 85 89
-0.341580 0.703738 2.351000 110 83 84
-0.341580 0.707853 2.351000 107 83 89
-0.339256 0.707123 2.335000 101 83 95
-0.339256 0.711211 2.335000 95 81 95
-0.334752 0.705802 2.304000 109 84 96
-0.330393 0.700592 2.274000 123 80 94
-0.328214 0.699925 2.259000 117 76 92
-0.326034 0.699206 2.244000 111 75 95
-0.321821 0.694047 2.215000 107 77 99
-0.321821 0.697925 2.215000 104 79 93
-0.319787 0.697366 2.201000 105 79 88
-0.317753 0.696759 2.187000 106 80 92
-0.315864 0.696423 2.174000 105 80 95
-0.313830 0.695719 2.160000 104 80 93
-0.311941 0.695290 2.147000 104 78 92
-0.309907 0.694490 2.133000 104 76 92
-0.308018 0.693968 2.120000 108 75 93
-0.306129 0.693401 2.107000 112 74 96
-0.306129 0.697090 2.107000 105 74 100
-0.302497 0.692463 2.082000 98 75 94
-0.300608 0.691761 2.069000 99 76 89
-0.298865 0.691350 2.057000 100 75 88
-0.295378 0.686842 2.033000 102 71 87
-0.293634 0.686326 2.021000 105 74 85
-0.293634 0.689863 2.021000 109 76 84
-0.291891 0.689284 2.009000 114 74 81
-0.290292 0.689007 1.998000 110 71 79
-0.288549 0.688346 1.986000 106 71 81
-0.286951 0.687990 1.975000 105 74 84
-0.285352 0.687596 1.964000 105 74 84
-0.283609 0.686812 1.952000 107 73 83
-0.280558 0.682804 1.931000 109 73 79
-0.280558 0.686184 1.931000 105 77 75
-0.278960 0.685636 1.920000 102 75 79
-0.277361 0.685049 1.909000 102 70 82
-0.275909 0.684785 1.899000 102 75 84
-0.272857 0.680500 1.878000 100 77 86
-0.271405 0.680146 1.868000 99 73 89
-0.269952 0.679758 1.858000 106 71 93
-0.267046 0.675658 1.838000 114 69 87
-0.265593 0.675182 1.828000 106 69 81
-0.264285 0.675042 1.819000 98 70 83
-0.264285 0.678226 1.819000 97 71 86
-0.262832 0.677664 1.809000 96 70 84
-0.261525 0.677444 1.800000 94 66 82
-0.260072 0.676813 1.790000 93 71 81
-0.257457 0.673109 1.772000 93 74 81
-0.256149 0.672777 1.763000 94 71 85
-0.256149 0.675863 1.763000 92 71 89
-0.253534 0.672017 1.745000 91 68 84
-0.253534 0.675072 1.745000 91 69 80
-0.252226 0.674629 1.736000 92 70 85
-0.570576 0.800197 3.975000 128 95 102
-0.557657 0.788881 3.885000 127 94 97
-0.551485 0.786874 3.842000 126 93 92
-0.545456 0.784925 3.800000 126 94 100
-0.539571 0.783036 3.759000 128 91 108
-0.533686 0.781003 3.718000 131 87 101
-0.528087 0.779251 3.679000 132 88 95
-0.522489 0.777362 3.640000 133 89 102
-0.517035 0.775552 3.602000 132 90 110
-0.511724 0.773826 3.565000 132 86 110
-0.506413 0.771971 3.528000 131 92 111
-0.501389 0.770427 3.493000 131 98 110
-0.496365 0.768760 3.458000 131 95 110
-0.491341 0.766971 3.423000 132 95 112
-0.486604 0.765511 3.390000 130 95 115
-0.477130 0.756426 3.324000 128 93 113
-0.477130 0.762245 3.324000 129 94 111
-0.472681 0.760900 3.293000 130 95 110
-0.468231 0.759448 3.262000 130 95 109
-0.463781 0.757886 3.231000 129 97 109
-0.455312 0.749599 3.172000 126 94 110
-0.451149 0.748248 3.143000 124 93 110
-0.447130 0.747035 3.115000 126 92 111
-0.447130 0.752488 3.115000 128 92 116
-0.443111 0.751127 3.087000 126 91 121
-0.435360 0.743297 3.033000 124 91 113
-0.431484 0.741943 3.006000 123 90 105
-0.424164 0.734527 2.955000 121 92 115
-0.424164 0.739700 2.955000 123 89 125
-0.420575 0.738571 2.930000 126 88 115
-0.416987 0.737355 2.905000 126 90 105
-0.416987 0.742440 2.905000 126 92 103
-0.413542 0.741349 2.881000 126 89 102
-0.406795 0.734216 2.834000 126 92 101
-0.403350 0.732917 2.810000 127 91 100
-0.400192 0.732059 2.788000 128 91 100
-0.396891 0.730860 2.765000 124 90 100
-0.393733 0.729847 2.743000 120 91 99
-0.393733 0.734648 2.743000 119 88 98
-0.387704 0.728128 2.701000 119 86 99
-0.384690 0.727158 2.680000 118 85 101
-0.381676 0.726115 2.659000 118 84 103
-0.378805 0.725272 2.639000 117 83 106
-0.373063 0.718829 2.599000 115 81 104
-0.370336 0.718090 2.580000 118 83 103
-0.367465 0.717005 2.560000 121 84 101
-0.364881 0.716413 2.542000 120 82 99
-0.364881 0.720863 2.542000 119 81 98
-0.359570 0.714756 2.505000 120 84 97
-0.356987 0.713973 2.487000 121 87 99
-0.356987 0.718327 2.487000 123 84 102
-0.349379 0.707279 2.434000 125 82 101
-0.346939 0.706570 2.417000 121 81 100
-0.342202 0.701096 2.384000 116 80 96
-0.342202 0.705270 2.384000 115 84 92
-0.339762 0.704384 2.367000 114 89 85
-0.337465 0.703738 2.351000 111 85 79
-0.337465 0.707853 2.351000 109 84 86
-0.337465 0.711969 2.351000 106 82 94
-0.335168 0.711211 2.335000 103 80 94
-0.333015 0.710703 2.320000 109 81 95
-0.328565 0.705214 2.289000 116 79 93
-0.324259 0.699925 2.259000 113 77 92
-0.322106 0.699206 2.244000 111 76 98
-0.320096 0.698747 2.230000 108 77 104
-0.317943 0.697925 2.215000 106 79 97
-0.317943 0.701802 2.215000 106 81 91
-0.315934 0.701219 2.201000 106 82 95
-0.313924 0.700587 2.187000 104 82 99
-0.310049 0.695719 2.160000 103 84 95
-0.308183 0.695290 2.147000 104 79 92
-0.306173 0.694490 2.133000 105 77 93
-0.304307 0.693968 2.120000 106 76 95
-0.302441 0.693401 2.107000 107 73 100
-0.302441 0.697090 2.107000 103 75 106
-0.300718 0.696787 2.095000 99 77 97
-0.296986 0.691761 2.069000 99 78 89
-0.295264 0.691350 2.057000 100 79 89
-0.291819 0.686842 2.033000 101 75 89
-0.290096 0.686326 2.021000 103 73 87
-0.290096 0.689863 2.021000 106 74 85
-0.286795 0.685510 1.998000 109 78 84
-0.286795 0.689007 1.998000 106 73 84
-0.285072 0.688346 1.986000 104 71 85
-0.283494 0.687990 1.975000 102 73 86
-0.281915 0.687596 1.964000 101 76 85
-0.278613 0.682942 1.941000 104 73 84
-0.277178 0.682804 1.931000 107 73 83
-0.275599 0.682275 1.920000 104 75 82
-0.272584 0.678137 1.899000 101 77 83
-0.272584 0.681461 1.899000 102 75 84
-0.272584 0.684785 1.899000 104 81 84
-0.268135 0.676876 1.868000 101 78 85
-0.266699 0.676505 1.858000 99 77 85
-0.265264 0.676099 1.848000 103 71 86
-0.263828 0.675658 1.838000 107 68 85
-0.262393 0.675182 1.828000 102 70 84
-0.261101 0.675042 1.819000 98 73 86
-0.259666 0.674497 1.809000 97 72 88
-0.258374 0.674293 1.800000 97 73 86
-0.256938 0.673680 1.790000 96 70 85
-0.255647 0.673410 1.781000 96 72 85
-0.254355 0.673109 1.772000 95 72 86
-0.253063 0.672777 1.763000 94 72 93
-0.251771 0.672413 1.754000 94 69 101
-0.250479 0.672017 1.745000 94 67 91
-0.250479 0.675072 1.745000 93 68 82
-0.249187 0.674629 1.736000 93 71 82
-0.563617 0.800197 3.975000 130 99 105
-0.550856 0.788881 3.885000 129 95 105
-0.544759 0.786874 3.842000 131 93 105
-0.538804 0.784925 3.800000 133 94 107
-0.527177 0.774495 3.718000 133 94 109
-0.521647 0.772811 3.679000 134 91 105
-0.521647 0.779251 3.679000 135 90 101
-0.516118 0.777362 3.640000 137 94 106
-0.510730 0.775552 3.602000 135 98 111
-0.505483 0.773826 3.565000 133 92 113
-0.500237 0.771971 3.528000 133 91 115
-0.495274 0.770427 3.493000 134 94 113
-0.490312 0.768760 3.458000 134 96 112
-0.485349 0.766971 3.423000 134 96 115
-0.480670 0.765511 3.390000 132 97 119
-0.471312 0.756426 3.324000 130 96 115
-0.471312 0.762245 3.324000 131 95 112
-0.466916 0.760900 3.293000 132 94 110
-0.462521 0.759448 3.262000 131 95 108
-0.458125 0.757886 3.231000 131 96 112
-0.449760 0.749599 3.172000 130 94 115
-0.445648 0.748248 3.143000 130 93 113
-0.441678 0.747035 3.115000 129 94 110
-0.437707 0.745724 3.087000 129 93 114
-0.433737 0.744315 3.059000 127 93 118
-0.430051 0.743297 3.033000 125 91 113
-0.426222 0.741943 3.006000 124 88 108
-0.418991 0.734527 2.955000 124 90 113
-0.418991 0.739700 2.955000 126 90 118
-0.415446 0.738571 2.930000 128 90 111
-0.411902 0.737355 2.905000 127 92 105
-0.411902 0.742440 2.905000 126 91 104
-0.408499 0.741349 2.881000 127 89 103
-0.401834 0.734216 2.834000 128 90 102
-0.398431 0.732917 2.810000 127 91 100
-0.395312 0.732059 2.788000 127 90 102
-0.392051 0.730860 2.765000 124 90 104
-0.388931 0.729847 2.743000 122 89 102
-0.388931 0.734648 2.743000 120 90 100
-0.382976 0.728128 2.701000 119 86 104
-0.379999 0.727158 2.680000 119 85 108
-0.377021 0.726115 2.659000 119 85 107
-0.371349 0.719776 2.619000 120 84 107
-0.368514 0.718829 2.599000 122 82 109
-0.365820 0.718090 2.580000 122 83 111
-0.362984 0.717005 2.560000 123 82 105
-0.360432 0.716413 2.542000 121 82 99
-0.357738 0.715475 2.523000 120 82 94
-0.355185 0.714756 2.505000 120 81 90
-0.352633 0.713973 2.487000 121 84 95
-0.352633 0.718327 2.487000 121 85 100
-0.345118 0.707279 2.434000 121 84 98
-0.342708 0.706570 2.417000 119 85 97
-0.340297 0.705802 2.400000 117 84 94
-0.338029 0.705270 2.384000 115 88 92
-0.335618 0.704384 2.367000 114 86 88
-0.335618 0.708527 2.367000 112 84 84
-0.333350 0.707853 2.351000 111 83 89
-0.333350 0.711969 2.351000 111 82 94
-0.331081 0.711211 2.335000 111 81 93
-0.328954 0.710703 2.320000 110 81 92
-0.324559 0.705214 2.289000 110 80 90
-0.320305 0.699925 2.259000 110 80 88
-0.318178 0.699206 2.244000 111 78 89
-0.316193 0.698747 2.230000 109 78 90
-0.314066 0.697925 2.215000 108 81 89
-0.314066 0.701802 2.215000 107 84 88
-0.312081 0.701219 2.201000 106 82 91
-0.310096 0.700587 2.187000 104 82 95
-0.308253 0.700228 2.174000 103 81 93
-0.304424 0.695290 2.147000 105 78 92
-0.302439 0.694490 2.133000 107 77 92
-0.300596 0.693968 2.120000 105 79 92
-0.300596 0.697679 2.120000 103 77 91
-0.298753 0.697090 2.107000 102 78 91
-0.297051 0.696787 2.095000 101 79 89
-0.295208 0.696108 2.082000 100 80 86
-0.293365 0.695383 2.069000 100 79 87
-0.288260 0.686842 2.033000 100 78 88
-0.286559 0.686326 2.021000 101 75 87
-0.284857 0.685767 2.009000 102 72 86
-0.283298 0.685510 1.998000 104 74 86
-0.281596 0.684869 1.986000 103 73 87
-0.281596 0.688346 1.986000 103 72 86
-0.278477 0.684159 1.964000 100 74 86
-0.276775 0.683395 1.952000 97 72 85
-0.275215 0.682942 1.941000 101 70 84
-0.273798 0.682804 1.931000 105 71 81
-0.273798 0.686184 1.931000 102 74 79
-0.269260 0.678137 1.899000 100 76 77
-0.270678 0.685049 1.909000 103 75 75
-0.269260 0.684785 1.899000 106 77 80
-0.266283 0.680500 1.878000 102 78 84
-0.263447 0.676505 1.858000 99 73 83
-0.262029 0.676099 1.848000 99 69 83
-0.260611 0.675658 1.838000 100 68 83
-0.259193 0.675182 1.828000 99 73 83
-0.257917 0.675042 1.819000 98 73 84
-0.256499 0.674497 1.809000 98 72 85
-0.255223 0.674293 1.800000 98 73 83
-0.253805 0.673680 1.790000 98 71 81
-0.252529 0.673410 1.781000 99 71 77
-0.251253 0.673109 1.772000 97 71 72
-0.249977 0.672777 1.763000 95 69 82
-0.248701 0.672413 1.754000 96 69 92
-0.247425 0.672017 1.745000 97 67 87
-0.247425 0.675072 1.745000 96 66 82
-0.246148 0.674629 1.736000 95 68 81
-0.538034 0.773424 3.842000 131 96 108
-0.538034 0.780149 3.842000 130 97 113
-0.532152 0.778273 3.800000 132 95 118
-0.526410 0.776456 3.759000 134 96 114
-0.520669 0.774495 3.718000 132 96 110
-0.515207 0.772811 3.679000 131 95 109
-0.515207 0.779251 3.679000 133 94 108
-0.509746 0.777362 3.640000 136 99 110
-0.504424 0.775552 3.602000 134 98 113
-0.504424 0.781858 3.602000 132 96 116
-0.499243 0.780067 3.565000 135 94 119
-0.489160 0.770427 3.493000 139 93 116
-0.489160 0.776541 3.493000 136 95 114
-0.479357 0.766971 3.423000 134 99 119
-0.470114 0.758059 3.357000 132 98 124
-0.465493 0.756426 3.324000 131 99 118
-0.461152 0.755136 3.293000 132 97 113
-0.461152 0.760900 3.293000 134 94 110
-0.456811 0.759448 3.262000 133 96 108
-0.456811 0.765158 3.262000 132 98 114
-0.448268 0.756453 3.201000 133 95 121
-0.440146 0.748248 3.143000 134 92 115
-0.436225 0.747035 3.115000 132 94 110
-0.432304 0.745724 3.087000 130 94 112
-0.428382 0.744315 3.059000 127 92 115
-0.424741 0.743297 3.033000 125 93 113
-0.424741 0.748607 3.033000 128 90 111
-0.417319 0.740742 2.980000 131 91 111
-0.413818 0.739700 2.955000 129 91 112
-0.410317 0.738571 2.930000 127 92 108
-0.410317 0.743700 2.930000 127 91 105
-0.406816 0.742440 2.905000 127 92 105
-0.403455 0.741349 2.881000 128 90 105
-0.393512 0.727998 2.810000 130 91 103
-0.387211 0.721180 2.765000 129 90 101
-0.387211 0.726020 2.765000 127 90 104
-0.384130 0.725045 2.743000 124 89 108
-0.384130 0.729847 2.743000 122 88 105
-0.384130 0.734648 2.743000 120 87 103
-0.378248 0.728128 2.701000 119 85 109
-0.375307 0.727158 2.680000 119 85 116
-0.372366 0.726115 2.659000 120 87 112
-0.369566 0.725272 2.639000 122 85 108
-0.363964 0.718829 2.599000 125 83 114
-0.361303 0.718090 2.580000 124 83 120
-0.358502 0.717005 2.560000 123 82 109
-0.355982 0.716413 2.542000 122 83 99
-0.353321 0.715475 2.523000 121 86 91
-0.350800 0.714756 2.505000 120 84 83
-0.348280 0.713973 2.487000 120 86 90
-0.348280 0.718327 2.487000 120 85 98
-0.340857 0.707279 2.434000 121 85 96
-0.338477 0.706570 2.417000 118 85 94
-0.336096 0.705802 2.400000 116 86 93
-0.333855 0.705270 2.384000 115 86 92
-0.331475 0.704384 2.367000 114 86 91
-0.331475 0.708527 2.367000 111 84 90
-0.329234 0.707853 2.351000 109 83 92
-0.329234 0.711969 2.351000 113 82 94
-0.326993 0.711211 2.335000 117 82 91
-0.322652 0.705802 2.304000 113 81 89
-0.320552 0.705214 2.289000 110 83 86
-0.316350 0.699925 2.259000 112 81 84
-0.314250 0.699206 2.244000 115 80 80
-0.312289 0.698747 2.230000 111 80 77
-0.310189 0.697925 2.215000 108 83 81
-0.310189 0.701802 2.215000 107 83 85
-0.308228 0.701219 2.201000 106 83 88
-0.306267 0.700587 2.187000 106 83 91
-0.302486 0.695719 2.160000 106 82 92
-0.300666 0.695290 2.147000 110 78 93
-0.298705 0.694490 2.133000 115 76 91
-0.296885 0.693968 2.120000 108 78 89
-0.296885 0.697679 2.120000 100 80 83
-0.295064 0.697090 2.107000 100 81 77
-0.293384 0.696787 2.095000 100 83 80
-0.291563 0.696108 2.082000 101 81 84
-0.288062 0.691350 2.057000 102 79 86
-0.284701 0.686842 2.033000 102 78 88
-0.283021 0.686326 2.021000 102 78 87
-0.281340 0.685767 2.009000 103 75 87
-0.279800 0.685510 1.998000 103 76 89
-0.278119 0.684869 1.986000 103 73 91
-0.278119 0.688346 1.986000 103 73 88
-0.276579 0.687990 1.975000 101 73 86
-0.275039 0.687596 1.964000 100 68 85
-0.273358 0.686812 1.952000 102 70 84
-0.270417 0.682804 1.931000 105 70 80
-0.270417 0.686184 1.931000 102 73 77
-0.265936 0.678137 1.899000 98 78 72
-0.267336 0.685049 1.909000 100 76 67
-0.265936 0.684785 1.899000 103 77 75
-0.261595 0.676876 1.868000 100 75 84
-0.260194 0.676505 1.858000 97 70 82
-0.258794 0.676099 1.848000 97 69 80
-0.257394 0.675658 1.838000 98 64 81
-0.255993 0.675182 1.828000 96 72 83
-0.254733 0.675042 1.819000 95 77 83
-0.253332 0.674497 1.809000 97 76 83
-0.252072 0.674293 1.800000 98 76 80
-0.250672 0.673680 1.790000 101 72 78
-0.249411 0.673410 1.781000 105 70 68
-0.248151 0.673109 1.772000 102 70 59
-0.246891 0.672777 1.763000 99 67 71
-0.246891 0.675863 1.763000 100 67 84
-0.244370 0.672017 1.745000 102 67 83
-0.244370 0.675072 1.745000 98 67 82
-0.243109 0.674629 1.736000 93 68 80
-0.531308 0.773424 3.842000 132 94 108
-0.531308 0.780149 3.842000 132 96 107
-0.525500 0.778273 3.800000 133 96 105
-0.519830 0.776456 3.759000 135 96 107
-0.514161 0.774495 3.718000 131 99 108
-0.508767 0.772811 3.679000 128 95 109
-0.503374 0.770990 3.640000 131 94 110
-0.503374 0.777362 3.640000 135 98 112
-0.498119 0.775552 3.602000 133 99 115
-0.498119 0.781858 3.602000 132 97 117
-0.493002 0.780067 3.565000 138 96 119
-0.487885 0.778146 3.528000 144 94 116
-0.483045 0.776541 3.493000 139 92 114
-0.473365 0.766971 3.423000 135 96 115
-0.464238 0.758059 3.357000 133 100 116
-0.459674 0.756426 3.324000 132 98 115
-0.455387 0.755136 3.293000 134 100 115
-0.455387 0.760900 3.293000 137 98 112
-0.451100 0.759448 3.262000 135 98 110
-0.451100 0.765158 3.262000 134 98 114
-0.442665 0.756453 3.201000 136 96 119
-0.434644 0.748248 3.143000 138 95 115
-0.430772 0.747035 3.115000 134 96 112
-0.426900 0.745724 3.087000 131 94 113
-0.423028 0.744315 3.059000 128 91 115
-0.419432 0.743297 3.033000 126 92 114
-0.419432 0.748607 3.033000 132 91 113
-0.412103 0.740742 2.980000 138 91 111
-0.408646 0.739700 2.955000 132 92 110
-0.405188 0.738571 2.930000 126 91 108
-0.405188 0.743700 2.930000 127 91 107
-0.401731 0.742440 2.905000 128 91 106
-0.388594 0.723079 2.810000 130 89 105
-0.388594 0.727998 2.810000 133 90 102
-0.385551 0.727179 2.788000 130 91 100
-0.382371 0.726020 2.765000 128 92 103
-0.379328 0.725045 2.743000 125 90 106
-0.379328 0.729847 2.743000 122 89 102
-0.376424 0.729024 2.722000 121 88 98
-0.373520 0.728128 2.701000 120 87 103
-0.370616 0.727158 2.680000 120 84 109
-0.367712 0.726115 2.659000 121 86 106
-0.364946 0.725272 2.639000 124 86 104
-0.359415 0.718829 2.599000 128 85 107
-0.356787 0.718090 2.580000 126 85 111
-0.356787 0.722607 2.580000 124 84 105
-0.354021 0.721486 2.560000 123 85 100
-0.348904 0.715475 2.523000 122 86 97
-0.346415 0.714756 2.505000 120 85 95
-0.343926 0.713973 2.487000 119 85 96
-0.341437 0.713128 2.469000 120 86 98
-0.336597 0.707279 2.434000 121 85 92
-0.334246 0.706570 2.417000 118 85 87
-0.334246 0.710801 2.417000 116 84 89
-0.331895 0.710003 2.400000 115 84 91
-0.329682 0.709443 2.384000 114 86 91
-0.327331 0.708527 2.367000 110 85 91
-0.325119 0.707853 2.351000 107 84 94
-0.322906 0.707123 2.335000 115 84 97
-0.320832 0.706642 2.320000 123 82 94
-0.318619 0.705802 2.304000 116 81 91
-0.316545 0.705214 2.289000 110 82 88
-0.312396 0.699925 2.259000 115 84 86
-0.310322 0.699206 2.244000 120 81 84
-0.308386 0.698747 2.230000 114 80 82
-0.306311 0.697925 2.215000 108 82 86
-0.306311 0.701802 2.215000 107 83 90
-0.304375 0.701219 2.201000 106 83 91
-0.302439 0.700587 2.187000 107 85 92
-0.298705 0.695719 2.160000 109 81 93
-0.296908 0.695290 2.147000 116 77 94
-0.294972 0.694490 2.133000 124 78 91
-0.293174 0.693968 2.120000 111 80 88
-0.291376 0.693401 2.107000 98 81 85
-0.291376 0.697090 2.107000 99 85 83
-0.289717 0.696787 2.095000 100 82 84
-0.287919 0.696108 2.082000 102 82 86
-0.284462 0.691350 2.057000 104 80 87
-0.281143 0.686842 2.033000 104 77 87
-0.277824 0.682250 2.009000 104 77 86
-0.277824 0.685767 2.009000 103 76 86
-0.276302 0.685510 1.998000 103 75 87
-0.274643 0.684869 1.986000 103 73 88
-0.274643 0.688346 1.986000 104 75 86
-0.271601 0.684159 1.964000 103 78 84
-0.269941 0.683395 1.952000 103 74 85
-0.268420 0.682942 1.941000 104 73 87
-0.267037 0.682804 1.931000 106 71 83
-0.267037 0.686184 1.931000 101 73 80
-0.265516 0.685636 1.920000 97 76 77
-0.263995 0.685049 1.909000 98 77 75
-0.262612 0.684785 1.899000 100 77 81
-0.258325 0.676876 1.868000 98 76 87
-0.256942 0.676505 1.858000 96 73 84
-0.255559 0.676099 1.848000 96 74 81
-0.254176 0.675658 1.838000 96 70 80
-0.252793 0.675182 1.828000 94 74 78
-0.251549 0.675042 1.819000 93 76 79
-0.250166 0.674497 1.809000 96 79 80
-0.248921 0.674293 1.800000 99 75 79
-0.247538 0.673680 1.790000 105 71 78
-0.247538 0.676813 1.790000 111 70 74
-0.245049 0.673109 1.772000 107 72 69
-0.243804 0.672777 1.763000 103 67 76
-0.242560 0.672413 1.754000 105 67 84
-0.241315 0.672017 1.745000 108 68 85
-0.241315 0.675072 1.745000 100 70 86
-0.240071 0.674629 1.736000 92 69 79
-0.518848 0.771621 3.800000 134 98 101
-0.518848 0.778273 3.800000 135 96 93
-0.513250 0.776456 3.759000 137 95 100
-0.502327 0.766371 3.679000 136 96 107
-0.502327 0.772811 3.679000 136 94 109
-0.497002 0.770990 3.640000 136 96 112
-0.497002 0.777362 3.640000 136 100 114
-0.491813 0.775552 3.602000 135 99 117
-0.491813 0.781858 3.602000 133 99 118
-0.486762 0.780067 3.565000 136 97 119
-0.481710 0.778146 3.528000 139 98 117
-0.476931 0.776541 3.493000 137 94 115
-0.458361 0.752183 3.357000 135 93 111
-0.458361 0.758059 3.357000 134 96 108
-0.449623 0.749372 3.293000 133 94 112
-0.449623 0.755136 3.293000 134 97 117
-0.445390 0.753737 3.262000 135 101 115
-0.445390 0.759448 3.262000 133 99 113
-0.441158 0.757886 3.231000 132 100 115
-0.437061 0.756453 3.201000 133 97 117
-0.433102 0.755152 3.172000 135 96 115
-0.425319 0.747035 3.115000 132 96 114
-0.421496 0.745724 3.087000 130 96 114
-0.417673 0.744315 3.059000 127 93 115
-0.414123 0.743297 3.033000 124 93 115
-0.414123 0.748607 3.033000 128 91 116
-0.406886 0.740742 2.980000 132 90 112
-0.403473 0.739700 2.955000 128 91 108
-0.400059 0.738571 2.930000 124 91 108
-0.400059 0.743700 2.930000 125 91 109
-0.396646 0.742440 2.905000 125 92 107
-0.393369 0.741349 2.881000 124 90 105
-0.383675 0.727998 2.810000 123 91 102
-0.380671 0.727179 2.788000 123 93 99
-0.377530 0.726020 2.765000 124 97 101
-0.374526 0.725045 2.743000 123 93 104
-0.374526 0.729847 2.743000 122 92 99
-0.374526 0.734648 2.743000 122 91 94
-0.371659 0.733789 2.722000 121 91 98
-0.365925 0.727158 2.680000 121 88 102
-0.363057 0.726115 2.659000 121 89 101
-0.360326 0.725272 2.639000 122 88 101
-0.354865 0.718829 2.599000 123 89 101
-0.352271 0.718090 2.580000 123 87 102
-0.352271 0.722607 2.580000 123 86 102
-0.349540 0.721486 2.560000 122 86 102
-0.347082 0.720863 2.542000 122 88 104
-0.342030 0.714756 2.505000 121 86 107
-0.339572 0.713973 2.487000 120 86 102
-0.337115 0.713128 2.469000 119 86 98
-0.332336 0.707279 2.434000 119 87 89
-0.332336 0.711540 2.434000 118 85 80
-0.330015 0.710801 2.417000 116 84 85
-0.327694 0.710003 2.400000 115 86 90
-0.325509 0.709443 2.384000 114 89 91
-0.323188 0.708527 2.367000 111 86 92
-0.321003 0.707853 2.351000 109 86 96
-0.318819 0.707123 2.335000 112 84 100
-0.314586 0.701769 2.304000 116 84 97
-0.314586 0.705802 2.304000 109 83 94
-0.312538 0.705214 2.289000 102 81 91
-0.310490 0.704573 2.274000 107 81 88
-0.308442 0.703880 2.259000 112 81 87
-0.304482 0.698747 2.230000 107 80 87
-0.302434 0.697925 2.215000 102 82 91
-0.302434 0.701802 2.215000 104 82 96
-0.300522 0.701219 2.201000 106 81 94
-0.298611 0.700587 2.187000 106 81 93
-0.296836 0.700228 2.174000 107 80 94
-0.293149 0.695290 2.147000 112 80 96
-0.291238 0.694490 2.133000 117 82 92
-0.289463 0.693968 2.120000 109 81 88
-0.287688 0.693401 2.107000 102 82 88
-0.287688 0.697090 2.107000 102 82 89
-0.286049 0.696787 2.095000 103 81 89
-0.284274 0.696108 2.082000 106 81 89
-0.279222 0.687316 2.045000 110 82 88
-0.277584 0.686842 2.033000 107 79 87
-0.275945 0.686326 2.021000 105 78 86
-0.274307 0.685767 2.009000 105 76 85
-0.272805 0.685510 1.998000 105 76 85
-0.271166 0.684869 1.986000 104 76 86
-0.271166 0.688346 1.986000 104 78 84
-0.268163 0.684159 1.964000 104 78 83
-0.266524 0.683395 1.952000 104 78 86
-0.265022 0.682942 1.941000 104 74 90
-0.263657 0.682804 1.931000 104 71 86
-0.263657 0.686184 1.931000 98 73 83
-0.260653 0.681708 1.909000 93 78 83
-0.259288 0.681461 1.899000 96 77 84
-0.259288 0.684785 1.899000 98 78 87
-0.255055 0.676876 1.868000 97 75 90
-0.253689 0.676505 1.858000 96 73 86
-0.252324 0.676099 1.848000 96 72 83
-0.250959 0.675658 1.838000 96 71 78
-0.249593 0.675182 1.828000 94 73 74
-0.248364 0.675042 1.819000 93 77 76
-0.248364 0.678226 1.819000 95 76 78
-0.246999 0.677664 1.809000 98 74 78
-0.245770 0.677444 1.800000 102 70 79
-0.244405 0.676813 1.790000 106 69 79
-0.241947 0.673109 1.772000 104 67 80
-0.240718 0.672777 1.763000 102 65 82
-0.239489 0.672413 1.754000 102 66 84
-0.238261 0.672017 1.745000 103 68 87
-0.238261 0.675072 1.745000 99 68 91
-0.238261 0.678126 1.745000 95 72 78
-0.512196 0.771621 3.800000 136 97 108
-0.501144 0.767987 3.718000 139 95 107
-0.495887 0.766371 3.679000 142 96 109
-0.495887 0.772811 3.679000 145 96 111
-0.490630 0.770990 3.640000 141 96 113
