ply
format ascii 1.0
element vertex 1258
property float x
property float y
property float z
property uchar red
property uchar green
property uchar blue
end_header
-1.461900 -0.032200 3.679000 106 54 32
-1.461900 -0.025760 3.679000 106 54 28
-1.461900 -0.019320 3.679000 107 56 24
-1.461900 -0.012880 3.679000 108 53 24
-1.461900 -0.006440 3.679000 106 56 25
-1.461900 -0.000000 3.679000 105 57 20
-1.461900 0.006440 3.679000 104 53 15
-1.461900 0.012880 3.679000 103 52 27
-1.461900 0.019320 3.679000 97 55 40
-1.461900 0.025761 3.679000 92 54 37
-1.461900 0.032201 3.679000 97 56 35
-1.461900 0.038641 3.679000 102 55 26
-1.461900 0.045081 3.679000 103 53 17
-1.461900 0.051521 3.679000 104 55 30
-1.461900 0.057961 3.679000 105 55 43
-1.461900 0.064401 3.679000 107 54 36
-1.461900 0.070841 3.679000 108 59 30
-1.461900 0.077281 3.679000 109 56 23
-1.461900 0.083721 3.679000 106 55 17
-1.461900 0.090161 3.679000 103 56 28
-1.461900 0.096601 3.679000 104 57 39
-1.461900 0.103042 3.679000 105 56 27
-1.477398 0.110642 3.718000 107 59 16
-1.477398 0.117151 3.718000 109 59 16
-1.477398 0.123659 3.718000 107 59 15
-1.477398 0.130167 3.718000 106 56 19
-1.477398 0.136676 3.718000 105 55 22
-1.477398 0.143184 3.718000 105 55 26
-1.477398 0.149692 3.718000 103 54 30
-1.477398 0.156201 3.718000 102 55 21
-1.461900 0.161002 3.679000 102 58 13
-1.461900 0.167442 3.679000 103 56 18
-1.477398 0.175726 3.718000 101 57 23
-1.477398 0.182234 3.718000 99 52 25
-1.477398 0.188743 3.718000 103 48 27
-1.477398 0.195251 3.718000 107 49 28
-1.477398 0.201759 3.718000 105 52 29
-1.477398 0.208268 3.718000 103 54 26
-1.461900 0.212523 3.679000 103 60 23
-1.461900 0.218963 3.679000 103 57 26
-1.461900 0.225403 3.679000 102 55 29
-1.461900 0.231843 3.679000 102 54 20
-1.461900 0.238283 3.679000 98 54 11
-1.461900 0.244724 3.679000 95 53 21
-1.461900 0.251164 3.679000 98 53 31
-1.461900 0.257604 3.679000 101 54 26
-1.461900 0.264044 3.679000 99 53 22
-1.461900 0.270484 3.679000 97 51 26
-1.461900 0.276924 3.679000 100 46 30
-1.461900 0.283364 3.679000 103 51 26
-1.461900 0.289804 3.679000 103 58 21
-1.461900 0.296244 3.679000 103 53 23
-1.461900 0.302684 3.679000 102 49 25
-1.461900 0.309124 3.679000 102 48 25
-1.461900 0.315565 3.679000 97 51 25
-1.461900 0.322005 3.679000 92 50 20
-1.461900 0.328445 3.679000 98 53 16
-1.461900 0.334885 3.679000 104 51 15
-1.461900 0.341325 3.679000 104 46 15
-1.461900 0.347765 3.679000 104 47 19
-1.461900 0.354205 3.679000 102 51 24
-1.461900 0.360645 3.679000 101 52 16
-1.461900 0.367085 3.679000 97 53 8
-1.446403 0.369566 3.640000 93 53 15
-1.461900 0.379965 3.679000 97 55 21
-1.461900 0.386406 3.679000 101 50 29
-1.461900 0.392846 3.679000 100 47 38
-1.461900 0.399286 3.679000 99 51 26
-1.461900 0.405726 3.679000 97 54 14
-1.461900 0.412166 3.679000 95 52 23
-1.461900 0.418606 3.679000 99 47 33
-1.461900 0.425046 3.679000 103 47 24
-1.461900 0.431486 3.679000 101 50 14
-1.461900 0.437926 3.679000 99 52 20
-1.461900 0.444366 3.679000 98 53 26
-1.461900 0.450806 3.679000 97 48 25
-1.461900 0.457246 3.679000 95 46 25
-1.461900 0.463687 3.679000 94 48 22
-1.461900 0.470127 3.679000 95 54 19
-1.461900 0.476567 3.679000 97 50 15
-1.461900 0.483007 3.679000 97 49 11
-1.461900 0.489447 3.679000 97 47 20
-1.461900 0.495887 3.679000 97 48 29
-1.461900 0.502327 3.679000 97 48 20
-1.446403 0.503374 3.640000 96 47 11
-1.461900 0.515207 3.679000 95 44 16
-1.461900 0.521647 3.679000 95 41 22
-1.461900 0.528087 3.679000 96 42 24
-1.461900 0.534528 3.679000 92 44 26
-1.461900 0.540968 3.679000 89 44 23
-1.461900 0.547408 3.679000 92 45 20
-1.461900 0.553848 3.679000 95 47 25
-1.461900 0.560288 3.679000 95 50 30
-1.461900 0.566728 3.679000 96 45 22
-1.461900 0.573168 3.679000 94 42 13
-1.461900 0.579608 3.679000 92 45 22
-1.461900 0.586048 3.679000 87 47 31
-1.461900 0.592488 3.679000 82 48 18
-1.461900 0.598928 3.679000 86 47 6
-1.461900 0.605369 3.679000 91 44 24
-1.461900 0.611809 3.679000 92 43 43
-1.461900 0.618249 3.679000 93 42 31
-1.461900 0.624689 3.679000 92 39 19
-1.461900 0.631129 3.679000 91 35 15
-1.446403 0.630810 3.640000 50 22 10
-1.446403 0.637182 3.640000 9 14 13
-1.446403 0.643554 3.640000 13 8 17
-1.446403 0.649926 3.640000 17 9 20
-1.144804 0.706047 2.881000 72 42 36
-1.135268 0.705166 2.857000 68 44 49
-1.135268 0.710167 2.857000 65 42 47
-1.126128 0.709411 2.834000 72 42 45
-1.116592 0.708323 2.810000 79 39 38
-1.098710 0.701819 2.765000 79 37 32
-1.081624 0.695670 2.722000 80 39 35
-1.073279 0.695031 2.701000 80 42 39
-1.064934 0.694319 2.680000 80 41 40
-1.064934 0.699010 2.680000 79 42 41
-1.064934 0.703701 2.680000 79 37 47
-1.056590 0.702842 2.659000 79 31 54
-1.040695 0.696853 2.619000 79 34 42
-1.025198 0.690992 2.580000 71 42 31
-1.017251 0.690117 2.560000 63 44 26
-1.010098 0.689715 2.542000 68 45 21
-0.995396 0.684061 2.505000 74 43 32
-0.995396 0.688446 2.505000 72 41 44
-0.988243 0.687852 2.487000 70 44 39
-0.981091 0.687196 2.469000 72 45 35
-0.973938 0.686476 2.451000 74 42 40
-0.967183 0.685976 2.434000 71 42 46
-0.967183 0.690236 2.434000 68 42 43
-0.960428 0.689646 2.417000 71 44 39
-0.953673 0.688997 2.400000 74 43 42
-0.947315 0.688577 2.384000 77 45 44
-0.940559 0.687810 2.367000 80 46 37
-0.927844 0.682599 2.335000 80 49 29
-0.921884 0.682275 2.320000 80 43 36
-0.909565 0.677165 2.289000 69 40 44
-0.909565 0.681172 2.289000 59 44 51
-0.897644 0.676199 2.259000 67 49 59
-0.891684 0.675637 2.244000 76 45 62
-0.891684 0.679565 2.244000 78 42 64
-0.886121 0.679229 2.230000 80 44 48
-0.880160 0.678538 2.215000 79 47 33
-0.874597 0.678102 2.201000 79 45 47
-0.869034 0.677617 2.187000 78 50 61
-0.869034 0.681445 2.187000 78 45 60
-0.853140 0.672740 2.147000 77 42 60
-0.847576 0.672087 2.133000 77 44 65
-0.842411 0.671702 2.120000 78 46 69
-0.837245 0.671271 2.107000 79 44 67
-0.832477 0.671116 2.095000 76 46 65
-0.822145 0.666408 2.069000 74 46 66
-0.822145 0.670030 2.069000 76 51 68
-0.817377 0.669745 2.057000 78 50 58
-0.812608 0.669418 2.045000 76 51 48
-0.807840 0.669048 2.033000 74 51 55
-0.807840 0.672607 2.033000 73 50 62
-0.798303 0.668183 2.009000 73 50 61
-0.789164 0.664010 1.986000 75 49 59
-0.784793 0.663790 1.975000 77 49 66
-0.780422 0.663531 1.964000 77 50 73
-0.775654 0.662893 1.952000 78 48 68
-0.775654 0.666310 1.952000 73 51 64
-0.771283 0.665953 1.941000 69 48 64
-0.767309 0.665903 1.931000 74 45 64
-0.762938 0.665470 1.920000 79 44 69
-0.758567 0.664999 1.909000 78 45 74
-0.754593 0.664840 1.899000 78 44 68
-0.750222 0.664294 1.888000 78 45 62
-0.746249 0.664063 1.878000 78 46 57
-0.750222 0.670904 1.888000 75 48 52
-0.746249 0.670638 1.878000 72 50 55
-0.738301 0.666748 1.858000 75 53 58
-0.734328 0.666394 1.848000 79 52 59
-0.726381 0.662382 1.828000 80 50 60
-0.718831 0.658664 1.809000 82 51 56
-0.715254 0.658538 1.800000 74 54 53
-0.711281 0.658013 1.790000 66 52 63
-0.707704 0.657822 1.781000 71 53 73
-0.711281 0.664280 1.790000 76 49 67
-0.707704 0.664057 1.781000 78 45 62
-0.696976 0.657061 1.754000 81 45 60
-0.693399 0.656744 1.745000 81 48 59
-0.689823 0.656396 1.736000 82 48 61
-0.689823 0.659435 1.736000 80 50 63
-0.686644 0.659420 1.728000 79 50 69
-0.683068 0.658995 1.719000 79 49 75
-0.679889 0.658923 1.711000 80 46 63
-0.676313 0.658437 1.702000 81 46 51
-0.673134 0.658307 1.694000 82 50 61
-0.669955 0.658150 1.686000 80 54 70
-1.455461 -1.429700 3.679000 87 34 41
-1.470889 -1.438348 3.718000 86 38 32
-1.470889 -1.431839 3.718000 85 38 39
-1.470889 -1.425331 3.718000 88 33 46
-1.470889 -1.418822 3.718000 91 29 27
-1.470889 -1.412314 3.718000 91 31 9
-1.470889 -1.405806 3.718000 92 34 11
-1.470889 -1.399297 3.718000 89 37 14
-1.470889 -1.392789 3.718000 86 38 19
-1.470889 -1.386281 3.718000 85 34 24
-1.470889 -1.379772 3.718000 84 30 39
-1.455461 -1.358859 3.679000 77 35 55
-1.455461 -1.352419 3.679000 71 39 38
-1.455461 -1.345979 3.679000 76 31 22
-1.455461 -1.339539 3.679000 81 16 18
-1.455461 -1.333099 3.679000 83 30 14
-1.455461 -1.326659 3.679000 85 39 21
-1.455461 -1.320218 3.679000 88 37 28
-1.455461 -1.313778 3.679000 92 34 27
-1.455461 -1.307338 3.679000 91 40 26
-1.455461 -1.300898 3.679000 90 41 28
-1.455461 -1.294458 3.679000 88 41 30
-1.455461 -1.288018 3.679000 87 41 32
-1.455461 -1.281578 3.679000 88 38 35
-1.455461 -1.275138 3.679000 90 35 37
-1.455461 -1.268698 3.679000 91 37 39
-1.455461 -1.262258 3.679000 91 33 32
-1.455461 -1.255818 3.679000 91 40 25
-1.455461 -1.249377 3.679000 92 42 22
-1.455461 -1.242937 3.679000 91 43 19
-1.455461 -1.236497 3.679000 91 41 11
-1.455461 -1.230057 3.679000 91 41 4
-1.455461 -1.223617 3.679000 92 39 12
-1.455461 -1.217177 3.679000 92 42 20
-1.455461 -1.210737 3.679000 93 46 18
-1.455461 -1.204297 3.679000 93 45 17
-1.455461 -1.197857 3.679000 93 46 24
-1.455461 -1.191417 3.679000 91 40 32
-1.440032 -1.172415 3.640000 88 39 29
-1.440032 -1.166043 3.640000 90 41 26
-1.440032 -1.159671 3.640000 93 45 29
-1.455461 -1.165656 3.679000 94 45 33
-1.455461 -1.159216 3.679000 96 45 23
-1.455461 -1.152776 3.679000 98 40 14
-1.455461 -1.146336 3.679000 100 35 19
-1.455461 -1.139896 3.679000 97 42 25
-1.455461 -1.133456 3.679000 94 45 22
-1.455461 -1.127016 3.679000 92 45 20
-1.455461 -1.120576 3.679000 91 44 24
-1.455461 -1.114136 3.679000 92 42 28
-1.440032 -1.095953 3.640000 94 40 47
-1.440032 -1.089581 3.640000 95 43 67
-1.440032 -1.083209 3.640000 97 46 55
-1.440032 -1.076838 3.640000 99 43 44
-1.440032 -1.070466 3.640000 101 42 55
-1.440032 -1.064094 3.640000 101 40 67
-1.440032 -1.057722 3.640000 100 39 49
-1.440032 -1.051350 3.640000 100 41 31
-1.440032 -1.044978 3.640000 99 42 39
-1.455461 -1.049735 3.679000 97 43 47
-1.455461 -1.043294 3.679000 95 46 40
-1.440032 -1.025863 3.640000 100 47 33
-1.440032 -1.019491 3.640000 104 49 45
-1.440032 -1.013119 3.640000 98 42 58
-1.440032 -1.006748 3.640000 92 42 41
-1.455461 -1.011094 3.679000 94 45 24
-1.440032 -0.994004 3.640000 97 47 20
-1.440032 -0.987632 3.640000 98 48 17
-1.440032 -0.981260 3.640000 99 50 20
-1.440032 -0.974889 3.640000 100 45 24
-1.440032 -0.968517 3.640000 102 39 22
-1.440032 -0.962145 3.640000 99 44 21
-1.440032 -0.955773 3.640000 96 46 28
-1.440032 -0.949401 3.640000 94 47 36
-1.440032 -0.943029 3.640000 93 50 49
-1.455461 -0.946693 3.679000 94 49 62
-1.455461 -0.940253 3.679000 96 47 37
-1.455461 -0.933813 3.679000 97 47 12
-1.455461 -0.927373 3.679000 99 48 12
-1.455461 -0.920933 3.679000 98 50 13
-1.455461 -0.914493 3.679000 97 53 15
-1.455461 -0.908053 3.679000 96 51 17
-1.455461 -0.901613 3.679000 95 51 17
-1.455461 -0.895172 3.679000 98 48 17
-1.455461 -0.888732 3.679000 101 44 24
-1.455461 -0.882292 3.679000 100 40 31
-1.455461 -0.875852 3.679000 99 39 28
-1.455461 -0.869412 3.679000 99 43 25
-1.455461 -0.862972 3.679000 99 46 34
-1.455461 -0.856532 3.679000 101 46 43
-1.455461 -0.850092 3.679000 103 44 35
-1.455461 -0.843652 3.679000 101 46 28
-1.440032 -0.828337 3.640000 99 44 20
-1.424998 -0.813384 3.602000 97 46 12
-1.424998 -0.807079 3.602000 95 49 24
-1.424998 -0.800773 3.602000 97 49 37
-1.424998 -0.794468 3.602000 100 51 30
-1.424998 -0.788163 3.602000 100 48 24
-1.424998 -0.781857 3.602000 101 47 25
-1.424998 -0.775552 3.602000 101 47 26
-1.440032 -0.777362 3.640000 102 47 30
-1.440032 -0.770990 3.640000 107 45 34
-1.440032 -0.764618 3.640000 112 41 33
-1.440032 -0.758247 3.640000 108 38 32
-1.440032 -0.751875 3.640000 105 39 33
-1.440032 -0.745503 3.640000 105 43 34
-1.440032 -0.739131 3.640000 105 44 32
-1.440032 -0.732759 3.640000 103 48 30
-1.440032 -0.726387 3.640000 101 49 37
-1.440032 -0.720016 3.640000 101 47 44
-1.440032 -0.713644 3.640000 101 46 38
-1.455461 -0.714850 3.679000 102 46 32
-1.440032 -0.700900 3.640000 104 47 32
-1.440032 -0.694528 3.640000 103 46 33
-1.440032 -0.688157 3.640000 103 43 39
-1.440032 -0.681785 3.640000 103 47 45
-1.440032 -0.675413 3.640000 103 48 50
-1.440032 -0.669041 3.640000 103 46 56
-1.440032 -0.662669 3.640000 104 45 50
-1.455461 -0.663329 3.679000 105 49 45
-1.455461 -0.656889 3.679000 105 50 37
-1.455461 -0.650449 3.679000 106 53 30
-1.455461 -0.644009 3.679000 107 51 27
-1.455461 -0.637569 3.679000 105 54 24
-1.455461 -0.631129 3.679000 104 57 27
-1.455461 -0.624689 3.679000 105 56 31
-1.455461 -0.618249 3.679000 107 55 27
-1.455461 -0.611809 3.679000 107 52 24
-1.455461 -0.605368 3.679000 107 53 24
-1.455461 -0.598928 3.679000 106 53 25
-1.455461 -0.592488 3.679000 105 54 19
-1.455461 -0.586048 3.679000 107 57 14
-1.455461 -0.579608 3.679000 110 59 26
-1.455461 -0.573168 3.679000 108 55 39
-1.455461 -0.566728 3.679000 106 54 49
-1.455461 -0.560288 3.679000 110 57 59
-1.455461 -0.553848 3.679000 114 60 40
-1.455461 -0.547408 3.679000 110 54 21
-1.455461 -0.540968 3.679000 106 49 22
-1.455461 -0.534527 3.679000 110 50 23
-1.455461 -0.528087 3.679000 114 51 32
-1.440032 -0.516117 3.640000 110 51 42
-1.455461 -0.515207 3.679000 106 50 53
-1.440032 -0.503374 3.640000 105 53 65
-1.440032 -0.497002 3.640000 103 56 51
-1.440032 -0.490630 3.640000 108 54 37
-1.440032 -0.484258 3.640000 114 53 31
-1.440032 -0.477886 3.640000 111 54 26
-1.440032 -0.471515 3.640000 109 56 31
-1.440032 -0.465143 3.640000 108 54 37
-1.455461 -0.463686 3.679000 108 55 32
-1.455461 -0.457246 3.679000 108 58 27
-1.455461 -0.450806 3.679000 109 57 40
-1.455461 -0.444366 3.679000 108 57 53
-1.470889 -0.442568 3.718000 107 55 38
-1.455461 -0.431486 3.679000 108 56 23
-1.470889 -0.429552 3.718000 110 56 25
-1.455461 -0.418606 3.679000 112 56 27
-1.455461 -0.412166 3.679000 113 54 33
-1.455461 -0.405726 3.679000 111 55 39
-1.455461 -0.399285 3.679000 109 56 44
-1.455461 -0.392845 3.679000 108 59 50
-1.455461 -0.386405 3.679000 107 63 30
-1.455461 -0.379965 3.679000 108 62 10
-1.455461 -0.373525 3.679000 109 60 34
-1.455461 -0.367085 3.679000 110 55 58
-1.455461 -0.360645 3.679000 111 51 44
-1.455461 -0.354205 3.679000 110 55 31
-1.455461 -0.347765 3.679000 109 58 28
-1.455461 -0.341325 3.679000 107 58 26
-1.455461 -0.334885 3.679000 105 60 26
-1.455461 -0.328445 3.679000 107 60 26
-1.455461 -0.322004 3.679000 109 59 25
-1.455461 -0.315564 3.679000 111 60 25
-1.455461 -0.309124 3.679000 114 62 27
-1.455461 -0.302684 3.679000 111 59 30
-1.455461 -0.296244 3.679000 108 58 31
-1.455461 -0.289804 3.679000 109 56 33
-1.455461 -0.283364 3.679000 111 55 34
-1.455461 -0.276924 3.679000 110 58 36
-1.455461 -0.270484 3.679000 108 61 26
-1.455461 -0.264044 3.679000 107 60 17
-1.455461 -0.257604 3.679000 107 60 15
-1.455461 -0.251163 3.679000 106 55 13
-1.455461 -0.244723 3.679000 105 53 14
-1.455461 -0.238283 3.679000 109 56 15
-1.455461 -0.231843 3.679000 114 56 23
-1.455461 -0.225403 3.679000 112 51 32
-1.455461 -0.218963 3.679000 109 50 37
-1.470889 -0.214776 3.718000 110 51 42
-1.455461 -0.206083 3.679000 110 50 38
-1.455461 -0.199643 3.679000 112 53 34
-1.455461 -0.193203 3.679000 114 58 44
-1.470889 -0.188742 3.718000 111 56 54
-1.470889 -0.182234 3.718000 108 54 46
-1.470889 -0.175726 3.718000 105 56 38
-1.455461 -0.167442 3.679000 103 58 36
-1.455461 -0.161002 3.679000 105 55 34
-1.455461 -0.154562 3.679000 107 56 40
-1.455461 -0.148122 3.679000 110 55 47
-1.455461 -0.141682 3.679000 112 55 36
-1.455461 -0.135242 3.679000 106 55 26
-1.455461 -0.128802 3.679000 101 55 42
-1.455461 -0.122362 3.679000 102 56 58
-1.455461 -0.115922 3.679000 103 54 49
-1.455461 -0.109481 3.679000 107 52 41
-1.455461 -0.103041 3.679000 112 53 43
-1.455461 -0.096601 3.679000 105 56 46
-1.455461 -0.090161 3.679000 98 59 32
-1.455461 -0.083721 3.679000 102 59 19
-1.455461 -0.077281 3.679000 107 60 19
-1.440032 -0.070090 3.640000 104 58 19
-1.440032 -0.063718 3.640000 102 57 28
-1.440032 -0.057346 3.640000 105 54 37
-1.455461 -0.051521 3.679000 108 53 33
-1.455461 -0.045081 3.679000 105 56 30
-1.455461 -0.038641 3.679000 103 56 31
-1.455461 -0.032200 3.679000 104 53 32
-1.455461 -0.025760 3.679000 105 54 31
-1.455461 -0.019320 3.679000 109 52 30
-1.470889 -0.013017 3.718000 113 51 27
-1.470889 -0.006508 3.718000 110 54 25
-1.470889 -0.000000 3.718000 108 58 23
-1.470889 0.006508 3.718000 109 53 21
-1.455461 0.012880 3.679000 110 51 35
-1.455461 0.019320 3.679000 104 51 50
-1.455461 0.025761 3.679000 98 50 43
-1.455461 0.032201 3.679000 100 53 37
-1.455461 0.038641 3.679000 102 56 34
-1.455461 0.045081 3.679000 102 52 31
-1.455461 0.051521 3.679000 102 51 42
-1.455461 0.057961 3.679000 104 51 53
-1.455461 0.064401 3.679000 107 51 39
-1.455461 0.070841 3.679000 109 54 26
-1.455461 0.077281 3.679000 112 56 21
-1.455461 0.083721 3.679000 106 56 17
-1.470889 0.091117 3.718000 100 56 33
-1.470889 0.097625 3.718000 101 57 50
-1.470889 0.104134 3.718000 103 58 38
-1.470889 0.110642 3.718000 105 57 26
-1.470889 0.117151 3.718000 107 58 21
-1.470889 0.123659 3.718000 106 57 17
-1.470889 0.130167 3.718000 106 54 21
-1.470889 0.136676 3.718000 105 53 25
-1.470889 0.143184 3.718000 105 53 24
-1.470889 0.149692 3.718000 105 52 23
-1.470889 0.156201 3.718000 105 52 15
-1.470889 0.162709 3.718000 104 55 7
-1.470889 0.169217 3.718000 104 56 14
-1.470889 0.175726 3.718000 103 54 21
-1.470889 0.182234 3.718000 102 52 24
-1.470889 0.188743 3.718000 106 49 28
-1.470889 0.195251 3.718000 110 47 27
-1.470889 0.201759 3.718000 104 50 27
-1.470889 0.208268 3.718000 98 53 24
-1.470889 0.214776 3.718000 100 56 21
-1.470889 0.221284 3.718000 102 56 16
-1.455461 0.225403 3.679000 103 54 12
-1.455461 0.231843 3.679000 104 53 15
-1.455461 0.238283 3.679000 101 53 19
-1.455461 0.244724 3.679000 99 55 25
-1.455461 0.251164 3.679000 100 53 31
-1.455461 0.257604 3.679000 102 54 30
-1.455461 0.264044 3.679000 104 53 30
-1.455461 0.270484 3.679000 107 54 32
-1.455461 0.276924 3.679000 105 50 34
-1.455461 0.283364 3.679000 104 46 36
-1.470889 0.292876 3.718000 104 51 39
-1.455461 0.296244 3.679000 104 49 34
-1.455461 0.302684 3.679000 104 46 30
-1.455461 0.309124 3.679000 103 45 34
-1.455461 0.315565 3.679000 100 46 38
-1.455461 0.322005 3.679000 97 47 34
-1.455461 0.328445 3.679000 101 48 31
-1.455461 0.334885 3.679000 105 47 25
-1.455461 0.341325 3.679000 104 48 20
-1.455461 0.347765 3.679000 104 48 23
-1.455461 0.354205 3.679000 104 52 27
-1.455461 0.360645 3.679000 104 54 20
-1.455461 0.367085 3.679000 105 52 13
-1.455461 0.373525 3.679000 106 49 19
-1.455461 0.379965 3.679000 104 49 26
-1.455461 0.386406 3.679000 103 49 42
-1.455461 0.392846 3.679000 101 48 59
-1.455461 0.399286 3.679000 99 49 42
-1.455461 0.405726 3.679000 99 50 26
-1.455461 0.412166 3.679000 99 51 35
-1.455461 0.418606 3.679000 101 48 44
-1.455461 0.425046 3.679000 104 49 35
-1.470889 0.436060 3.718000 102 49 27
-1.470889 0.442569 3.718000 100 50 32
-1.470889 0.449077 3.718000 99 48 37
-1.470889 0.455585 3.718000 99 44 43
-1.470889 0.462094 3.718000 99 45 50
-1.470889 0.468602 3.718000 99 47 38
-1.470889 0.475110 3.718000 99 48 26
-1.455461 0.476567 3.679000 99 49 23
-1.455461 0.483007 3.679000 101 46 21
-1.455461 0.489447 3.679000 103 43 31
-1.455461 0.495887 3.679000 100 46 41
-1.455461 0.502327 3.679000 98 50 25
-1.455461 0.508767 3.679000 97 47 9
-1.455461 0.515207 3.679000 96 46 15
-1.455461 0.521647 3.679000 97 42 21
-1.455461 0.528087 3.679000 99 39 26
-1.455461 0.534528 3.679000 99 41 32
-1.455461 0.540968 3.679000 100 42 29
-1.455461 0.547408 3.679000 98 44 26
-1.455461 0.553848 3.679000 96 47 35
-1.455461 0.560288 3.679000 96 47 44
-1.455461 0.566728 3.679000 97 45 33
-1.455461 0.573168 3.679000 96 42 23
-1.455461 0.579608 3.679000 96 45 22
-1.455461 0.586048 3.679000 93 46 21
-1.455461 0.592488 3.679000 90 48 11
-1.455461 0.598928 3.679000 92 45 1
-1.455461 0.605369 3.679000 94 43 28
-1.455461 0.611809 3.679000 98 42 56
-1.455461 0.618249 3.679000 102 41 41
-1.455461 0.624689 3.679000 93 39 26
-1.455461 0.631129 3.679000 84 34 18
-1.455461 0.637569 3.679000 47 20 10
-1.455461 0.644009 3.679000 11 12 15
-1.455461 0.650449 3.679000 15 8 21
-1.455461 0.656889 3.679000 19 7 25
-1.139761 0.695960 2.881000 74 40 39
-1.130267 0.695164 2.857000 75 40 41
-1.130267 0.700165 2.857000 75 41 47
-1.130267 0.705166 2.857000 75 41 53
-1.121167 0.704450 2.834000 74 38 50
-1.121167 0.709411 2.834000 76 38 47
-1.111673 0.708323 2.810000 78 39 45
-1.093870 0.701819 2.765000 79 38 43
-1.076859 0.695670 2.722000 81 36 41
-1.068551 0.695031 2.701000 81 37 40
-1.060243 0.694319 2.680000 81 41 44
-1.060243 0.699010 2.680000 82 39 49
-1.060243 0.703701 2.680000 84 34 61
-1.051935 0.702842 2.659000 82 33 74
-1.051935 0.707496 2.659000 80 35 54
-1.028198 0.696081 2.599000 75 41 34
-1.012770 0.690117 2.560000 70 44 32
-1.005648 0.689715 2.542000 73 43 30
-0.991011 0.684061 2.505000 75 42 37
-0.991011 0.688446 2.505000 74 43 45
-0.983890 0.687852 2.487000 73 45 35
-0.969648 0.682186 2.451000 74 43 26
-0.969648 0.686476 2.451000 75 41 36
-0.962922 0.685976 2.434000 73 41 47
-0.962922 0.690236 2.434000 72 41 50
-0.956197 0.689646 2.417000 74 41 53
-0.949471 0.688997 2.400000 75 41 52
-0.943142 0.688577 2.384000 78 43 51
-0.930086 0.683161 2.351000 80 46 47
-0.923756 0.682599 2.335000 81 43 44
-0.917822 0.682275 2.320000 82 40 45
-0.905558 0.677165 2.289000 75 39 47
-0.899624 0.676708 2.274000 68 45 51
-0.893690 0.676199 2.259000 73 47 56
-0.887756 0.675637 2.244000 78 48 66
-0.882217 0.675325 2.230000 78 45 76
-0.876283 0.674660 2.215000 79 46 66
-0.876283 0.678538 2.215000 79 44 56
-0.870744 0.678102 2.201000 79 42 64
-0.870744 0.681955 2.201000 78 45 72
-0.865206 0.681445 2.187000 78 45 69
-0.860063 0.681200 2.174000 78 45 66
-0.843843 0.672087 2.133000 78 46 73
-0.838700 0.671702 2.120000 80 43 80
-0.833557 0.671271 2.107000 81 41 75
-0.823666 0.666951 2.082000 79 44 71
-0.823666 0.670596 2.082000 76 46 77
-0.818523 0.670030 2.069000 80 47 84
-0.818523 0.673652 2.069000 84 47 70
-0.813776 0.673346 2.057000 80 48 56
-0.804281 0.669048 2.033000 76 50 62
-0.799534 0.668637 2.021000 75 49 69
-0.790435 0.664525 1.998000 75 53 67
-0.785688 0.664010 1.986000 76 50 65
-0.781336 0.663790 1.975000 78 48 73
-0.776984 0.663531 1.964000 81 46 82
-0.772237 0.662893 1.952000 84 41 74
-0.772237 0.666310 1.952000 80 44 67
-0.767885 0.665953 1.941000 76 45 63
-0.763929 0.665903 1.931000 79 43 60
-0.759577 0.665470 1.920000 83 41 70
-0.755225 0.664999 1.909000 81 43 80
-0.751269 0.664840 1.899000 79 44 71
-0.751269 0.668164 1.899000 78 45 63
-0.746917 0.667599 1.888000 78 48 60
-0.746917 0.670904 1.888000 77 49 58
-0.739005 0.667067 1.868000 76 50 58
-0.735049 0.666748 1.858000 78 51 59
-0.731093 0.666394 1.848000 81 50 62
-0.727137 0.666006 1.838000 84 47 66
-0.715664 0.658664 1.809000 86 45 75
-0.708147 0.654880 1.790000 79 48 85
-0.708147 0.658013 1.790000 71 49 83
-0.704587 0.657822 1.781000 74 50 81
-0.704587 0.660940 1.781000 76 50 76
-0.701026 0.660702 1.772000 79 44 72
-0.693905 0.657061 1.754000 81 42 78
-0.690345 0.656744 1.745000 84 44 84
-0.686784 0.656396 1.736000 86 44 76
-0.686784 0.659435 1.736000 83 49 68
-0.683619 0.659420 1.728000 80 50 75
-0.680059 0.658995 1.719000 81 48 83
-0.676894 0.658923 1.711000 81 45 63
-0.673333 0.658437 1.702000 84 47 44
-0.670169 0.658307 1.694000 88 45 63
-0.667004 0.658150 1.686000 84 47 82
-1.449020 -1.429700 3.679000 89 38 25
-1.464381 -1.438348 3.718000 90 39 24
-1.464381 -1.431839 3.718000 91 36 30
-1.464381 -1.425331 3.718000 93 30 36
-1.464381 -1.418822 3.718000 95 28 20
-1.464381 -1.412314 3.718000 96 30 5
-1.464381 -1.405806 3.718000 98 34 9
-1.464381 -1.399297 3.718000 93 36 13
-1.464381 -1.392789 3.718000 89 36 16
-1.464381 -1.386281 3.718000 89 36 19
-1.464381 -1.379772 3.718000 90 34 30
-1.464381 -1.373264 3.718000 94 36 41
-1.464381 -1.366756 3.718000 99 38 28
-1.464381 -1.360247 3.718000 92 42 15
-1.464381 -1.353739 3.718000 85 28 11
-1.464381 -1.347230 3.718000 85 19 7
-1.464381 -1.340722 3.718000 86 30 15
-1.464381 -1.334214 3.718000 90 37 23
-1.464381 -1.327705 3.718000 95 37 25
-1.449020 -1.307338 3.679000 93 44 28
-1.464381 -1.314689 3.718000 91 41 33
-1.464381 -1.308180 3.718000 92 39 39
-1.464381 -1.301672 3.718000 93 40 36
-1.464381 -1.295164 3.718000 92 39 34
-1.464381 -1.288655 3.718000 92 38 39
-1.464381 -1.282147 3.718000 91 39 44
-1.449020 -1.262258 3.679000 91 38 35
-1.449020 -1.255818 3.679000 91 41 26
-1.449020 -1.249377 3.679000 91 43 22
-1.449020 -1.242937 3.679000 91 44 18
-1.449020 -1.236497 3.679000 91 43 16
-1.449020 -1.230057 3.679000 91 42 14
-1.449020 -1.223617 3.679000 91 42 15
-1.449020 -1.217177 3.679000 93 43 17
-1.449020 -1.210737 3.679000 95 44 16
-1.449020 -1.204297 3.679000 95 45 15
-1.449020 -1.197857 3.679000 96 44 21
-1.449020 -1.191417 3.679000 94 41 27
-1.449020 -1.184977 3.679000 93 41 25
-1.449020 -1.178537 3.679000 93 42 23
-1.449020 -1.172096 3.679000 94 42 25
-1.449020 -1.165656 3.679000 95 44 27
-1.449020 -1.159216 3.679000 96 43 22
-1.449020 -1.152776 3.679000 99 42 18
-1.449020 -1.146336 3.679000 103 41 20
-1.449020 -1.139896 3.679000 99 44 22
-1.449020 -1.133456 3.679000 95 44 19
-1.449020 -1.127016 3.679000 95 43 17
-1.449020 -1.120576 3.679000 96 42 21
-1.449020 -1.114136 3.679000 96 43 26
-1.449020 -1.107695 3.679000 97 43 36
-1.433660 -1.089581 3.640000 96 45 46
-1.433660 -1.083209 3.640000 96 43 44
-1.433660 -1.076838 3.640000 99 42 41
-1.433660 -1.070466 3.640000 102 41 45
-1.433660 -1.064094 3.640000 102 42 49
-1.449020 -1.069055 3.679000 102 41 35
-1.449020 -1.062615 3.679000 106 41 21
-1.433660 -1.044978 3.640000 111 41 28
-1.449020 -1.049735 3.679000 104 40 35
-1.449020 -1.043294 3.679000 98 43 30
-1.449020 -1.036855 3.679000 104 45 25
-1.449020 -1.030414 3.679000 111 46 31
-1.449020 -1.023974 3.679000 104 44 37
-1.449020 -1.017534 3.679000 97 45 28
-1.449020 -1.011094 3.679000 97 47 18
-1.449020 -1.004654 3.679000 98 46 16
-1.433660 -0.987632 3.640000 99 46 14
-1.449020 -0.991774 3.679000 101 48 16
-1.449020 -0.985334 3.679000 104 46 19
-1.449020 -0.978894 3.679000 107 40 19
-1.449020 -0.972454 3.679000 102 42 19
-1.449020 -0.966013 3.679000 97 45 25
-1.449020 -0.959573 3.679000 94 47 31
-1.449020 -0.953133 3.679000 91 47 36
-1.449020 -0.946693 3.679000 92 47 41
-1.449020 -0.940253 3.679000 94 47 26
-1.449020 -0.933813 3.679000 98 46 11
-1.449020 -0.927373 3.679000 102 47 10
-1.449020 -0.920933 3.679000 106 50 9
-1.449020 -0.914493 3.679000 111 50 12
-1.449020 -0.908053 3.679000 103 49 14
-1.449020 -0.901613 3.679000 95 48 16
-1.449020 -0.895172 3.679000 96 45 19
-1.449020 -0.888732 3.679000 97 43 23
-1.449020 -0.882292 3.679000 97 41 28
-1.449020 -0.875852 3.679000 98 42 22
-1.449020 -0.869412 3.679000 99 44 16
-1.449020 -0.862972 3.679000 101 45 26
-1.449020 -0.856532 3.679000 104 43 36
-1.449020 -0.850092 3.679000 107 45 30
-1.449020 -0.843652 3.679000 103 47 24
-1.449020 -0.837212 3.679000 100 46 21
-1.449020 -0.830772 3.679000 96 45 19
-1.449020 -0.824331 3.679000 92 47 27
-1.449020 -0.817891 3.679000 95 50 35
-1.449020 -0.811451 3.679000 99 47 29
-1.449020 -0.805011 3.679000 99 44 24
-1.433660 -0.790106 3.640000 99 45 23
-1.449020 -0.792131 3.679000 99 46 23
-1.433660 -0.777362 3.640000 100 45 25
-1.433660 -0.770990 3.640000 103 45 27
-1.433660 -0.764618 3.640000 107 43 28
-1.433660 -0.758247 3.640000 106 36 29
-1.449020 -0.759931 3.679000 106 40 26
-1.449020 -0.753490 3.679000 107 42 24
-1.433660 -0.739131 3.640000 108 45 26
-1.433660 -0.732759 3.640000 105 48 28
-1.449020 -0.734170 3.679000 103 48 33
-1.449020 -0.727730 3.679000 102 46 39
-1.449020 -0.721290 3.679000 102 47 33
-1.449020 -0.714850 3.679000 102 46 27
-1.449020 -0.708410 3.679000 103 46 28
-1.449020 -0.701970 3.679000 103 46 29
-1.433660 -0.688157 3.640000 103 45 35
-1.449020 -0.689090 3.679000 102 46 41
-1.433660 -0.675413 3.640000 101 47 44
-1.449020 -0.676209 3.679000 102 45 47
-1.449020 -0.669769 3.679000 104 48 43
-1.449020 -0.663329 3.679000 104 51 40
-1.449020 -0.656889 3.679000 105 51 32
-1.449020 -0.650449 3.679000 109 54 25
-1.449020 -0.644009 3.679000 113 52 25
-1.449020 -0.637569 3.679000 109 51 25
-1.449020 -0.631129 3.679000 105 54 26
-1.449020 -0.624689 3.679000 106 56 28
-1.449020 -0.618249 3.679000 108 53 20
-1.449020 -0.611809 3.679000 112 50 13
-1.449020 -0.605368 3.679000 116 50 18
-1.464381 -0.605277 3.718000 111 49 24
-1.464381 -0.598769 3.718000 106 53 22
-1.449020 -0.586048 3.679000 107 58 20
-1.464381 -0.585752 3.718000 109 56 26
-1.464381 -0.579244 3.718000 108 55 32
-1.464381 -0.572736 3.718000 107 54 34
-1.449020 -0.560288 3.679000 112 56 36
-1.449020 -0.553848 3.679000 118 54 27
-1.449020 -0.547408 3.679000 110 50 19
-1.449020 -0.540968 3.679000 102 50 21
-1.449020 -0.534527 3.679000 105 48 24
-1.449020 -0.528087 3.679000 108 50 27
-1.449020 -0.521647 3.679000 107 50 31
-1.449020 -0.515207 3.679000 107 51 37
-1.449020 -0.508767 3.679000 107 53 43
-1.449020 -0.502327 3.679000 108 54 32
-1.449020 -0.495887 3.679000 113 54 22
-1.464381 -0.494635 3.718000 119 53 25
-1.464381 -0.488127 3.718000 114 55 29
-1.464381 -0.481619 3.718000 110 53 37
-1.464381 -0.475110 3.718000 109 53 45
-1.464381 -0.468602 3.718000 108 55 37
-1.449020 -0.457246 3.679000 108 58 28
-1.449020 -0.450806 3.679000 108 54 36
-1.464381 -0.449077 3.718000 109 50 44
-1.464381 -0.442568 3.718000 110 54 36
-1.464381 -0.436060 3.718000 110 58 28
-1.464381 -0.429552 3.718000 110 56 27
-1.464381 -0.423043 3.718000 113 57 27
-1.464381 -0.416535 3.718000 117 54 34
-1.464381 -0.410027 3.718000 114 53 41
-1.449020 -0.399285 3.679000 112 54 41
-1.449020 -0.392845 3.679000 112 55 42
-1.449020 -0.386405 3.679000 112 60 30
-1.464381 -0.383993 3.718000 112 63 18
-1.449020 -0.373525 3.679000 112 59 31
-1.464381 -0.370976 3.718000 110 56 44
-1.449020 -0.360645 3.679000 109 53 34
-1.449020 -0.354205 3.679000 108 54 25
-1.449020 -0.347765 3.679000 108 57 23
-1.449020 -0.341325 3.679000 109 59 20
-1.449020 -0.334885 3.679000 110 58 20
-1.449020 -0.328445 3.679000 110 57 20
-1.449020 -0.322004 3.679000 111 57 23
-1.449020 -0.315564 3.679000 115 57 26
-1.449020 -0.309124 3.679000 119 58 27
-1.449020 -0.302684 3.679000 114 57 28
-1.449020 -0.296244 3.679000 110 58 31
-1.449020 -0.289804 3.679000 112 58 35
-1.449020 -0.283364 3.679000 114 56 41
-1.464381 -0.279859 3.718000 111 57 47
-1.449020 -0.270484 3.679000 109 58 31
-1.449020 -0.264044 3.679000 109 58 15
-1.449020 -0.257604 3.679000 109 58 14
-1.449020 -0.251163 3.679000 110 55 13
-1.449020 -0.244723 3.679000 111 53 17
-1.449020 -0.238283 3.679000 116 55 20
-1.449020 -0.231843 3.679000 121 54 30
-1.449020 -0.225403 3.679000 116 48 39
-1.449020 -0.218963 3.679000 111 50 36
-1.464381 -0.214776 3.718000 110 53 34
-1.449020 -0.206083 3.679000 110 52 31
-1.449020 -0.199643 3.679000 109 51 29
-1.449020 -0.193203 3.679000 109 55 30
-1.449020 -0.186763 3.679000 108 59 32
-1.449020 -0.180322 3.679000 108 56 33
-1.464381 -0.175726 3.718000 106 55 34
-1.449020 -0.167442 3.679000 105 54 36
-1.449020 -0.161002 3.679000 107 53 38
-1.449020 -0.154562 3.679000 109 54 38
-1.449020 -0.148122 3.679000 114 53 38
-1.449020 -0.141682 3.679000 119 53 29
-1.449020 -0.135242 3.679000 114 50 20
-1.449020 -0.128802 3.679000 109 54 30
-1.464381 -0.123659 3.718000 108 54 41
-1.464381 -0.117150 3.718000 107 53 37
-1.464381 -0.110642 3.718000 114 50 33
-1.464381 -0.104134 3.718000 122 51 36
-1.464381 -0.097625 3.718000 114 54 39
-1.464381 -0.091117 3.718000 107 54 26
-1.464381 -0.084609 3.718000 108 56 14
-1.449020 -0.077281 3.679000 110 55 22
-1.449020 -0.070841 3.679000 108 55 31
-1.449020 -0.064401 3.679000 107 54 32
-1.449020 -0.057961 3.679000 104 49 33
-1.449020 -0.051521 3.679000 102 53 27
-1.449020 -0.045081 3.679000 100 56 21
-1.449020 -0.038641 3.679000 99 56 32
-1.449020 -0.032200 3.679000 102 51 43
-1.449020 -0.025760 3.679000 105 51 37
-1.449020 -0.019320 3.679000 111 49 32
-1.464381 -0.013017 3.718000 118 51 27
-1.464381 -0.006508 3.718000 115 51 23
-1.464381 -0.000000 3.718000 112 52 21
-1.464381 0.006508 3.718000 114 50 20
-1.464381 0.013017 3.718000 117 50 30
-1.464381 0.019525 3.718000 110 48 41
-1.449020 0.025761 3.679000 104 50 38
-1.449020 0.032201 3.679000 103 53 35
-1.449020 0.038641 3.679000 102 54 29
-1.449020 0.045081 3.679000 101 51 24
-1.449020 0.051521 3.679000 100 50 31
-1.464381 0.058575 3.718000 104 50 38
-1.464381 0.065084 3.718000 108 51 30
-1.464381 0.071592 3.718000 111 53 21
-1.464381 0.078100 3.718000 115 54 15
-1.464381 0.084609 3.718000 106 58 9
-1.464381 0.091117 3.718000 97 60 20
-1.464381 0.097625 3.718000 99 60 32
-1.464381 0.104134 3.718000 102 57 31
-1.464381 0.110642 3.718000 104 53 30
-1.464381 0.117151 3.718000 106 55 30
-1.464381 0.123659 3.718000 106 57 31
-1.464381 0.130167 3.718000 106 55 29
-1.464381 0.136676 3.718000 106 52 26
-1.464381 0.143184 3.718000 106 52 27
-1.464381 0.149692 3.718000 107 52 27
-1.464381 0.156201 3.718000 108 52 26
-1.464381 0.162709 3.718000 106 54 25
-1.464381 0.169217 3.718000 105 55 22
-1.464381 0.175726 3.718000 105 54 19
-1.464381 0.182234 3.718000 106 52 20
-1.464381 0.188743 3.718000 110 50 21
-1.480529 0.197404 3.759000 114 49 24
-1.480529 0.203984 3.759000 104 48 28
-1.464381 0.208268 3.718000 94 53 35
-1.464381 0.214776 3.718000 98 57 41
-1.464381 0.221284 3.718000 102 55 24
-1.464381 0.227793 3.718000 104 53 6
-1.464381 0.234301 3.718000 106 53 12
-1.449020 0.238283 3.679000 105 51 18
-1.449020 0.244724 3.679000 104 51 22
-1.449020 0.251164 3.679000 103 53 27
-1.464381 0.260335 3.718000 103 55 24
-1.464381 0.266843 3.718000 110 54 22
-1.464381 0.273351 3.718000 117 54 24
-1.464381 0.279859 3.718000 111 54 27
-1.464381 0.286368 3.718000 105 51 30
-1.464381 0.292876 3.718000 105 51 33
-1.464381 0.299385 3.718000 106 49 34
-1.464381 0.305893 3.718000 105 44 36
-1.464381 0.312401 3.718000 105 43 43
-1.464381 0.318910 3.718000 104 41 51
-1.464381 0.325418 3.718000 103 45 42
-1.464381 0.331926 3.718000 104 48 32
-1.449020 0.334885 3.679000 106 49 22
-1.464381 0.344943 3.718000 105 51 12
-1.464381 0.351451 3.718000 105 52 17
-1.449020 0.354205 3.679000 106 58 23
-1.449020 0.360645 3.679000 108 54 19
-1.449020 0.367085 3.679000 113 53 15
-1.449020 0.373525 3.679000 119 48 19
-1.449020 0.379965 3.679000 112 43 23
-1.449020 0.386406 3.679000 105 47 33
-1.449020 0.392846 3.679000 102 50 42
-1.449020 0.399286 3.679000 100 48 28
-1.449020 0.405726 3.679000 102 49 13
-1.464381 0.416535 3.718000 104 50 25
-1.464381 0.423043 3.718000 104 48 37
-1.464381 0.429552 3.718000 105 47 32
-1.464381 0.436060 3.718000 103 48 27
-1.464381 0.442569 3.718000 101 49 29
-1.464381 0.449077 3.718000 101 45 32
-1.464381 0.455585 3.718000 101 44 33
-1.464381 0.462094 3.718000 102 44 35
-1.464381 0.468602 3.718000 104 45 27
-1.464381 0.475110 3.718000 103 45 19
-1.449020 0.476567 3.679000 102 46 19
-1.449020 0.483007 3.679000 106 44 19
-1.449020 0.489447 3.679000 110 44 23
-1.449020 0.495887 3.679000 104 45 27
-1.449020 0.502327 3.679000 99 46 19
-1.449020 0.508767 3.679000 98 46 11
-1.449020 0.515207 3.679000 98 45 16
-1.449020 0.521647 3.679000 100 42 20
-1.449020 0.528087 3.679000 102 42 30
-1.464381 0.540194 3.718000 106 42 40
-1.464381 0.546702 3.718000 111 42 29
-1.464381 0.553211 3.718000 104 42 19
-1.464381 0.559719 3.718000 98 44 23
-1.464381 0.566227 3.718000 98 46 27
-1.464381 0.572736 3.718000 98 41 19
-1.449020 0.573168 3.679000 99 37 12
-1.464381 0.585753 3.718000 100 43 16
-1.464381 0.592261 3.718000 99 46 21
-1.464381 0.598769 3.718000 98 44 16
-1.449020 0.598928 3.679000 98 45 11
-1.449020 0.605369 3.679000 98 44 27
-1.449020 0.611809 3.679000 104 42 44
-1.449020 0.618249 3.679000 111 44 31
-1.449020 0.624689 3.679000 94 42 17
-1.449020 0.631129 3.679000 77 23 13
-1.449020 0.637569 3.679000 45 12 9
-1.449020 0.644009 3.679000 14 10 13
-1.449020 0.650449 3.679000 18 5 17
-1.449020 0.656889 3.679000 22 7 19
-1.144171 0.696673 2.905000 75 42 29
-1.134718 0.695960 2.881000 77 41 34
-1.125265 0.695164 2.857000 78 38 40
-1.125265 0.700165 2.857000 79 39 48
-1.125265 0.705166 2.857000 81 43 57
-1.116206 0.704450 2.834000 84 39 52
-1.116206 0.709411 2.834000 80 35 47
-1.106754 0.708323 2.810000 77 37 48
-1.098089 0.707657 2.788000 79 40 49
-1.080365 0.701037 2.743000 82 37 46
-1.072094 0.700435 2.722000 82 32 43
-1.055552 0.694319 2.680000 82 37 44
-1.055552 0.699010 2.680000 85 39 46
-1.055552 0.703701 2.680000 89 38 52
-1.055552 0.708392 2.680000 85 33 59
-1.047280 0.707496 2.659000 82 38 46
-1.031526 0.701438 2.619000 80 45 34
-1.016165 0.695509 2.580000 78 44 28
-0.993715 0.684559 2.523000 77 41 22
-0.986626 0.684061 2.505000 77 43 39
-0.979536 0.683499 2.487000 76 47 57
-0.972447 0.682874 2.469000 76 46 47
-0.965357 0.682186 2.451000 76 44 37
-0.958661 0.681715 2.434000 76 41 42
-0.958661 0.685976 2.434000 76 40 47
-0.951966 0.685415 2.417000 77 41 54
-0.951966 0.689646 2.417000 77 39 61
-0.938968 0.684404 2.384000 77 41 55
-0.932273 0.683667 2.367000 79 43 50
-0.925971 0.683161 2.351000 81 43 49
-0.919669 0.682599 2.335000 83 39 47
-0.913761 0.682275 2.320000 85 38 45
-0.901551 0.677165 2.289000 81 34 43
-0.895643 0.676708 2.274000 78 42 43
-0.889735 0.676199 2.259000 79 47 44
-0.883828 0.675637 2.244000 80 46 52
-0.878313 0.675325 2.230000 79 45 60
-0.872406 0.674660 2.215000 78 45 56
-0.872406 0.678538 2.215000 78 42 52
-0.866891 0.678102 2.201000 79 43 56
-0.861377 0.677617 2.187000 79 43 61
-0.861377 0.681445 2.187000 79 46 60
-0.856257 0.681200 2.174000 79 49 60
-0.845623 0.676498 2.147000 80 46 65
-0.834989 0.671702 2.120000 82 42 71
-0.829868 0.671271 2.107000 84 42 67
-0.820022 0.666951 2.082000 81 43 64
-0.814902 0.666408 2.069000 79 46 68
-0.814902 0.670030 2.069000 84 47 73
-0.810175 0.669745 2.057000 90 47 60
-0.805449 0.669418 2.045000 84 45 48
-0.800722 0.669048 2.033000 79 46 56
-0.786937 0.661027 1.998000 78 44 63
-0.786937 0.664525 1.998000 77 51 61
-0.782211 0.664010 1.986000 78 53 59
-0.777879 0.663790 1.975000 80 49 65
-0.777879 0.667247 1.975000 85 47 70
-0.768820 0.662893 1.952000 90 44 68
-0.768820 0.666310 1.952000 86 42 66
-0.764487 0.665953 1.941000 83 43 63
-0.760549 0.665903 1.931000 85 42 61
-0.751884 0.661658 1.909000 87 42 67
-0.751884 0.664999 1.909000 83 44 73
-0.747945 0.664840 1.899000 80 44 63
-0.747945 0.668164 1.899000 79 45 53
-0.743613 0.667599 1.888000 78 49 54
-0.739674 0.667350 1.878000 79 51 55
-0.735735 0.667067 1.868000 80 51 56
-0.731797 0.666748 1.858000 82 53 56
-0.727858 0.666394 1.848000 84 50 60
-0.719981 0.662382 1.828000 87 46 64
-0.712497 0.658664 1.809000 91 45 69
-0.708953 0.658538 1.800000 84 45 75
-0.705014 0.658013 1.790000 77 49 74
-0.701469 0.657822 1.781000 77 51 73
-0.697924 0.657600 1.772000 77 48 66
-0.697924 0.660702 1.772000 79 42 60
-0.690835 0.657061 1.754000 82 42 66
-0.687290 0.656744 1.745000 86 43 73
-0.687290 0.659799 1.745000 91 46 68
-0.683745 0.659435 1.736000 86 52 63
-0.680594 0.659420 1.728000 82 50 68
-0.677050 0.658995 1.719000 82 49 74
-0.673899 0.658923 1.711000 83 49 60
-0.670354 0.658437 1.702000 88 54 47
-0.667203 0.658307 1.694000 94 49 59
-0.664052 0.658150 1.686000 89 44 70
-1.442580 -1.429700 3.679000 88 41 9
-1.457873 -1.438348 3.718000 88 39 17
-1.457873 -1.431839 3.718000 89 39 21
-1.457873 -1.425331 3.718000 90 30 26
-1.457873 -1.418822 3.718000 91 24 14
-1.457873 -1.412314 3.718000 89 31 2
-1.457873 -1.405806 3.718000 87 38 7
-1.457873 -1.399297 3.718000 87 36 13
-1.457873 -1.392789 3.718000 87 35 14
-1.457873 -1.386281 3.718000 87 36 15
-1.457873 -1.379772 3.718000 87 35 21
-1.457873 -1.373264 3.718000 90 36 28
-1.457873 -1.366756 3.718000 93 37 18
-1.457873 -1.360247 3.718000 88 38 9
-1.457873 -1.353739 3.718000 83 37 5
-1.473949 -1.362087 3.759000 84 30 1
-1.457873 -1.340722 3.718000 86 26 9
-1.457873 -1.334214 3.718000 88 30 18
-1.457873 -1.327705 3.718000 91 34 24
-1.457873 -1.321197 3.718000 91 41 30
-1.457873 -1.314689 3.718000 92 43 39
-1.457873 -1.308180 3.718000 96 42 48
-1.457873 -1.301672 3.718000 100 42 41
-1.457873 -1.295164 3.718000 96 39 34
-1.457873 -1.288655 3.718000 92 39 42
-1.457873 -1.282147 3.718000 91 40 50
-1.457873 -1.275638 3.718000 90 41 38
-1.457873 -1.269130 3.718000 89 44 27
-1.457873 -1.262622 3.718000 88 47 22
-1.457873 -1.256113 3.718000 89 45 17
-1.457873 -1.249605 3.718000 90 46 20
-1.442580 -1.230057 3.679000 90 45 24
-1.442580 -1.223617 3.679000 91 47 19
-1.442580 -1.217177 3.679000 95 45 14
-1.442580 -1.210737 3.679000 100 45 14
-1.442580 -1.204297 3.679000 98 45 14
-1.442580 -1.197857 3.679000 97 46 18
-1.442580 -1.191417 3.679000 95 42 23
-1.442580 -1.184977 3.679000 93 43 22
-1.442580 -1.178537 3.679000 93 41 21
-1.442580 -1.172096 3.679000 94 40 21
-1.442580 -1.165656 3.679000 94 40 21
-1.442580 -1.159216 3.679000 95 41 22
-1.442580 -1.152776 3.679000 97 42 23
-1.442580 -1.146336 3.679000 99 43 21
-1.442580 -1.139896 3.679000 95 45 20
-1.442580 -1.133456 3.679000 91 47 17
-1.442580 -1.127016 3.679000 94 43 14
-1.442580 -1.120576 3.679000 97 38 19
-1.442580 -1.114136 3.679000 96 42 24
-1.442580 -1.107695 3.679000 96 46 25
-1.442580 -1.101255 3.679000 93 44 26
-1.442580 -1.094815 3.679000 91 42 32
-1.442580 -1.088375 3.679000 95 42 39
-1.442580 -1.081935 3.679000 98 40 35
-1.442580 -1.075495 3.679000 98 40 31
-1.442580 -1.069055 3.679000 98 45 21
-1.442580 -1.062615 3.679000 100 42 12
-1.442580 -1.056175 3.679000 102 43 17
-1.442580 -1.049735 3.679000 99 42 23
-1.442580 -1.043294 3.679000 95 42 20
-1.442580 -1.036855 3.679000 99 44 17
-1.442580 -1.030414 3.679000 103 46 17
-1.442580 -1.023974 3.679000 98 47 17
-1.442580 -1.017534 3.679000 93 48 15
-1.442580 -1.011094 3.679000 94 48 13
-1.442580 -1.004654 3.679000 96 47 12
-1.427288 -0.987632 3.640000 97 48 11
-1.442580 -0.991774 3.679000 98 51 12
-1.442580 -0.985334 3.679000 100 44 14
-1.442580 -0.978894 3.679000 102 36 15
-1.442580 -0.972454 3.679000 99 41 17
-1.442580 -0.966013 3.679000 96 47 22
-1.442580 -0.959573 3.679000 96 47 27
-1.442580 -0.953133 3.679000 97 46 23
-1.442580 -0.946693 3.679000 96 47 20
-1.442580 -0.940253 3.679000 95 51 15
-1.442580 -0.933813 3.679000 97 47 10
-1.442580 -0.927373 3.679000 99 46 8
-1.442580 -0.920933 3.679000 101 48 6
-1.442580 -0.914493 3.679000 103 50 9
-1.442580 -0.908053 3.679000 99 49 12
-1.442580 -0.901613 3.679000 94 48 16
-1.442580 -0.895172 3.679000 95 46 21
-1.442580 -0.888732 3.679000 96 44 23
-1.442580 -0.882292 3.679000 96 43 26
-1.442580 -0.875852 3.679000 97 45 16
-1.442580 -0.869412 3.679000 98 46 7
-1.442580 -0.862972 3.679000 99 47 18
-1.457873 -0.865612 3.718000 101 46 30
-1.457873 -0.859103 3.718000 102 47 25
-1.457873 -0.852595 3.718000 100 48 21
-1.457873 -0.846087 3.718000 99 50 23
-1.457873 -0.839578 3.718000 96 47 26
-1.457873 -0.833070 3.718000 94 46 30
-1.457873 -0.826562 3.718000 98 47 34
-1.442580 -0.811451 3.679000 101 46 29
-1.442580 -0.805011 3.679000 100 45 24
-1.442580 -0.798571 3.679000 98 45 22
-1.457873 -0.800528 3.718000 98 45 21
-1.442580 -0.785691 3.679000 99 44 21
-1.442580 -0.779251 3.679000 102 47 21
-1.442580 -0.772811 3.679000 105 51 23
-1.442580 -0.766371 3.679000 104 44 26
-1.442580 -0.759931 3.679000 104 43 20
-1.442580 -0.753490 3.679000 104 44 14
-1.427288 -0.739131 3.640000 104 47 20
-1.427288 -0.732759 3.640000 103 48 27
-1.442580 -0.734170 3.679000 102 49 30
-1.442580 -0.727730 3.679000 101 49 34
-1.442580 -0.721290 3.679000 101 51 28
-1.442580 -0.714850 3.679000 101 47 23
-1.442580 -0.708410 3.679000 101 45 24
-1.442580 -0.701970 3.679000 101 46 25
-1.442580 -0.695530 3.679000 100 48 31
-1.442580 -0.689090 3.679000 100 49 37
-1.442580 -0.682649 3.679000 100 52 37
-1.442580 -0.676209 3.679000 100 50 38
-1.442580 -0.669769 3.679000 100 53 37
-1.442580 -0.663329 3.679000 101 52 36
-1.442580 -0.656889 3.679000 102 51 28
-1.442580 -0.650449 3.679000 104 53 20
-1.442580 -0.644009 3.679000 107 54 23
-1.442580 -0.637569 3.679000 105 53 26
-1.442580 -0.631129 3.679000 103 53 25
-1.442580 -0.624689 3.679000 104 53 25
-1.442580 -0.618249 3.679000 104 54 13
-1.442580 -0.611809 3.679000 106 51 2
-1.442580 -0.605368 3.679000 109 51 13
-1.457873 -0.605277 3.718000 107 53 24
-1.457873 -0.598769 3.718000 106 53 25
-1.442580 -0.586048 3.679000 108 53 27
-1.457873 -0.585752 3.718000 111 53 26
-1.442580 -0.573168 3.679000 109 52 26
-1.442580 -0.566728 3.679000 107 51 20
-1.442580 -0.560288 3.679000 109 51 14
-1.442580 -0.553848 3.679000 112 50 15
-1.442580 -0.547408 3.679000 108 53 17
-1.442580 -0.540968 3.679000 104 55 21
-1.442580 -0.534527 3.679000 105 52 25
-1.442580 -0.528087 3.679000 106 54 22
-1.442580 -0.521647 3.679000 106 52 20
-1.442580 -0.515207 3.679000 106 51 20
-1.442580 -0.508767 3.679000 106 52 21
-1.442580 -0.502327 3.679000 107 53 14
-1.442580 -0.495887 3.679000 110 51 7
-1.457873 -0.494635 3.718000 114 53 19
-1.457873 -0.488127 3.718000 111 53 32
-1.457873 -0.481619 3.718000 109 51 43
-1.457873 -0.475110 3.718000 107 53 54
-1.457873 -0.468602 3.718000 106 56 42
-1.457873 -0.462093 3.718000 105 55 30
-1.457873 -0.455585 3.718000 104 54 33
-1.457873 -0.449077 3.718000 105 53 36
-1.457873 -0.442568 3.718000 107 56 35
-1.457873 -0.436060 3.718000 107 55 34
-1.457873 -0.429552 3.718000 107 56 30
-1.457873 -0.423043 3.718000 109 56 27
-1.457873 -0.416535 3.718000 112 53 35
-1.457873 -0.410027 3.718000 112 53 44
-1.457873 -0.403518 3.718000 111 54 39
-1.457873 -0.397010 3.718000 112 56 34
-1.457873 -0.390501 3.718000 113 59 30
-1.457873 -0.383993 3.718000 114 59 26
-1.457873 -0.377485 3.718000 116 57 28
-1.457873 -0.370976 3.718000 113 56 30
-1.457873 -0.364468 3.718000 111 54 25
-1.442580 -0.354205 3.679000 110 55 20
-1.457873 -0.351451 3.718000 109 57 17
-1.442580 -0.341325 3.679000 109 57 15
-1.457873 -0.338435 3.718000 110 59 14
-1.442580 -0.328445 3.679000 108 57 14
-1.442580 -0.322004 3.679000 106 58 20
-1.442580 -0.315564 3.679000 110 58 27
-1.442580 -0.309124 3.679000 114 56 26
-1.442580 -0.302684 3.679000 112 57 26
-1.457873 -0.299384 3.718000 109 60 32
-1.457873 -0.292876 3.718000 110 57 38
-1.457873 -0.286368 3.718000 110 55 48
-1.457873 -0.279859 3.718000 107 57 58
-1.457873 -0.273351 3.718000 105 59 36
-1.442580 -0.264044 3.679000 107 60 14
-1.457873 -0.260334 3.718000 110 62 14
-1.457873 -0.253826 3.718000 110 55 14
-1.457873 -0.247318 3.718000 110 50 20
-1.457873 -0.240809 3.718000 112 54 26
-1.457873 -0.234301 3.718000 115 58 36
-1.457873 -0.227793 3.718000 112 51 47
-1.457873 -0.221284 3.718000 109 49 36
-1.457873 -0.214776 3.718000 109 52 26
-1.457873 -0.208267 3.718000 110 55 25
-1.457873 -0.201759 3.718000 108 52 25
-1.457873 -0.195251 3.718000 107 54 17
-1.457873 -0.188742 3.718000 107 56 10
-1.457873 -0.182234 3.718000 107 56 20
-1.457873 -0.175726 3.718000 105 55 30
-1.442580 -0.167442 3.679000 104 53 36
-1.457873 -0.162709 3.718000 105 55 42
-1.457873 -0.156201 3.718000 107 57 36
-1.442580 -0.148122 3.679000 108 55 30
-1.442580 -0.141682 3.679000 108 55 22
-1.457873 -0.136676 3.718000 108 54 15
-1.442580 -0.128802 3.679000 108 57 19
-1.457873 -0.123659 3.718000 108 55 24
-1.457873 -0.117150 3.718000 108 54 25
-1.457873 -0.110642 3.718000 112 51 26
-1.457873 -0.104134 3.718000 115 48 29
-1.457873 -0.097625 3.718000 109 50 33
-1.457873 -0.091117 3.718000 104 50 21
-1.457873 -0.084609 3.718000 108 52 9
-1.457873 -0.078100 3.718000 113 51 26
-1.442580 -0.070841 3.679000 110 54 43
-1.442580 -0.064401 3.679000 107 55 36
-1.442580 -0.057961 3.679000 105 52 30
-1.442580 -0.051521 3.679000 103 54 21
-1.442580 -0.045081 3.679000 103 58 12
-1.442580 -0.038641 3.679000 102 63 33
-1.442580 -0.032200 3.679000 104 55 54
-1.442580 -0.025760 3.679000 105 52 44
-1.457873 -0.019525 3.718000 109 52 34
-1.457873 -0.013017 3.718000 113 53 27
-1.457873 -0.006508 3.718000 111 51 21
-1.457873 -0.000000 3.718000 110 50 20
-1.457873 0.006508 3.718000 112 49 19
-1.457873 0.013017 3.718000 113 51 25
-1.457873 0.019525 3.718000 109 49 32
-1.457873 0.026034 3.718000 106 50 33
-1.457873 0.032542 3.718000 105 54 34
-1.457873 0.039050 3.718000 104 56 25
-1.457873 0.045559 3.718000 103 53 17
-1.457873 0.052067 3.718000 102 50 20
-1.457873 0.058575 3.718000 105 51 24
-1.457873 0.065084 3.718000 108 51 20
-1.457873 0.071592 3.718000 110 51 17
-1.457873 0.078100 3.718000 111 51 9
-1.457873 0.084609 3.718000 106 58 1
-1.473949 0.092122 3.759000 101 66 8
-1.473949 0.098702 3.759000 103 61 15
-1.473949 0.105282 3.759000 105 59 24
-1.473949 0.111862 3.759000 105 54 34
-1.473949 0.118442 3.759000 106 52 40
-1.473949 0.125023 3.759000 106 55 46
-1.473949 0.131603 3.759000 105 59 37
