ply
format ascii 1.0
element vertex 1226
property float x
property float y
property float z
property uchar red
property uchar green
property uchar blue
end_header
0.281207 0.690236 2.434000 221 194 243
0.277279 0.684796 2.400000 225 204 240
0.275431 0.684404 2.384000 229 212 243
0.273467 0.683667 2.367000 228 210 247
0.271618 0.683161 2.351000 227 206 246
0.271618 0.687276 2.351000 223 203 245
0.269770 0.686686 2.335000 218 196 235
0.268037 0.686336 2.320000 200 153 225
0.266188 0.685636 2.304000 182 143 227
0.264455 0.685179 2.289000 202 183 229
0.262722 0.684670 2.274000 222 211 238
0.260989 0.684108 2.259000 223 206 247
0.259256 0.683493 2.244000 223 204 243
0.257639 0.683133 2.230000 221 203 239
0.254288 0.678102 2.201000 219 197 240
0.252671 0.677617 2.187000 221 205 242
0.251169 0.677395 2.174000 222 208 242
0.249551 0.676813 2.160000 224 204 242
0.248049 0.676498 2.147000 225 202 242
0.246432 0.675821 2.133000 223 204 242
0.246432 0.679555 2.133000 222 205 242
0.244930 0.679124 2.120000 220 203 242
0.243428 0.678648 2.107000 218 205 242
0.243428 0.682336 2.107000 220 205 242
0.242042 0.682117 2.095000 222 201 243
0.239038 0.677274 2.069000 220 199 244
0.237651 0.676947 2.057000 218 198 243
0.237651 0.680547 2.057000 217 195 242
0.234879 0.676166 2.033000 217 190 241
0.233492 0.675712 2.021000 217 192 241
0.232106 0.675217 2.009000 217 193 241
0.230835 0.675017 1.998000 218 196 241
0.229449 0.674440 1.986000 219 198 242
0.226907 0.670407 1.964000 217 198 243
0.224250 0.665953 1.941000 214 191 242
0.223094 0.665903 1.931000 213 192 241
0.223094 0.669283 1.931000 212 194 241
0.223094 0.672663 1.931000 212 196 242
0.221823 0.672192 1.920000 212 193 241
0.219397 0.668164 1.899000 215 192 241
0.218126 0.667599 1.888000 219 191 242
0.218126 0.670904 1.888000 217 198 243
0.215816 0.667067 1.868000 215 202 243
0.214660 0.666748 1.858000 214 196 244
0.213505 0.666394 1.848000 213 193 243
0.213505 0.669629 1.848000 212 192 243
0.212350 0.669223 1.838000 211 185 243
0.208999 0.661831 1.809000 213 197 244
0.208999 0.664998 1.809000 216 197 243
0.206804 0.661146 1.790000 215 195 243
0.205764 0.660940 1.781000 214 197 243
0.204725 0.660702 1.772000 213 193 243
0.204725 0.663804 1.772000 212 190 243
0.203685 0.663518 1.763000 213 194 243
0.203685 0.666605 1.763000 213 196 244
0.201605 0.662853 1.745000 216 190 245
0.200565 0.662473 1.736000 219 186 245
0.198601 0.658995 1.719000 217 196 245
0.197677 0.658923 1.711000 215 196 243
0.197677 0.661918 1.711000 213 194 242
0.413776 0.741092 3.528000 224 196 224
0.409671 0.739854 3.493000 225 201 228
0.409671 0.745969 3.493000 227 202 230
0.386215 0.732078 3.293000 226 203 240
0.382579 0.730897 3.262000 227 203 240
0.382579 0.736607 3.262000 226 201 241
0.382579 0.742317 3.262000 226 201 240
0.378943 0.740919 3.231000 225 201 239
0.375424 0.739642 3.201000 224 200 237
0.358770 0.712186 3.059000 224 199 235
0.358770 0.717541 3.059000 225 199 238
0.355721 0.716751 3.033000 223 198 240
0.355721 0.722060 3.033000 222 200 238
0.355721 0.727370 3.033000 220 202 236
0.352554 0.726157 3.006000 219 196 235
0.343641 0.712926 2.930000 219 192 234
0.340709 0.711928 2.905000 220 194 234
0.337894 0.711090 2.881000 219 194 235
0.332381 0.704450 2.834000 219 194 237
0.329567 0.703404 2.810000 221 195 240
0.326986 0.702777 2.788000 224 197 239
0.324289 0.701819 2.765000 223 204 238
0.324289 0.706660 2.765000 223 194 240
0.321709 0.705838 2.743000 222 194 241
0.321709 0.710640 2.743000 221 197 240
0.319246 0.709964 2.722000 220 211 239
0.316783 0.709215 2.701000 219 203 239
0.309511 0.697555 2.639000 227 211 239
0.307165 0.696853 2.619000 235 209 240
0.304820 0.696081 2.599000 230 213 242
0.302591 0.695509 2.580000 225 204 242
0.302591 0.700025 2.580000 225 202 242
0.300246 0.699080 2.560000 225 203 241
0.298135 0.698614 2.542000 225 202 241
0.298135 0.703064 2.542000 226 203 242
0.295906 0.702226 2.523000 229 207 242
0.291684 0.696559 2.487000 232 207 243
0.289573 0.695840 2.469000 225 206 244
0.285468 0.690236 2.434000 218 202 242
0.281480 0.684796 2.400000 224 204 240
0.279604 0.684404 2.384000 231 208 242
0.277610 0.683667 2.367000 229 209 244
0.275734 0.683161 2.351000 228 205 245
0.275734 0.687276 2.351000 222 205 245
0.273857 0.686686 2.335000 216 187 236
0.272098 0.686336 2.320000 198 132 228
0.270221 0.685636 2.304000 180 156 230
0.268462 0.685179 2.289000 202 186 233
0.266703 0.684670 2.274000 224 199 239
0.264943 0.684108 2.259000 225 210 245
0.263184 0.683493 2.244000 227 207 243
0.263184 0.687422 2.244000 223 206 240
0.258141 0.678102 2.201000 220 203 241
0.256499 0.677617 2.187000 222 208 243
0.254974 0.677395 2.174000 224 207 242
0.253332 0.676813 2.160000 227 203 241
0.251808 0.676498 2.147000 231 203 242
0.250166 0.675821 2.133000 229 204 242
0.250166 0.679555 2.133000 227 204 242
0.250166 0.683289 2.133000 223 202 241
0.248641 0.682835 2.120000 220 204 241
0.247116 0.682336 2.107000 223 205 242
0.245709 0.682117 2.095000 226 203 242
0.242660 0.677274 2.069000 222 202 243
0.241252 0.676947 2.057000 219 199 242
0.241252 0.680547 2.057000 218 199 242
0.237030 0.672175 2.021000 218 193 242
0.237030 0.675712 2.021000 218 191 242
0.235623 0.675217 2.009000 218 194 243
0.234332 0.675017 1.998000 217 196 243
0.232925 0.674440 1.986000 216 196 243
0.228937 0.666310 1.952000 215 195 243
0.227647 0.665953 1.941000 214 194 242
0.226474 0.665903 1.931000 213 192 241
0.226474 0.669283 1.931000 213 198 241
0.225184 0.668831 1.920000 213 203 242
0.223894 0.668341 1.909000 213 194 241
0.222721 0.668164 1.899000 218 191 241
0.221431 0.667599 1.888000 223 194 240
0.220258 0.667350 1.878000 220 201 240
0.219086 0.667067 1.868000 217 200 241
0.217913 0.666748 1.858000 215 201 243
0.216740 0.666394 1.848000 214 198 242
0.216740 0.669629 1.848000 211 200 242
0.215567 0.669223 1.838000 208 198 242
0.213339 0.665489 1.819000 212 211 243
0.212166 0.664998 1.809000 217 199 242
0.209937 0.661146 1.790000 217 192 242
0.208882 0.660940 1.781000 218 195 242
0.207826 0.660702 1.772000 216 196 243
0.207826 0.663804 1.772000 214 194 242
0.206771 0.663518 1.763000 215 198 241
0.205715 0.663202 1.754000 216 193 241
0.204660 0.662853 1.745000 217 189 241
0.203604 0.662473 1.736000 218 194 242
0.201610 0.658995 1.719000 216 198 244
0.200672 0.658923 1.711000 214 195 243
0.200672 0.661918 1.711000 211 194 242
0.388289 0.725187 3.262000 228 205 240
0.388289 0.730897 3.262000 228 207 241
0.388289 0.736607 3.262000 228 203 242
0.384599 0.735263 3.231000 228 202 244
0.381028 0.734039 3.201000 228 201 246
0.361030 0.722060 3.033000 224 200 240
0.361030 0.727370 3.033000 220 198 239
0.357816 0.726157 3.006000 216 193 238
0.348770 0.712926 2.930000 219 195 237
0.345794 0.711928 2.905000 221 197 237
0.342937 0.711090 2.881000 221 194 238
0.337342 0.704450 2.834000 221 195 242
0.334486 0.703404 2.810000 222 196 246
0.331867 0.702777 2.788000 224 199 242
0.329129 0.701819 2.765000 224 199 239
0.326510 0.701037 2.743000 224 195 239
0.326510 0.705838 2.743000 221 195 239
0.324011 0.705200 2.722000 218 194 238
0.324011 0.709964 2.722000 219 199 238
0.321511 0.709215 2.701000 220 194 239
0.314131 0.697555 2.639000 225 202 241
0.309369 0.691532 2.599000 230 204 242
0.309369 0.696081 2.599000 228 206 243
0.307108 0.695509 2.580000 225 204 243
0.304727 0.694599 2.560000 227 204 243
0.304727 0.699080 2.560000 229 207 243
0.302584 0.698614 2.542000 228 202 244
0.300323 0.697809 2.523000 226 198 243
0.298180 0.697216 2.505000 230 204 243
0.296038 0.696559 2.487000 233 207 242
0.293895 0.695840 2.469000 228 207 242
0.289729 0.690236 2.434000 222 207 241
0.285682 0.684796 2.400000 226 208 240
0.283777 0.684404 2.384000 230 209 241
0.283777 0.688577 2.384000 229 207 242
0.281753 0.687810 2.367000 228 202 244
0.279849 0.687276 2.351000 223 208 246
0.277944 0.686686 2.335000 218 215 238
0.276159 0.686336 2.320000 199 167 231
0.274254 0.685636 2.304000 181 166 234
0.272469 0.685179 2.289000 202 180 238
0.268898 0.680153 2.259000 223 190 241
0.267112 0.679565 2.244000 223 203 244
0.267112 0.683493 2.244000 224 208 243
0.265446 0.683133 2.230000 222 204 242
0.261994 0.678102 2.201000 221 201 243
0.260327 0.677617 2.187000 222 207 244
0.258780 0.677395 2.174000 224 209 242
0.257113 0.676813 2.160000 226 206 241
0.255566 0.676498 2.147000 228 206 242
0.255566 0.680257 2.147000 227 207 243
0.255566 0.684015 2.147000 225 205 242
0.253900 0.683289 2.133000 221 202 241
0.252352 0.682835 2.120000 217 204 241
0.250805 0.682336 2.107000 220 205 242
0.249376 0.682117 2.095000 223 207 242
0.246281 0.677274 2.069000 220 204 243
0.244853 0.676947 2.057000 218 198 242
0.244853 0.680547 2.057000 217 196 242
0.241996 0.676166 2.033000 216 195 243
0.240568 0.675712 2.021000 217 194 244
0.239139 0.675217 2.009000 218 197 245
0.238425 0.676707 2.003000 217 197 246
0.236402 0.674440 1.986000 217 196 245
0.233783 0.670407 1.964000 216 197 244
0.232354 0.669727 1.952000 216 199 242
0.231045 0.669351 1.941000 215 199 241
0.229855 0.669283 1.931000 214 204 242
0.228545 0.668831 1.920000 213 201 243
0.227236 0.668341 1.909000 213 192 242
0.226046 0.668164 1.899000 216 193 241
0.224736 0.667599 1.888000 220 195 239
0.224736 0.670904 1.888000 216 198 237
0.222355 0.667067 1.868000 212 199 240
0.221165 0.666748 1.858000 213 199 243
0.219975 0.666394 1.848000 214 200 242
0.219975 0.669629 1.848000 212 197 241
0.216523 0.662305 1.819000 211 197 242
0.216523 0.665489 1.819000 214 202 243
0.215333 0.664998 1.809000 217 196 242
0.213071 0.661146 1.790000 217 195 241
0.212000 0.660940 1.781000 217 198 242
0.210928 0.660702 1.772000 213 197 243
0.210928 0.663804 1.772000 209 193 241
0.209857 0.663518 1.763000 214 194 240
0.208786 0.663202 1.754000 220 192 239
0.207714 0.662853 1.745000 218 195 238
0.206643 0.662473 1.736000 217 203 240
0.204619 0.658995 1.719000 216 199 243
0.203667 0.658923 1.711000 215 192 242
0.203667 0.661918 1.711000 215 197 242
0.393999 0.730897 3.262000 229 205 240
0.393999 0.736607 3.262000 229 205 239
0.366339 0.722060 3.033000 226 198 242
0.366339 0.727370 3.033000 220 200 241
0.359938 0.719876 2.980000 214 198 239
0.353899 0.712926 2.930000 218 200 238
0.350879 0.711928 2.905000 223 194 239
0.347980 0.711090 2.881000 223 191 240
0.345081 0.710167 2.857000 223 193 242
0.339404 0.703404 2.810000 224 195 244
0.336747 0.702777 2.788000 225 197 242
0.333969 0.701819 2.765000 225 200 240
0.333969 0.706660 2.765000 225 198 239
0.331312 0.705838 2.743000 220 197 239
0.331312 0.710640 2.743000 216 197 239
0.328775 0.709964 2.722000 218 197 239
0.328775 0.714729 2.722000 221 198 240
0.318750 0.697555 2.639000 223 201 242
0.313919 0.691532 2.599000 226 203 242
0.311624 0.690992 2.580000 226 204 242
0.311624 0.695509 2.580000 226 204 242
0.309208 0.694599 2.560000 230 205 243
0.309208 0.699080 2.560000 234 204 243
0.307034 0.698614 2.542000 230 202 243
0.304739 0.697809 2.523000 227 200 242
0.300391 0.692206 2.487000 231 204 242
0.298217 0.691518 2.469000 235 207 242
0.296043 0.690767 2.451000 231 208 241
0.293989 0.690236 2.434000 227 206 241
0.289883 0.684796 2.400000 228 212 240
0.287950 0.684404 2.384000 229 211 241
0.285897 0.683667 2.367000 228 211 243
0.285897 0.687810 2.367000 228 209 244
0.283964 0.687276 2.351000 224 213 246
0.282032 0.686686 2.335000 221 200 239
0.280220 0.686336 2.320000 201 155 232
0.278288 0.685636 2.304000 182 166 231
0.274664 0.680689 2.274000 202 180 230
0.272852 0.680153 2.259000 222 195 237
0.271040 0.679565 2.244000 221 207 244
0.271040 0.683493 2.244000 221 203 242
0.271040 0.687422 2.244000 221 204 241
0.267538 0.682415 2.215000 222 205 242
0.264156 0.677617 2.187000 223 210 243
0.262585 0.677395 2.174000 225 208 242
0.260895 0.676813 2.160000 225 206 241
0.259324 0.676498 2.147000 226 207 242
0.257633 0.675821 2.133000 225 215 243
0.257633 0.679555 2.133000 224 206 242
0.257633 0.683289 2.133000 219 200 241
0.256063 0.682835 2.120000 214 201 241
0.254493 0.682336 2.107000 217 206 241
0.253044 0.682117 2.095000 221 205 242
0.249903 0.677274 2.069000 219 209 242
0.249903 0.680896 2.069000 217 200 242
0.248454 0.680547 2.057000 216 195 242
0.245555 0.676166 2.033000 215 195 242
0.244105 0.675712 2.021000 217 194 243
0.242656 0.675217 2.009000 219 193 244
0.242656 0.678734 2.009000 218 201 245
0.241327 0.678515 1.998000 218 198 244
0.235771 0.666310 1.952000 218 198 243
0.234443 0.665953 1.941000 218 200 242
0.233235 0.665903 1.931000 216 202 242
0.233235 0.669283 1.931000 215 204 242
0.231906 0.668831 1.920000 214 206 242
0.230578 0.668341 1.909000 214 196 242
0.229370 0.668164 1.899000 215 194 242
0.228041 0.667599 1.888000 217 196 241
0.228041 0.670904 1.888000 212 197 241
0.225625 0.667067 1.868000 208 198 241
0.224418 0.666748 1.858000 211 199 242
0.223210 0.666394 1.848000 214 198 242
0.223210 0.669629 1.848000 214 194 242
0.222002 0.669223 1.838000 215 196 242
0.219707 0.665489 1.819000 216 204 243
0.219707 0.668674 1.819000 217 199 242
0.217412 0.664840 1.800000 216 197 242
0.216204 0.664280 1.790000 216 199 242
0.215117 0.664057 1.781000 210 201 243
0.214030 0.663804 1.772000 205 196 242
0.212943 0.663518 1.763000 214 194 241
0.211856 0.663202 1.754000 224 196 240
0.210769 0.662853 1.745000 220 199 240
0.209682 0.662473 1.736000 216 202 242
0.207629 0.658995 1.719000 216 203 243
0.206662 0.658923 1.711000 217 198 242
0.205575 0.658437 1.702000 220 197 242
0.371649 0.722060 3.033000 231 200 244
0.368340 0.720895 3.006000 225 203 244
0.365154 0.719876 2.980000 220 202 241
0.359028 0.712926 2.930000 222 198 239
0.355964 0.711928 2.905000 223 190 240
0.353023 0.711090 2.881000 223 193 242
0.347264 0.704450 2.834000 223 193 242
0.344323 0.703404 2.810000 224 195 242
0.341628 0.702777 2.788000 225 197 241
0.338809 0.701819 2.765000 226 198 241
0.338809 0.706660 2.765000 226 200 240
0.336114 0.705838 2.743000 225 199 240
0.336114 0.710640 2.743000 224 202 240
0.333540 0.709964 2.722000 223 200 240
0.330967 0.709215 2.701000 222 200 241
0.323370 0.697555 2.639000 223 200 243
0.318469 0.691532 2.599000 224 203 242
0.316140 0.690992 2.580000 225 204 242
0.316140 0.695509 2.580000 225 205 242
0.313690 0.694599 2.560000 228 205 243
0.313690 0.699080 2.560000 231 205 242
0.311484 0.698614 2.542000 229 202 242
0.309156 0.697809 2.523000 227 198 242
0.304745 0.692206 2.487000 229 205 242
0.302539 0.691518 2.469000 231 210 241
0.300333 0.690767 2.451000 227 205 241
0.298250 0.690236 2.434000 223 199 241
0.294084 0.684796 2.400000 226 209 241
0.292123 0.684404 2.384000 229 214 242
0.290040 0.683667 2.367000 228 211 244
0.290040 0.687810 2.367000 228 212 245
0.288080 0.687276 2.351000 225 212 247
0.286119 0.686686 2.335000 221 220 240
0.284281 0.686336 2.320000 201 172 233
0.282321 0.685636 2.304000 181 166 228
0.280483 0.685179 2.289000 201 189 223
0.276807 0.680153 2.259000 222 206 233
0.274969 0.679565 2.244000 221 203 244
0.274969 0.683493 2.244000 220 195 242
0.274969 0.687422 2.244000 222 201 241
0.271415 0.682415 2.215000 223 207 242
0.267984 0.677617 2.187000 224 209 243
0.266391 0.677395 2.174000 226 210 242
0.264676 0.676813 2.160000 226 206 241
0.263083 0.676498 2.147000 227 201 242
0.261367 0.675821 2.133000 225 205 243
0.261367 0.679555 2.133000 223 206 242
0.261367 0.683289 2.133000 220 204 241
0.259774 0.682835 2.120000 218 195 241
0.259774 0.686546 2.120000 219 201 241
0.256711 0.682117 2.095000 221 199 241
0.255118 0.681529 2.082000 219 204 242
0.253525 0.680896 2.069000 217 201 242
0.252055 0.680547 2.057000 217 199 242
0.249114 0.676166 2.033000 217 197 242
0.249114 0.679725 2.033000 218 192 243
0.247643 0.679250 2.021000 219 182 243
0.246173 0.678734 2.009000 219 195 244
0.243355 0.674440 1.986000 219 198 243
0.239188 0.666310 1.952000 219 197 242
0.237840 0.665953 1.941000 219 204 242
0.236615 0.665903 1.931000 217 204 243
0.235267 0.665470 1.920000 216 204 242
0.235267 0.668831 1.920000 215 200 241
0.232694 0.664840 1.899000 214 193 242
0.232694 0.668164 1.899000 215 197 243
0.231346 0.667599 1.888000 216 201 244
0.231346 0.670904 1.888000 213 199 246
0.228895 0.667067 1.868000 209 199 243
0.227670 0.666748 1.858000 211 199 241
0.226445 0.666394 1.848000 214 200 242
0.225219 0.666006 1.838000 214 195 244
0.225219 0.669223 1.838000 215 192 243
0.223994 0.668782 1.828000 216 201 243
0.222891 0.668674 1.819000 217 201 243
0.220563 0.664840 1.800000 218 199 243
0.219338 0.664280 1.790000 219 200 243
0.218235 0.664057 1.781000 215 198 244
0.217132 0.663804 1.772000 211 196 243
0.216029 0.663518 1.763000 215 198 242
0.214926 0.663202 1.754000 220 201 242
0.213824 0.662853 1.745000 218 200 243
0.212721 0.662473 1.736000 216 203 243
0.211740 0.662445 1.728000 216 203 244
0.209657 0.658923 1.711000 216 200 243
0.209657 0.661918 1.711000 218 200 242
0.376958 0.722060 3.033000 236 207 243
0.373602 0.720895 3.006000 231 212 244
0.370371 0.719876 2.980000 227 202 242
0.364157 0.712926 2.930000 225 201 241
0.361049 0.711928 2.905000 224 198 239
0.358067 0.711090 2.881000 224 201 238
0.358067 0.716133 2.881000 224 198 240
0.352225 0.709411 2.834000 225 196 241
0.346508 0.702777 2.788000 226 197 242
0.343649 0.701819 2.765000 227 198 242
0.343649 0.706660 2.765000 228 197 241
0.343649 0.711500 2.765000 230 197 241
0.340915 0.710640 2.743000 233 199 238
0.340915 0.715442 2.743000 228 201 235
0.338305 0.714729 2.722000 223 197 239
0.327989 0.697555 2.639000 223 197 242
0.323018 0.691532 2.599000 223 203 242
0.320657 0.690992 2.580000 224 204 242
0.320657 0.695509 2.580000 225 204 242
0.318171 0.694599 2.560000 227 205 242
0.318171 0.699080 2.560000 229 204 242
0.315934 0.698614 2.542000 228 203 243
0.313572 0.697809 2.523000 228 205 243
0.309098 0.692206 2.487000 228 211 243
0.306861 0.691518 2.469000 228 210 242
0.304624 0.690767 2.451000 224 203 241
0.302511 0.690236 2.434000 220 205 241
0.298285 0.684796 2.400000 224 212 241
0.296297 0.684404 2.384000 229 212 242
0.294184 0.683667 2.367000 229 209 243
0.294184 0.687810 2.367000 229 208 244
0.292195 0.687276 2.351000 225 206 246
0.290207 0.686686 2.335000 222 196 241
0.288342 0.686336 2.320000 201 150 237
0.286354 0.685636 2.304000 180 163 229
0.284490 0.685179 2.289000 201 205 222
0.280761 0.680153 2.259000 223 206 233
0.278897 0.679565 2.244000 221 204 244
0.278897 0.683493 2.244000 220 200 243
0.277157 0.683133 2.230000 222 200 242
0.275292 0.682415 2.215000 225 204 241
0.273552 0.681955 2.201000 226 209 240
0.271812 0.681445 2.187000 227 208 241
0.270197 0.681200 2.174000 228 210 242
0.268457 0.680595 2.160000 229 205 242
0.266841 0.680257 2.147000 226 201 242
0.265101 0.679555 2.133000 223 205 241
0.265101 0.683289 2.133000 222 216 241
0.263485 0.682835 2.120000 222 206 241
0.261870 0.682336 2.107000 221 204 242
0.260378 0.682117 2.095000 221 204 241
0.258762 0.681529 2.082000 219 208 241
0.257147 0.680896 2.069000 217 205 241
0.255655 0.680547 2.057000 218 205 242
0.251181 0.672175 2.021000 219 198 242
0.251181 0.675712 2.021000 219 197 243
0.249690 0.675217 2.009000 219 194 243
0.249690 0.678734 2.009000 219 199 243
0.248322 0.678515 1.998000 220 196 243
0.244097 0.670407 1.964000 220 189 243
0.242605 0.669727 1.952000 220 197 243
0.239995 0.665903 1.931000 218 208 243
0.239995 0.669283 1.931000 217 203 242
0.237261 0.664999 1.909000 216 200 241
0.236018 0.664840 1.899000 215 198 242
0.236018 0.668164 1.899000 215 200 243
0.234651 0.667599 1.888000 216 199 243
0.234651 0.670904 1.888000 213 199 243
0.232165 0.667067 1.868000 211 197 242
0.230922 0.666748 1.858000 212 199 241
0.229680 0.666394 1.848000 214 198 241
0.228437 0.666006 1.838000 215 194 242
0.228437 0.669223 1.838000 216 195 242
0.226075 0.665489 1.819000 216 207 243
0.226075 0.668674 1.819000 217 201 243
0.224833 0.668164 1.809000 220 199 243
0.222471 0.664280 1.790000 223 199 243
0.221353 0.664057 1.781000 220 198 243
0.220234 0.663804 1.772000 217 199 242
0.219115 0.663518 1.763000 216 202 241
0.217997 0.663202 1.754000 216 201 241
0.216878 0.662853 1.745000 216 200 241
0.215760 0.662473 1.736000 217 199 242
0.213647 0.658995 1.719000 216 206 243
0.212653 0.658923 1.711000 215 201 242
0.211534 0.658437 1.702000 216 207 241
0.382267 0.722060 3.033000 233 209 243
0.378864 0.720895 3.006000 229 205 244
0.375587 0.719876 2.980000 226 196 243
0.369285 0.712926 2.930000 223 200 243
0.366135 0.711928 2.905000 220 202 239
0.363110 0.711090 2.881000 224 202 235
0.363110 0.716133 2.881000 228 202 238
0.357186 0.709411 2.834000 227 200 241
0.354161 0.708323 2.810000 227 200 242
0.351388 0.707657 2.788000 228 201 244
0.351388 0.712538 2.788000 228 196 243
0.348490 0.711500 2.765000 229 199 242
0.345717 0.710640 2.743000 230 199 236
0.345717 0.715442 2.743000 227 197 231
0.343070 0.714729 2.722000 224 192 236
0.325173 0.681960 2.580000 224 201 242
0.325173 0.686476 2.580000 224 209 242
0.325173 0.690992 2.580000 225 206 242
0.322652 0.690117 2.560000 225 203 241
0.322652 0.694599 2.560000 226 204 241
0.320383 0.694164 2.542000 227 205 242
0.317989 0.693392 2.523000 228 205 244
0.315720 0.692831 2.505000 229 208 244
0.313452 0.692206 2.487000 229 214 244
0.313452 0.696559 2.487000 230 216 242
0.311183 0.695840 2.469000 227 209 241
0.308914 0.695057 2.451000 225 209 241
0.302486 0.684796 2.400000 228 211 242
0.300470 0.684404 2.384000 231 216 242
0.300470 0.688577 2.384000 231 212 243
0.298327 0.687810 2.367000 231 207 244
0.296311 0.687276 2.351000 228 208 245
0.294294 0.686686 2.335000 226 208 243
0.292404 0.686336 2.320000 203 158 241
0.290387 0.685636 2.304000 181 133 231
0.286606 0.680689 2.274000 201 189 222
0.284715 0.680153 2.259000 221 212 233
0.282825 0.679565 2.244000 221 206 244
0.282825 0.683493 2.244000 221 204 244
0.281060 0.683133 2.230000 222 201 244
0.279170 0.682415 2.215000 223 201 241
0.277405 0.681955 2.201000 226 203 238
0.275641 0.681445 2.187000 229 203 241
0.274002 0.681200 2.174000 231 210 244
0.272238 0.680595 2.160000 234 211 242
0.270599 0.680257 2.147000 229 206 241
0.268835 0.679555 2.133000 223 200 241
0.267196 0.679124 2.120000 223 209 242
0.267196 0.682835 2.120000 223 210 242
0.265558 0.682336 2.107000 223 207 243
0.262407 0.677885 2.082000 223 206 242
0.260768 0.677274 2.069000 222 207 241
0.260768 0.680896 2.069000 222 208 241
0.259256 0.680547 2.057000 221 202 242
0.256231 0.676166 2.033000 220 194 242
0.254719 0.675712 2.021000 220 197 243
0.253206 0.675217 2.009000 220 201 242
0.251820 0.675017 1.998000 220 199 242
0.250307 0.674440 1.986000 221 199 243
0.247535 0.670407 1.964000 221 194 245
0.246022 0.669727 1.952000 222 188 244
0.244636 0.669351 1.941000 220 197 243
0.243375 0.669283 1.931000 218 200 242
0.241989 0.668831 1.920000 217 199 242
0.239342 0.664840 1.899000 216 200 242
0.239342 0.668164 1.899000 216 199 243
0.237956 0.667599 1.888000 216 198 242
0.237956 0.670904 1.888000 214 199 241
0.236696 0.670638 1.878000 212 194 241
0.234175 0.666748 1.858000 213 197 241
0.232915 0.666394 1.848000 215 199 241
0.231654 0.666006 1.838000 215 195 241
0.231654 0.669223 1.838000 215 188 242
0.229259 0.665489 1.819000 214 196 243
0.229259 0.668674 1.819000 213 198 243
0.227999 0.668164 1.809000 217 199 243
0.226865 0.667991 1.800000 221 201 243
0.224470 0.664057 1.781000 219 200 243
0.223336 0.663804 1.772000 218 201 242
0.222201 0.663518 1.763000 217 202 241
0.221067 0.663202 1.754000 217 201 240
0.219933 0.662853 1.745000 216 197 240
0.218798 0.662473 1.736000 215 190 241
0.217790 0.662445 1.728000 212 196 242
0.215648 0.658923 1.711000 210 193 241
0.215648 0.661918 1.711000 212 196 241
0.387576 0.722060 3.033000 230 205 243
0.384126 0.720895 3.006000 227 203 243
0.380804 0.719876 2.980000 225 202 243
0.374414 0.712926 2.930000 221 203 242
0.371220 0.711928 2.905000 217 203 240
0.371220 0.717014 2.905000 224 204 238
0.368153 0.716133 2.881000 232 203 240
0.365086 0.715169 2.857000 230 202 242
0.362147 0.714372 2.834000 229 204 243
0.359080 0.713241 2.810000 229 211 245
0.356269 0.712538 2.788000 229 205 243
0.353330 0.711500 2.765000 228 206 241
0.350518 0.710640 2.743000 227 198 238
0.350518 0.715442 2.743000 226 198 236
0.347835 0.714729 2.722000 226 199 239
0.342468 0.708392 2.680000 226 209 242
0.332117 0.691532 2.599000 226 208 242
0.329689 0.690992 2.580000 226 209 242
0.329689 0.695509 2.580000 226 204 241
0.327133 0.694599 2.560000 225 206 241
0.324833 0.694164 2.542000 225 205 241
0.322405 0.693392 2.523000 227 205 242
0.320105 0.692831 2.505000 230 208 242
0.317805 0.692206 2.487000 231 221 243
0.315505 0.691518 2.469000 233 214 242
0.313205 0.690767 2.451000 231 210 241
0.311032 0.690236 2.434000 230 209 241
0.308860 0.689646 2.417000 231 210 242
0.306688 0.688997 2.400000 233 212 242
0.304643 0.688577 2.384000 233 218 243
0.302471 0.687810 2.367000 233 210 244
0.300426 0.687276 2.351000 231 214 246
0.298381 0.686686 2.335000 230 196 243
0.296465 0.686336 2.320000 206 143 241
0.294420 0.685636 2.304000 183 153 232
0.290587 0.680689 2.274000 201 206 223
0.288670 0.680153 2.259000 219 204 233
0.286753 0.679565 2.244000 220 204 244
0.286753 0.683493 2.244000 222 202 244
0.284964 0.683133 2.230000 221 201 245
0.283047 0.682415 2.215000 221 200 242
0.281258 0.681955 2.201000 226 200 239
0.279469 0.681445 2.187000 231 206 241
0.277808 0.681200 2.174000 235 219 244
0.276019 0.680595 2.160000 240 213 242
0.274358 0.680257 2.147000 232 214 241
0.272569 0.679555 2.133000 224 207 241
0.270907 0.679124 2.120000 224 212 241
0.269246 0.678648 2.107000 225 208 241
0.267713 0.678450 2.095000 225 210 241
0.266051 0.677885 2.082000 225 207 241
0.264390 0.677274 2.069000 226 207 241
0.264390 0.680896 2.069000 228 203 241
0.262857 0.680547 2.057000 225 203 242
0.259790 0.676166 2.033000 222 199 242
0.258257 0.675712 2.021000 221 198 242
0.256723 0.675217 2.009000 221 199 242
0.255317 0.675017 1.998000 222 199 242
0.253784 0.674440 1.986000 223 200 243
0.252378 0.674161 1.975000 223 203 244
0.249439 0.669727 1.952000 224 197 243
0.248034 0.669351 1.941000 221 194 243
0.246756 0.669283 1.931000 219 195 242
0.245350 0.668831 1.920000 218 197 242
0.243944 0.668341 1.909000 218 198 242
0.242667 0.668164 1.899000 217 198 242
0.242667 0.671488 1.899000 217 201 242
0.241261 0.670904 1.888000 215 206 242
0.239983 0.670638 1.878000 214 200 241
0.238705 0.670337 1.868000 215 198 241
0.236149 0.666394 1.848000 216 199 241
0.236149 0.669629 1.848000 215 202 242
0.234872 0.669223 1.838000 214 193 242
0.233594 0.668782 1.828000 212 191 242
0.232444 0.668674 1.819000 210 196 242
0.231166 0.668164 1.809000 214 200 242
0.228738 0.664280 1.790000 219 200 242
0.227588 0.664057 1.781000 219 201 242
0.226438 0.663804 1.772000 219 202 242
0.225288 0.663518 1.763000 218 204 242
0.222987 0.659799 1.745000 218 201 242
0.221837 0.659435 1.736000 216 199 242
0.221837 0.662473 1.736000 214 196 242
0.219665 0.658995 1.719000 209 195 242
0.218643 0.658923 1.711000 205 194 242
0.218643 0.661918 1.711000 209 191 243
0.396254 0.712186 3.059000 233 210 246
0.392886 0.711442 3.033000 231 209 244
0.392886 0.716751 3.033000 231 210 243
0.389388 0.715633 3.006000 230 205 243
0.389388 0.720895 3.006000 229 207 243
0.386020 0.719876 2.980000 227 208 242
0.379543 0.712926 2.930000 226 205 242
0.376305 0.711928 2.905000 225 206 242
0.376305 0.717014 2.905000 229 205 242
0.373196 0.716133 2.881000 233 206 242
0.370087 0.715169 2.857000 231 205 243
0.367108 0.714372 2.834000 229 206 244
0.363999 0.713241 2.810000 231 208 246
0.361149 0.712538 2.788000 233 208 243
0.358170 0.711500 2.765000 230 202 240
0.355320 0.710640 2.743000 228 189 241
0.355320 0.715442 2.743000 227 193 242
0.352600 0.714729 2.722000 227 198 242
0.347159 0.708392 2.680000 225 204 242
0.341848 0.702175 2.639000 224 208 242
0.336667 0.696081 2.599000 225 206 242
0.334205 0.695509 2.580000 226 201 241
0.331615 0.694599 2.560000 226 204 241
0.329283 0.694164 2.542000 227 206 240
0.326822 0.693392 2.523000 229 204 240
0.324490 0.692831 2.505000 231 201 241
0.322159 0.692206 2.487000 232 208 242
0.319827 0.691518 2.469000 233 209 242
0.317495 0.690767 2.451000 234 208 242
0.315293 0.690236 2.434000 234 208 242
0.313091 0.689646 2.417000 234 211 242
0.310889 0.688997 2.400000 233 207 242
0.308816 0.688577 2.384000 232 212 243
0.306614 0.687810 2.367000 232 203 245
0.304542 0.687276 2.351000 230 211 247
0.302469 0.686686 2.335000 229 219 244
0.300526 0.686336 2.320000 205 165 242
0.298453 0.685636 2.304000 181 132 233
0.296510 0.685179 2.289000 201 181 224
0.292624 0.680153 2.259000 221 195 234
0.290681 0.679565 2.244000 223 199 244
0.288868 0.679229 2.230000 225 200 245
0.288868 0.683133 2.230000 222 201 246
0.286924 0.682415 2.215000 220 198 243
0.285111 0.681955 2.201000 224 202 240
0.283297 0.681445 2.187000 229 205 242
0.281613 0.681200 2.174000 232 211 244
0.279800 0.680595 2.160000 234 210 242
0.278116 0.680257 2.147000 230 209 241
0.276302 0.679555 2.133000 227 202 241
0.274618 0.679124 2.120000 229 206 241
0.272934 0.678648 2.107000 231 202 240
0.271380 0.678450 2.095000 227 210 239
0.269696 0.677885 2.082000 224 208 240
0.268012 0.677274 2.069000 225 203 241
0.268012 0.680896 2.069000 225 197 242
0.266458 0.680547 2.057000 223 202 243
0.263349 0.676166 2.033000 221 204 242
0.263349 0.679725 2.033000 220 201 242
0.261794 0.679250 2.021000 220 201 242
0.258815 0.675017 1.998000 221 202 242
0.257260 0.674440 1.986000 223 200 242
0.255836 0.674161 1.975000 223 202 243
0.252856 0.669727 1.952000 223 203 243
0.251431 0.669351 1.941000 221 196 243
0.250136 0.669283 1.931000 220 192 243
0.250136 0.672663 1.931000 220 195 243
0.248711 0.672192 1.920000 220 197 242
0.245991 0.668164 1.899000 219 198 242
0.245991 0.671488 1.899000 218 202 242
0.245991 0.674813 1.899000 216 203 243
0.241975 0.667067 1.868000 215 203 242
0.240680 0.666748 1.858000 216 199 242
0.239384 0.666394 1.848000 217 200 242
0.238089 0.666006 1.838000 216 198 243
0.238089 0.669223 1.838000 215 194 242
0.236794 0.668782 1.828000 214 194 242
0.235628 0.668674 1.819000 213 197 242
0.234332 0.668164 1.809000 217 197 242
0.233167 0.667991 1.800000 221 199 242
0.229540 0.660702 1.772000 220 202 242
0.229540 0.663804 1.772000 219 204 242
0.228374 0.663518 1.763000 219 202 243
0.226560 0.661311 1.749000 218 201 243
0.226042 0.662853 1.745000 217 199 244
0.226042 0.665908 1.745000 216 200 243
0.222674 0.658995 1.719000 213 199 243
0.221638 0.658923 1.711000 210 200 244
0.220472 0.658437 1.702000 215 197 245
0.401609 0.706831 3.059000 236 210 237
0.401609 0.712186 3.059000 234 223 244
0.398195 0.711442 3.033000 232 216 244
0.398195 0.716751 3.033000 231 222 244
0.394650 0.715633 3.006000 231 212 241
0.391237 0.714659 2.980000 230 212 238
0.391237 0.719876 2.980000 230 209 240
0.384672 0.712926 2.930000 231 206 243
0.384672 0.718055 2.930000 233 205 242
0.381390 0.717014 2.905000 234 206 242
0.378239 0.716133 2.881000 235 207 242
0.375088 0.715169 2.857000 232 207 242
0.372069 0.714372 2.834000 230 205 243
0.368918 0.713241 2.810000 233 207 244
0.366030 0.712538 2.788000 237 207 242
0.363010 0.711500 2.765000 233 206 241
0.360122 0.710640 2.743000 230 197 241
0.357365 0.709964 2.722000 229 190 241
0.357365 0.714729 2.722000 228 197 241
0.351851 0.708392 2.680000 225 201 241
0.346468 0.702175 2.639000 222 204 241
0.343842 0.701438 2.619000 224 209 242
0.338722 0.695509 2.580000 227 205 242
0.336096 0.694599 2.560000 228 205 242
0.333733 0.694164 2.542000 229 206 242
0.331238 0.693392 2.523000 230 207 242
0.328875 0.692831 2.505000 232 207 242
0.326512 0.692206 2.487000 233 202 242
0.321786 0.686476 2.451000 234 206 242
0.319554 0.685976 2.434000 236 208 242
0.319554 0.690236 2.434000 239 210 242
0.317322 0.689646 2.417000 236 220 242
0.315090 0.688997 2.400000 234 214 242
0.310758 0.683667 2.367000 232 220 243
0.310758 0.687810 2.367000 231 211 244
0.308657 0.687276 2.351000 230 211 246
0.306556 0.686686 2.335000 229 202 242
0.304587 0.686336 2.320000 204 166 239
0.302486 0.685636 2.304000 180 162 231
0.300517 0.685179 2.289000 201 192 222
0.298548 0.684670 2.274000 223 196 233
0.296578 0.684108 2.259000 225 199 245
0.294609 0.683493 2.244000 228 201 244
0.292771 0.683133 2.230000 223 208 244
0.290802 0.682415 2.215000 219 202 241
0.288964 0.681955 2.201000 223 206 239
0.287126 0.681445 2.187000 228 208 241
0.285419 0.681200 2.174000 228 211 243
0.283581 0.680595 2.160000 229 211 242
0.281874 0.680257 2.147000 229 211 241
0.280036 0.679555 2.133000 230 208 241
0.278330 0.679124 2.120000 233 210 242
0.276623 0.678648 2.107000 237 209 241
0.275047 0.678450 2.095000 230 222 241
0.273341 0.677885 2.082000 224 208 241
0.271634 0.677274 2.069000 223 203 241
0.271634 0.680896 2.069000 223 202 242
0.270058 0.680547 2.057000 222 204 243
0.266907 0.676166 2.033000 221 201 242
0.266907 0.679725 2.033000 220 204 241
0.265332 0.679250 2.021000 219 204 241
0.260737 0.670963 1.986000 221 210 242
0.259293 0.670704 1.975000 224 204 242
0.257849 0.670407 1.964000 223 203 242
0.256273 0.669727 1.952000 222 199 242
0.254829 0.669351 1.941000 221 198 243
0.253516 0.669283 1.931000 221 196 243
0.253516 0.672663 1.931000 222 197 243
0.252072 0.672192 1.920000 223 197 242
0.252072 0.675553 1.920000 221 197 242
0.249315 0.671488 1.899000 219 200 242
0.247871 0.670904 1.888000 218 201 242
0.245245 0.667067 1.868000 217 198 242
0.242619 0.663160 1.848000 218 197 242
0.242619 0.666394 1.848000 219 198 242
0.241306 0.666006 1.838000 218 197 243
0.241306 0.669223 1.838000 217 197 242
0.239994 0.668782 1.828000 216 197 242
0.238812 0.668674 1.819000 216 197 242
0.237499 0.668164 1.809000 220 195 242
0.236318 0.667991 1.800000 224 199 242
0.233823 0.664057 1.781000 222 207 243
0.232641 0.663804 1.772000 220 202 242
0.231460 0.663518 1.763000 219 199 242
0.230278 0.663202 1.754000 219 197 241
0.229097 0.662853 1.745000 219 196 241
0.227915 0.662473 1.736000 219 198 242
0.226865 0.662445 1.728000 217 201 242
0.224633 0.658923 1.711000 216 197 242
0.223451 0.658437 1.702000 220 197 242
0.406963 0.706831 3.059000 237 209 239
0.406963 0.712186 3.059000 238 212 243
0.403504 0.711442 3.033000 240 210 244
0.403504 0.716751 3.033000 235 216 245
0.399912 0.715633 3.006000 231 209 239
0.399912 0.720895 3.006000 232 210 234
0.396453 0.719876 2.980000 234 210 239
0.393127 0.719009 2.955000 232 206 244
0.389801 0.718055 2.930000 230 204 243
0.386475 0.717014 2.905000 231 206 243
0.383283 0.716133 2.881000 233 210 242
0.380090 0.715169 2.857000 230 207 242
0.377030 0.714372 2.834000 228 203 242
0.373837 0.713241 2.810000 231 208 242
0.373837 0.718160 2.810000 235 210 242
0.370910 0.717418 2.788000 232 207 243
0.364923 0.710640 2.743000 230 206 241
0.362129 0.709964 2.722000 231 200 240
0.359336 0.709215 2.701000 232 202 240
0.353748 0.702842 2.659000 228 201 241
0.351087 0.702175 2.639000 225 198 241
0.348427 0.701438 2.619000 226 205 242
0.345766 0.700631 2.599000 228 208 242
0.340577 0.694599 2.560000 229 206 243
0.340577 0.699080 2.560000 229 207 243
0.335655 0.693392 2.523000 231 210 244
0.333260 0.692831 2.505000 232 220 243
0.330866 0.692206 2.487000 233 211 242
0.328471 0.691518 2.469000 233 207 242
0.326076 0.690767 2.451000 235 205 243
0.323814 0.690236 2.434000 236 204 243
0.321553 0.689646 2.417000 235 211 243
0.319291 0.688997 2.400000 234 211 243
0.314901 0.683667 2.367000 234 215 243
0.314901 0.687810 2.367000 234 212 244
0.310644 0.682599 2.335000 229 212 245
0.308648 0.682275 2.320000 225 212 241
0.308648 0.686336 2.320000 202 173 237
0.306520 0.685636 2.304000 179 158 229
0.304524 0.685179 2.289000 201 184 221
0.302528 0.684670 2.274000 224 200 233
0.300533 0.684108 2.259000 224 198 246
0.298537 0.683493 2.244000 224 198 244
0.296675 0.683133 2.230000 220 203 242
0.292817 0.678102 2.201000 217 196 240
0.292817 0.681955 2.201000 222 201 239
0.290954 0.681445 2.187000 228 212 240
0.289225 0.681200 2.174000 226 211 242
0.287362 0.680595 2.160000 225 212 241
0.285633 0.680257 2.147000 227 211 241
0.283770 0.679555 2.133000 230 212 242
0.282041 0.679124 2.120000 232 207 243
0.282041 0.682835 2.120000 235 202 243
0.280311 0.682336 2.107000 230 210 244
0.278715 0.682117 2.095000 225 202 243
0.276985 0.681529 2.082000 224 204 242
0.276985 0.685174 2.082000 224 207 242
0.273659 0.680547 2.057000 222 202 243
0.270466 0.676166 2.033000 221 192 242
0.268870 0.675712 2.021000 221 200 241
0.268870 0.679250 2.021000 220 202 241
0.264214 0.670963 1.986000 223 205 242
0.262750 0.670704 1.975000 226 206 242
0.261287 0.670407 1.964000 224 201 242
0.259690 0.669727 1.952000 222 195 242
0.258227 0.669351 1.941000 221 198 243
0.256896 0.669283 1.931000 221 200 243
0.256896 0.672663 1.931000 220 200 243
0.255433 0.672192 1.920000 219 198 242
0.253970 0.671683 1.909000 219 200 242
0.252639 0.671488 1.899000 220 200 242
0.251176 0.670904 1.888000 220 198 242
0.249845 0.670638 1.878000 220 191 242
0.248515 0.670337 1.868000 220 197 242
0.245854 0.666394 1.848000 221 200 242
0.245854 0.669629 1.848000 220 200 243
0.244524 0.669223 1.838000 219 201 243
0.243193 0.668782 1.828000 218 199 243
0.240666 0.664998 1.809000 216 200 243
0.239468 0.664840 1.800000 218 197 243
0.239468 0.667991 1.800000 220 197 243
0.236941 0.664057 1.781000 218 201 244
0.235743 0.663804 1.772000 217 201 242
0.235743 0.666906 1.772000 218 198 241
0.234546 0.666605 1.763000 219 194 240
0.232151 0.662853 1.745000 221 196 239
0.232151 0.665908 1.745000 222 198 240
0.229890 0.662445 1.728000 217 198 242
0.227628 0.658923 1.711000 212 193 241
0.226431 0.658437 1.702000 214 191 240
0.435502 0.723951 3.231000 246 214 237
0.431458 0.722832 3.201000 240 209 239
0.423640 0.715237 3.143000 234 207 236
0.419866 0.714318 3.115000 236 206 234
0.416092 0.713301 3.087000 239 208 237
0.412318 0.712186 3.059000 243 208 241
0.408814 0.711442 3.033000 248 210 242
0.408814 0.716751 3.033000 240 223 243
0.405174 0.715633 3.006000 232 213 240
0.405174 0.720895 3.006000 235 209 237
0.401670 0.719876 2.980000 238 208 240
0.398300 0.719009 2.955000 232 205 243
0.394930 0.718055 2.930000 227 204 242
0.391561 0.717014 2.905000 229 205 242
0.388326 0.716133 2.881000 231 208 240
0.385091 0.715169 2.857000 228 209 238
0.381991 0.714372 2.834000 226 208 241
0.378756 0.713241 2.810000 229 213 244
0.378756 0.718160 2.810000 233 211 243
0.375790 0.717418 2.788000 232 209 242
0.369725 0.710640 2.743000 231 205 242
0.366894 0.709964 2.722000 234 204 241
0.364064 0.709215 2.701000 237 204 241
0.358403 0.702842 2.659000 232 204 241
0.353011 0.696853 2.619000 228 203 241
0.350315 0.696081 2.599000 229 206 242
0.347754 0.695509 2.580000 230 205 242
0.347754 0.700025 2.580000 230 206 242
0.345059 0.699080 2.560000 230 207 242
0.342632 0.698614 2.542000 231 207 242
0.337645 0.692831 2.505000 233 212 242
0.335219 0.692206 2.487000 233 218 242
0.332793 0.691518 2.469000 233 209 242
0.330367 0.690767 2.451000 233 204 242
0.328075 0.690236 2.434000 234 207 242
0.325784 0.689646 2.417000 234 212 243
0.323492 0.688997 2.400000 234 214 242
0.321336 0.688577 2.384000 235 219 242
0.319044 0.687810 2.367000 237 213 244
0.314731 0.682599 2.335000 229 215 245
0.312709 0.682275 2.320000 222 200 242
0.310553 0.681603 2.304000 200 159 239
0.310553 0.685636 2.304000 178 161 230
0.308531 0.685179 2.289000 202 189 221
0.308531 0.689186 2.289000 226 198 233
0.304487 0.684108 2.259000 223 198 246
0.302465 0.683493 2.244000 220 201 244
0.300578 0.683133 2.230000 217 210 242
0.296669 0.678102 2.201000 215 198 241
0.296669 0.681955 2.201000 222 192 240
0.294782 0.681445 2.187000 229 208 241
0.293030 0.681200 2.174000 225 212 243
0.291143 0.680595 2.160000 221 211 242
0.289391 0.680257 2.147000 225 209 242
0.287504 0.679555 2.133000 230 209 242
0.285752 0.679124 2.120000 231 204 243
0.285752 0.682835 2.120000 233 206 243
0.282382 0.678450 2.095000 230 215 244
0.280630 0.677885 2.082000 227 206 242
0.280630 0.681529 2.082000 226 204 241
0.278877 0.680896 2.069000 225 207 241
0.277260 0.680547 2.057000 223 208 242
0.274025 0.676166 2.033000 222 203 241
0.272408 0.675712 2.021000 222 205 239
0.270790 0.675217 2.009000 222 204 240
0.267690 0.670963 1.986000 225 205 241
0.266207 0.670704 1.975000 228 203 242
0.266207 0.674161 1.975000 225 202 242
0.263107 0.669727 1.952000 222 199 242
0.261624 0.669351 1.941000 221 199 243
0.261624 0.672749 1.941000 221 202 242
0.260277 0.672663 1.931000 218 206 242
0.260277 0.676043 1.931000 216 199 242
0.258794 0.675553 1.920000 218 207 241
0.255963 0.671488 1.899000 221 200 242
0.254481 0.670904 1.888000 222 203 242
0.251785 0.667067 1.868000 223 200 242
0.250437 0.666748 1.858000 223 203 242
0.249089 0.666394 1.848000 223 202 242
0.247741 0.666006 1.838000 222 202 242
0.247741 0.669223 1.838000 222 202 242
0.246393 0.668782 1.828000 219 201 243
0.243832 0.664998 1.809000 217 199 242
0.242619 0.664840 1.800000 217 198 242
0.241271 0.664280 1.790000 217 198 242
0.240058 0.664057 1.781000 215 199 242
0.238845 0.663804 1.772000 214 200 242
0.238845 0.666906 1.772000 217 200 243
0.237632 0.666605 1.763000 220 197 243
0.235206 0.662853 1.745000 223 196 243
0.235206 0.665908 1.745000 226 199 242
0.232915 0.662445 1.728000 217 200 242
0.230623 0.658923 1.711000 209 195 242
0.229410 0.658437 1.702000 207 197 242
0.458361 0.740430 3.357000 226 208 236
0.441158 0.723951 3.231000 240 220 237
0.437061 0.722832 3.201000 237 213 241
0.429142 0.715237 3.143000 235 208 237
0.425319 0.714318 3.115000 236 209 233
0.421496 0.713301 3.087000 238 211 236
0.421496 0.718705 3.087000 237 207 239
0.414123 0.711442 3.033000 237 201 240
0.414123 0.716751 3.033000 235 212 241
0.410436 0.715633 3.006000 232 213 241
0.410436 0.720895 3.006000 234 210 241
0.406886 0.719876 2.980000 237 210 241
0.403473 0.719009 2.955000 233 207 242
0.400059 0.718055 2.930000 229 205 242
0.396646 0.717014 2.905000 230 205 242
0.393369 0.716133 2.881000 231 209 238
0.390092 0.715169 2.857000 230 209 234
0.386952 0.714372 2.834000 229 210 240
0.383675 0.713241 2.810000 232 213 247
0.383675 0.718160 2.810000 235 215 244
0.380671 0.717418 2.788000 233 209 242
0.374526 0.710640 2.743000 230 203 242
0.371659 0.709964 2.722000 230 204 243
0.368792 0.709215 2.701000 231 206 242
0.363057 0.702842 2.659000 230 206 241
0.360326 0.702175 2.639000 229 207 241
0.354865 0.696081 2.599000 229 207 242
0.354865 0.700631 2.599000 230 203 242
0.352271 0.700025 2.580000 230 208 242
0.349540 0.699080 2.560000 230 210 241
0.347082 0.698614 2.542000 231 208 241
0.342030 0.692831 2.505000 233 206 242
0.339572 0.692206 2.487000 233 212 243
0.337115 0.691518 2.469000 234 209 242
0.332336 0.685976 2.434000 233 208 242
0.332336 0.690236 2.434000 233 210 242
0.330015 0.689646 2.417000 233 213 243
0.327694 0.688997 2.400000 232 216 242
0.325509 0.688577 2.384000 234 214 242
0.323188 0.687810 2.367000 236 209 244
0.318819 0.682599 2.335000 230 214 246
0.316770 0.682275 2.320000 223 217 244
0.314586 0.681603 2.304000 201 167 242
0.314586 0.685636 2.304000 178 139 231
0.312538 0.685179 2.289000 201 178 221
0.310490 0.684670 2.274000 225 208 234
0.308442 0.684108 2.259000 223 207 247
0.306394 0.683493 2.244000 221 200 244
0.304482 0.683133 2.230000 219 203 242
0.300522 0.678102 2.201000 217 194 241
0.300522 0.681955 2.201000 225 199 241
0.298611 0.681445 2.187000 234 218 242
0.296836 0.681200 2.174000 229 214 244
0.294924 0.680595 2.160000 225 211 243
0.293149 0.680257 2.147000 227 211 243
0.291238 0.679555 2.133000 230 212 243
0.289463 0.679124 2.120000 231 209 243
0.289463 0.682835 2.120000 232 204 244
0.286049 0.678450 2.095000 229 206 245
0.286049 0.682117 2.095000 227 204 242
0.284274 0.681529 2.082000 227 206 240
0.282499 0.680896 2.069000 226 209 241
0.280861 0.680547 2.057000 224 209 242
0.277584 0.676166 2.033000 222 210 240
0.275945 0.675712 2.021000 221 208 238
0.275945 0.679250 2.021000 221 204 239
0.272805 0.675017 1.998000 223 202 241
0.271166 0.674440 1.986000 225 200 242
0.271166 0.677916 1.986000 223 202 243
0.266524 0.669727 1.952000 222 202 243
0.265022 0.669351 1.941000 221 201 243
0.263657 0.669283 1.931000 221 203 242
0.263657 0.672663 1.931000 219 198 242
0.262155 0.672192 1.920000 218 185 241
0.260653 0.671683 1.909000 219 195 241
0.259288 0.671488 1.899000 221 192 242
0.257786 0.670904 1.888000 223 201 243
0.256420 0.670638 1.878000 225 206 243
0.255055 0.670337 1.868000 224 205 243
0.253689 0.670000 1.858000 223 206 242
0.250959 0.666006 1.838000 224 203 242
0.249593 0.665582 1.828000 224 204 242
0.248364 0.665489 1.819000 221 201 243
0.246999 0.664998 1.809000 218 200 242
0.245770 0.664840 1.800000 218 203 242
0.245770 0.667991 1.800000 218 201 241
0.243176 0.664057 1.781000 216 199 241
0.241947 0.663804 1.772000 215 200 243
0.240718 0.663518 1.763000 217 198 245
0.239489 0.663202 1.754000 219 198 246
0.238261 0.662853 1.745000 220 199 248
0.238261 0.665908 1.745000 221 202 245
0.235939 0.662445 1.728000 216 198 242
0.233618 0.658923 1.711000 212 190 243
0.232389 0.658437 1.702000 211 195 244
0.464238 0.740430 3.357000 230 206 234
0.455387 0.732078 3.293000 232 208 234
0.451100 0.730897 3.262000 235 214 237
0.446813 0.729607 3.231000 235 216 239
0.442665 0.728436 3.201000 236 212 236
0.434644 0.720739 3.143000 236 213 234
0.426900 0.713301 3.087000 237 211 237
0.423028 0.712186 3.059000 232 211 241
0.419432 0.711442 3.033000 227 206 240
0.419432 0.716751 3.033000 230 213 239
0.415698 0.715633 3.006000 233 212 239
0.415698 0.720895 3.006000 234 211 240
0.415698 0.726157 3.006000 236 211 242
0.408646 0.719009 2.955000 234 210 245
0.405188 0.718055 2.930000 232 207 243
0.401731 0.717014 2.905000 232 203 242
0.395093 0.710167 2.857000 232 205 240
0.391912 0.709411 2.834000 232 209 238
0.391912 0.714372 2.834000 232 210 241
0.388594 0.713241 2.810000 235 216 244
0.385551 0.712538 2.788000 238 214 243
0.382370 0.711500 2.765000 234 210 242
0.379328 0.710640 2.743000 230 205 241
0.376424 0.709964 2.722000 227 205 241
0.373520 0.709215 2.701000 225 207 241
0.367712 0.702842 2.659000 227 208 241
0.364946 0.702175 2.639000 230 210 242
0.359414 0.696081 2.599000 230 215 243
0.359414 0.700631 2.599000 230 209 242
0.356787 0.700025 2.580000 230 213 241
0.354021 0.699080 2.560000 231 211 241
0.351532 0.698614 2.542000 232 211 241
0.346415 0.692831 2.505000 233 211 241
0.343926 0.692206 2.487000 234 216 242
0.338948 0.686476 2.451000 235 212 242
0.336597 0.685976 2.434000 234 212 242
0.336597 0.690236 2.434000 233 213 242
0.334246 0.689646 2.417000 232 217 243
0.331895 0.688997 2.400000 231 216 243
0.329682 0.688577 2.384000 233 215 243
0.325119 0.683161 2.351000 236 215 244
0.320832 0.678214 2.320000 230 217 246
0.320832 0.682275 2.320000 225 202 243
0.318619 0.681603 2.304000 202 156 241
0.316545 0.681172 2.289000 179 154 230
0.316545 0.685179 2.289000 201 178 219
0.314470 0.684670 2.274000 224 201 233
0.312396 0.684108 2.259000 223 224 247
0.310322 0.683493 2.244000 222 210 244
0.308386 0.683133 2.230000 220 208 242
0.306311 0.682415 2.215000 219 197 241
0.302439 0.677617 2.187000 229 192 241
0.300641 0.677395 2.174000 239 207 242
0.300641 0.681200 2.174000 234 218 243
0.296908 0.676498 2.147000 229 214 241
0.294971 0.675821 2.133000 229 212 240
0.294971 0.679555 2.133000 230 211 241
0.293174 0.679124 2.120000 230 216 242
0.293174 0.682835 2.120000 231 207 242
0.289717 0.678450 2.095000 229 203 243
0.289717 0.682117 2.095000 228 206 241
0.287919 0.681529 2.082000 228 207 240
0.286121 0.680896 2.069000 228 210 240
0.284462 0.680547 2.057000 225 212 241
0.281143 0.676166 2.033000 223 212 241
0.281143 0.679725 2.033000 221 216 240
0.279483 0.679250 2.021000 220 206 240
0.276302 0.675017 1.998000 221 202 241
0.274643 0.674440 1.986000 222 203 241
0.274643 0.677916 1.986000 222 204 242
0.273122 0.677619 1.975000 222 202 242
0.268420 0.669351 1.941000 222 202 243
0.267037 0.669283 1.931000 222 201 242
0.267037 0.672663 1.931000 221 198 242
0.265516 0.672192 1.920000 220 195 242
0.263995 0.671683 1.909000 221 197 242
0.262612 0.671488 1.899000 222 197 242
0.261091 0.670904 1.888000 225 203 242
0.256942 0.663496 1.858000 228 204 243
0.255559 0.663160 1.848000 226 206 244
0.254176 0.662788 1.838000 224 205 242
0.254176 0.666006 1.838000 225 203 241
0.252793 0.665582 1.828000 227 202 241
0.251549 0.665489 1.819000 223 200 242
0.251549 0.668674 1.819000 219 201 242
0.250166 0.668164 1.809000 219 214 242
0.248921 0.667991 1.800000 219 203 242
