ply
format ascii 1.0
element vertex 1276
property float x
property float y
property float z
property uchar red
property uchar green
property uchar blue
end_header
1.006748 0.179085 2.765000 97 74 74
1.015122 0.185455 2.788000 92 72 55
1.023132 0.191837 2.810000 90 67 37
1.015122 0.195216 2.788000 89 67 54
1.015122 0.200096 2.788000 86 64 71
1.015122 0.204977 2.788000 84 61 70
1.015122 0.209857 2.788000 87 62 70
1.015122 0.214737 2.788000 90 67 68
1.015122 0.219618 2.788000 90 60 67
1.015122 0.224498 2.788000 90 56 67
1.015122 0.229379 2.788000 86 55 67
1.015122 0.234259 2.788000 83 55 69
1.015122 0.239139 2.788000 76 57 71
1.006748 0.242007 2.765000 69 60 69
1.006748 0.246847 2.765000 75 60 68
1.006748 0.251687 2.765000 81 60 68
1.006748 0.256527 2.765000 83 57 68
1.006748 0.261367 2.765000 85 57 65
1.015122 0.268422 2.788000 85 56 62
1.015122 0.273302 2.788000 85 54 68
1.015122 0.278183 2.788000 84 60 74
1.015122 0.283063 2.788000 84 67 76
1.015122 0.287943 2.788000 81 59 79
1.015122 0.292824 2.788000 78 56 76
1.015122 0.297704 2.788000 81 62 74
1.006748 0.300088 2.765000 85 65 75
1.006748 0.304928 2.765000 86 62 77
1.006748 0.309769 2.765000 87 62 74
1.015122 0.317226 2.788000 87 60 72
1.015122 0.322106 2.788000 88 61 62
1.015122 0.326986 2.788000 90 63 52
1.015122 0.331867 2.788000 91 67 61
1.015122 0.336747 2.788000 89 63 70
1.015122 0.341628 2.788000 87 58 73
1.015122 0.346508 2.788000 84 56 77
1.015122 0.351388 2.788000 81 56 75
1.015122 0.356269 2.788000 82 56 74
1.015122 0.361149 2.788000 83 56 70
1.015122 0.366030 2.788000 84 60 67
1.015122 0.370910 2.788000 86 67 67
1.015122 0.375791 2.788000 88 64 68
1.015122 0.380671 2.788000 90 63 67
1.006748 0.382371 2.765000 87 63 67
1.006748 0.387211 2.765000 85 65 67
1.006748 0.392051 2.765000 87 61 68
1.006748 0.396891 2.765000 88 61 69
1.015122 0.405073 2.788000 93 61 71
1.015122 0.409953 2.788000 98 61 71
1.015122 0.414834 2.788000 94 57 72
1.015122 0.419714 2.788000 90 56 71
1.015122 0.424594 2.788000 87 58 71
1.015122 0.429475 2.788000 85 58 70
1.023132 0.437783 2.810000 86 57 70
1.015122 0.439236 2.788000 87 55 74
1.023132 0.447620 2.810000 87 54 79
1.015122 0.448996 2.788000 88 54 80
1.015122 0.453877 2.788000 80 56 82
1.015122 0.458757 2.788000 73 58 70
1.015122 0.463638 2.788000 79 58 59
1.023132 0.472215 2.810000 86 56 53
1.006748 0.469493 2.765000 82 54 48
1.015122 0.478279 2.788000 78 53 52
1.015122 0.483159 2.788000 80 50 57
1.015122 0.488039 2.788000 81 49 58
1.023132 0.496809 2.810000 81 52 59
1.023132 0.501728 2.810000 82 54 50
1.006748 0.498534 2.765000 80 53 41
1.015122 0.507561 2.788000 78 56 47
1.023132 0.516485 2.810000 77 54 53
1.023132 0.521404 2.810000 77 51 46
1.023132 0.526323 2.810000 77 48 39
1.015122 0.527083 2.788000 78 47 52
1.015122 0.531963 2.788000 79 48 65
1.023132 0.541080 2.810000 81 47 62
1.023132 0.545999 2.810000 78 48 59
1.015122 0.546604 2.788000 76 52 57
1.015122 0.551485 2.788000 72 51 55
1.015122 0.556365 2.788000 69 54 55
1.006748 0.556615 2.765000 69 47 56
1.006748 0.561456 2.765000 70 44 51
1.006748 0.566296 2.765000 69 43 46
0.998737 0.566592 2.743000 68 42 41
1.006748 0.575976 2.765000 68 42 37
0.998737 0.576195 2.743000 69 46 40
1.006748 0.585656 2.765000 64 46 44
1.006748 0.590496 2.765000 59 48 42
1.006748 0.595336 2.765000 64 43 41
1.006748 0.600177 2.765000 69 41 42
1.006748 0.605017 2.765000 66 39 44
1.006748 0.609857 2.765000 64 44 49
1.006748 0.614697 2.765000 62 40 54
1.006748 0.619537 2.765000 61 36 51
1.006748 0.624377 2.765000 61 39 48
0.998737 0.624211 2.743000 61 41 47
1.006748 0.634058 2.765000 60 40 47
1.015122 0.644212 2.788000 59 39 47
1.015122 0.649093 2.788000 60 39 47
1.023132 0.659133 2.810000 61 39 46
1.023132 0.664052 2.810000 59 38 45
1.023132 0.668971 2.810000 58 42 46
1.023132 0.673890 2.810000 62 40 47
1.023132 0.678809 2.810000 65 39 41
1.015122 0.678375 2.788000 58 33 35
1.023132 0.688647 2.810000 50 30 37
1.015122 0.688136 2.788000 48 26 39
1.015122 0.693016 2.788000 45 26 28
1.015122 0.697896 2.788000 43 22 17
1.015122 0.702777 2.788000 42 21 19
1.015122 0.707657 2.788000 41 18 21
1.006748 0.706660 2.765000 40 19 21
1.006748 0.711500 2.765000 40 18 21
1.006748 0.716340 2.765000 41 21 18
1.015122 0.727179 2.788000 36 15 16
1.015122 0.732059 2.788000 31 16 15
1.023132 0.742755 2.810000 22 10 14
1.015122 0.741820 2.788000 14 6 16
1.015122 0.746700 2.788000 13 9 18
1.006748 0.745381 2.765000 13 12 9
1.006748 0.750221 2.765000 15 12 1
1.006748 0.755061 2.765000 17 10 5
0.998737 0.753855 2.743000 22 13 10
0.998737 0.758656 2.743000 27 16 10
0.975799 0.745923 2.680000 23 13 10
0.740223 0.697518 2.033000 45 27 24
0.740223 0.701077 2.033000 48 16 22
0.740223 0.704636 2.033000 51 7 11
0.740223 0.708195 2.033000 78 26 1
0.735854 0.707552 2.021000 105 25 45
0.731485 0.706868 2.009000 125 92 90
0.727480 0.706495 1.998000 146 119 112
0.723111 0.705728 1.986000 142 117 135
0.719105 0.705277 1.975000 138 105 137
0.719105 0.708734 1.975000 141 105 140
0.715100 0.708224 1.964000 144 107 139
0.710731 0.707314 1.952000 147 108 139
0.710731 0.710731 1.952000 151 112 141
0.706726 0.710124 1.941000 153 117 144
0.695074 0.701758 1.909000 155 123 155
0.691434 0.701406 1.899000 156 127 167
0.687428 0.700648 1.888000 157 130 166
0.683787 0.700225 1.878000 157 133 166
0.680146 0.699766 1.868000 157 135 165
0.680146 0.703036 1.868000 155 138 164
0.672864 0.698744 1.848000 152 140 168
0.676505 0.705777 1.858000 160 137 173
0.672864 0.705214 1.848000 168 138 176
0.665582 0.700781 1.828000 169 139 179
0.655387 0.693198 1.800000 170 140 180
0.651746 0.692480 1.790000 173 140 181
0.648469 0.692116 1.781000 176 142 182
0.923051 -0.211993 2.523000 103 54 32
0.923051 -0.207576 2.523000 106 59 29
0.923051 -0.203159 2.523000 109 55 20
0.923051 -0.198743 2.523000 106 52 12
0.930002 -0.195790 2.542000 104 53 29
0.930002 -0.191340 2.542000 134 64 46
0.930002 -0.186890 2.542000 165 119 102
0.950856 -0.186531 2.599000 165 160 159
0.950856 -0.181982 2.599000 166 110 99
0.943905 -0.176135 2.580000 106 63 40
0.950856 -0.172883 2.599000 47 32 29
0.943905 -0.167103 2.580000 60 28 18
0.943905 -0.009033 2.580000 105 70 29
0.943905 -0.004516 2.580000 105 69 27
0.943905 -0.000000 2.580000 106 64 28
0.943905 0.004516 2.580000 105 61 29
0.943905 0.009033 2.580000 104 58 41
0.943905 0.013549 2.580000 104 58 52
0.943905 0.018065 2.580000 105 54 43
0.943905 0.022581 2.580000 102 53 34
0.943905 0.027098 2.580000 99 55 30
0.943905 0.031614 2.580000 103 55 26
0.943905 0.036130 2.580000 108 53 22
0.943905 0.040647 2.580000 111 53 18
0.950856 0.045496 2.599000 115 54 20
0.943905 0.049679 2.580000 108 54 23
0.950856 0.054595 2.599000 102 49 18
0.950856 0.059144 2.599000 98 46 13
0.950856 0.063694 2.599000 94 47 19
0.950856 0.068243 2.599000 97 45 25
0.950856 0.072793 2.599000 101 47 18
0.950856 0.077342 2.599000 99 50 11
0.950856 0.081892 2.599000 98 50 11
0.950856 0.086442 2.599000 107 51 10
0.950856 0.090991 2.599000 117 47 14
0.950856 0.095541 2.599000 104 45 18
0.950856 0.100090 2.599000 92 43 22
0.943905 0.103875 2.580000 97 42 26
0.950856 0.109189 2.599000 102 44 20
0.950856 0.113739 2.599000 101 46 14
0.943905 0.117424 2.580000 100 46 19
0.950856 0.122838 2.599000 101 46 24
0.950856 0.127387 2.599000 102 44 21
0.950856 0.131937 2.599000 103 46 19
0.950856 0.136487 2.599000 104 46 27
0.950856 0.141036 2.599000 99 47 35
0.950856 0.145586 2.599000 94 51 40
0.950856 0.150135 2.599000 97 61 46
0.958173 0.155875 2.619000 101 67 57
0.965490 0.161685 2.639000 98 75 68
0.995856 0.171535 2.722000 96 75 73
1.011588 0.179085 2.765000 94 75 78
1.011588 0.183925 2.765000 92 69 67
1.020002 0.190335 2.788000 90 60 56
1.020002 0.195216 2.788000 89 64 64
1.020002 0.200096 2.788000 88 64 72
1.020002 0.204977 2.788000 88 63 74
1.020002 0.209857 2.788000 90 63 77
1.020002 0.214737 2.788000 93 64 72
1.020002 0.219618 2.788000 95 58 67
1.020002 0.224498 2.788000 97 55 67
1.020002 0.229379 2.788000 91 54 67
1.011588 0.232326 2.765000 86 55 71
1.011588 0.237167 2.765000 83 57 75
1.011588 0.242007 2.765000 80 59 68
1.011588 0.246847 2.765000 81 60 61
1.011588 0.251687 2.765000 82 59 68
1.011588 0.256527 2.765000 84 56 75
1.011588 0.261367 2.765000 87 57 72
1.011588 0.266207 2.765000 87 59 69
1.011588 0.271047 2.765000 87 59 76
1.011588 0.275888 2.765000 86 60 83
1.011588 0.280728 2.765000 85 64 80
1.011588 0.285568 2.765000 84 62 78
1.011588 0.290408 2.765000 84 62 77
1.011588 0.295248 2.765000 85 64 75
1.011588 0.300088 2.765000 86 63 78
1.011588 0.304928 2.765000 86 64 81
1.011588 0.309769 2.765000 87 62 77
1.020002 0.317226 2.788000 88 60 74
1.020002 0.322106 2.788000 90 62 72
1.020002 0.326986 2.788000 93 64 69
1.020002 0.331867 2.788000 96 65 69
1.011588 0.333969 2.765000 92 67 69
1.011588 0.338809 2.765000 89 60 73
1.020002 0.346508 2.788000 87 57 77
1.011588 0.348490 2.765000 85 56 79
1.020002 0.356269 2.788000 84 57 81
1.020002 0.361149 2.788000 83 60 75
1.020002 0.366030 2.788000 85 65 69
1.020002 0.370910 2.788000 88 64 69
1.020002 0.375791 2.788000 91 62 70
1.011588 0.377530 2.765000 95 63 71
1.011588 0.382371 2.765000 91 66 73
1.011588 0.387211 2.765000 88 63 72
1.011588 0.392051 2.765000 89 60 72
1.011588 0.396891 2.765000 91 58 74
1.011588 0.401731 2.765000 98 60 76
1.011588 0.406571 2.765000 105 59 74
1.011588 0.411411 2.765000 98 59 73
1.011588 0.416251 2.765000 92 58 73
1.011588 0.421092 2.765000 89 60 73
1.020002 0.429475 2.788000 87 57 73
1.020002 0.434355 2.788000 86 57 73
1.020002 0.439236 2.788000 86 56 75
1.020002 0.444116 2.788000 84 57 77
1.020002 0.448996 2.788000 83 55 77
1.020002 0.453877 2.788000 74 56 78
1.020002 0.458757 2.788000 65 58 70
1.020002 0.463638 2.788000 77 60 62
1.020002 0.468518 2.788000 90 56 57
1.020002 0.473398 2.788000 83 55 52
1.020002 0.478279 2.788000 76 53 54
1.011588 0.479173 2.765000 78 49 56
1.011588 0.484013 2.765000 80 51 58
1.020002 0.492920 2.788000 79 55 60
1.020002 0.497800 2.788000 79 54 55
1.011588 0.498534 2.765000 78 52 50
1.011588 0.503374 2.765000 78 53 53
1.020002 0.512442 2.788000 77 56 56
1.028051 0.521404 2.810000 77 51 50
1.020002 0.522202 2.788000 77 47 44
1.020002 0.527083 2.788000 77 47 50
1.020002 0.531963 2.788000 77 46 57
1.020002 0.536843 2.788000 77 47 57
1.020002 0.541724 2.788000 75 49 58
1.020002 0.546604 2.788000 74 50 57
1.011588 0.546935 2.765000 65 52 57
1.011588 0.551775 2.765000 56 50 56
1.011588 0.556615 2.765000 61 47 55
1.011588 0.561456 2.765000 67 48 51
1.003539 0.561790 2.743000 66 49 46
1.003539 0.566592 2.743000 65 43 49
1.003539 0.571393 2.743000 68 38 53
1.003539 0.576195 2.743000 71 44 48
1.003539 0.580996 2.743000 69 47 44
1.011588 0.590496 2.765000 67 46 42
1.011588 0.595336 2.765000 67 45 39
1.011588 0.600177 2.765000 68 41 37
1.011588 0.605017 2.765000 68 38 35
1.011588 0.609857 2.765000 68 40 47
1.011588 0.614697 2.765000 66 42 59
1.011588 0.619537 2.765000 64 40 50
1.011588 0.624377 2.765000 63 43 41
1.003539 0.624211 2.743000 62 40 49
1.003539 0.629013 2.743000 63 40 57
1.003539 0.633814 2.743000 64 40 53
1.003539 0.638616 2.743000 68 41 48
1.011588 0.648578 2.765000 73 40 47
1.011588 0.653418 2.765000 67 40 47
1.011588 0.658258 2.765000 61 42 47
1.020002 0.668614 2.788000 68 45 48
1.020002 0.673494 2.788000 76 42 43
1.011588 0.672779 2.765000 65 34 38
1.020002 0.683255 2.788000 55 30 36
1.011588 0.682459 2.765000 50 25 34
1.011588 0.687299 2.765000 46 25 22
1.011588 0.692139 2.765000 43 20 11
1.011588 0.696979 2.765000 40 18 17
1.011588 0.701819 2.765000 35 17 24
1.011588 0.706660 2.765000 31 17 27
1.011588 0.711500 2.765000 36 16 31
1.011588 0.716340 2.765000 42 17 25
1.011588 0.721180 2.765000 37 14 19
1.011588 0.726020 2.765000 33 12 14
1.020002 0.736940 2.788000 25 10 9
1.020002 0.741820 2.788000 17 8 10
1.011588 0.740540 2.765000 15 8 11
1.011588 0.745381 2.765000 14 10 6
1.003539 0.744251 2.743000 16 12 2
1.003539 0.749053 2.743000 18 10 5
1.003539 0.753855 2.743000 17 12 8
1.003539 0.758656 2.743000 17 13 10
0.980490 0.745923 2.680000 19 14 12
0.743782 0.697518 2.033000 41 26 14
0.743782 0.701077 2.033000 50 23 12
0.743782 0.704636 2.033000 60 15 12
0.743782 0.708195 2.033000 64 5 13
0.739392 0.707552 2.021000 69 30 29
0.735002 0.706868 2.009000 109 89 45
0.730977 0.706495 1.998000 150 98 86
0.722563 0.701819 1.975000 144 142 127
0.722563 0.705277 1.975000 138 118 136
0.718538 0.704786 1.964000 139 105 146
0.714148 0.703897 1.952000 141 107 141
0.714148 0.707314 1.952000 144 109 137
0.710124 0.706726 1.941000 148 112 140
0.710124 0.710124 1.941000 151 117 144
0.698416 0.701758 1.909000 155 121 151
0.694758 0.701406 1.899000 155 130 159
0.690733 0.700648 1.888000 156 128 161
0.687075 0.700225 1.878000 156 127 163
0.683416 0.699766 1.868000 157 131 162
0.676099 0.695509 1.848000 151 140 162
0.676099 0.698744 1.848000 145 137 166
0.676099 0.701979 1.848000 155 132 171
0.672441 0.701397 1.838000 166 133 175
0.668782 0.700781 1.828000 169 139 179
0.661831 0.696664 1.809000 173 138 179
0.654880 0.692480 1.790000 177 136 179
0.651587 0.692116 1.781000 181 138 180
0.927467 -0.211993 2.523000 102 49 44
0.927467 -0.207576 2.523000 105 52 32
0.927467 -0.203159 2.523000 109 51 23
0.927467 -0.198743 2.523000 105 58 14
0.927467 -0.194326 2.523000 101 69 34
0.927467 -0.189910 2.523000 137 87 54
0.934452 -0.186890 2.542000 173 132 104
0.948421 -0.185168 2.580000 165 135 155
0.948421 -0.180652 2.580000 156 100 86
0.948421 -0.176135 2.580000 111 58 17
0.948421 -0.171619 2.580000 65 37 22
0.948421 -0.009033 2.580000 108 67 23
0.948421 -0.004516 2.580000 107 66 21
0.948421 -0.000000 2.580000 107 65 27
0.948421 0.004516 2.580000 106 60 33
0.948421 0.009033 2.580000 105 58 36
0.948421 0.013549 2.580000 108 56 40
0.948421 0.018065 2.580000 111 54 37
0.948421 0.022581 2.580000 107 53 34
0.948421 0.027098 2.580000 103 55 27
0.948421 0.031614 2.580000 104 54 21
0.948421 0.036130 2.580000 106 55 14
0.948421 0.040647 2.580000 108 51 8
0.948421 0.045163 2.580000 110 50 13
0.948421 0.049679 2.580000 106 48 19
0.948421 0.054196 2.580000 102 47 10
0.948421 0.058712 2.580000 100 50 2
0.948421 0.063228 2.580000 97 54 12
0.948421 0.067744 2.580000 99 48 23
0.955405 0.072793 2.599000 102 46 18
0.955405 0.077342 2.599000 100 46 14
0.948421 0.081293 2.580000 99 48 16
0.948421 0.085810 2.580000 105 47 18
0.948421 0.090326 2.580000 112 44 17
0.948421 0.094842 2.580000 104 43 17
0.948421 0.099358 2.580000 97 41 21
0.948421 0.103875 2.580000 99 43 26
0.948421 0.108391 2.580000 102 46 17
0.948421 0.112907 2.580000 101 44 9
0.948421 0.117424 2.580000 100 45 17
0.948421 0.121940 2.580000 98 43 25
0.948421 0.126456 2.580000 97 42 18
0.948421 0.130972 2.580000 100 43 12
0.948421 0.135489 2.580000 103 45 25
0.955405 0.141036 2.599000 100 46 38
0.955405 0.145586 2.599000 97 47 41
0.955405 0.150135 2.599000 101 57 45
0.955405 0.154685 2.599000 105 66 55
0.962758 0.160460 2.619000 101 72 65
0.977462 0.167565 2.659000 97 76 74
1.008341 0.177660 2.743000 95 73 83
1.008341 0.182462 2.743000 92 71 79
1.024883 0.190335 2.788000 91 66 76
1.016428 0.193605 2.765000 90 65 75
1.016428 0.198445 2.765000 91 65 74
1.016428 0.203286 2.765000 92 64 79
1.016428 0.208126 2.765000 91 65 84
1.016428 0.212966 2.765000 91 68 76
1.016428 0.217806 2.765000 92 59 68
1.016428 0.222646 2.765000 93 54 68
1.016428 0.227486 2.765000 90 54 68
1.016428 0.232326 2.765000 87 55 74
1.016428 0.237167 2.765000 85 57 80
1.016428 0.242007 2.765000 82 59 67
1.008341 0.244883 2.743000 82 60 54
1.016428 0.251687 2.765000 82 62 68
1.016428 0.256527 2.765000 85 57 82
1.016428 0.261367 2.765000 87 56 79
1.016428 0.266207 2.765000 90 58 76
1.016428 0.271047 2.765000 92 63 84
1.016428 0.275888 2.765000 89 63 92
1.016428 0.280728 2.765000 87 70 85
1.016428 0.285568 2.765000 88 67 78
1.008341 0.288097 2.743000 90 68 77
1.008341 0.292899 2.743000 88 64 77
1.008341 0.297701 2.743000 87 62 81
1.016428 0.304928 2.765000 87 63 85
1.016428 0.309769 2.765000 88 64 81
1.016428 0.314609 2.765000 88 62 77
1.016428 0.319449 2.765000 88 64 82
1.016428 0.324289 2.765000 90 62 87
1.024883 0.331867 2.788000 92 62 77
1.016428 0.333969 2.765000 91 62 68
1.016428 0.338809 2.765000 90 60 72
1.016428 0.343649 2.765000 88 55 77
1.016428 0.348490 2.765000 87 55 83
1.016428 0.353330 2.765000 86 57 89
1.016428 0.358170 2.765000 85 62 80
1.016428 0.363010 2.765000 86 61 72
1.016428 0.367850 2.765000 87 62 72
1.024883 0.375791 2.788000 87 61 72
1.016428 0.377530 2.765000 86 61 75
1.016428 0.382371 2.765000 86 63 79
1.016428 0.387211 2.765000 87 61 77
1.008341 0.388931 2.743000 88 58 76
1.016428 0.396891 2.765000 90 54 79
1.016428 0.401731 2.765000 94 56 82
1.016428 0.406571 2.765000 98 56 78
1.016428 0.411411 2.765000 94 56 74
1.016428 0.416251 2.765000 90 57 75
1.016428 0.421092 2.765000 88 56 76
1.016428 0.425932 2.765000 86 54 76
1.016428 0.430772 2.765000 84 55 76
1.016428 0.435612 2.765000 82 55 76
1.016428 0.440452 2.765000 85 55 76
1.024883 0.448996 2.788000 88 56 75
1.024883 0.453877 2.788000 80 59 74
1.024883 0.458757 2.788000 73 61 70
1.024883 0.463638 2.788000 79 58 66
1.024883 0.468518 2.788000 86 55 61
1.016428 0.469493 2.765000 83 56 57
1.016428 0.474333 2.765000 79 57 56
1.016428 0.479173 2.765000 79 51 56
1.008341 0.480162 2.743000 80 51 59
1.008341 0.484964 2.743000 79 53 62
1.008341 0.489765 2.743000 78 55 60
1.008341 0.494567 2.743000 79 51 59
1.016428 0.503374 2.765000 81 49 59
1.016428 0.508214 2.765000 78 51 59
1.016428 0.513054 2.765000 75 53 54
1.016428 0.517894 2.765000 72 50 49
1.016428 0.522734 2.765000 69 50 49
1.024883 0.531963 2.788000 72 49 50
1.024883 0.536843 2.788000 75 47 53
1.024883 0.541724 2.788000 75 48 57
1.016428 0.542095 2.765000 74 49 58
1.016428 0.546935 2.765000 69 48 59
1.016428 0.551775 2.765000 64 49 57
1.016428 0.556615 2.765000 65 49 55
1.016428 0.561456 2.765000 67 52 51
1.008341 0.561790 2.743000 69 49 47
1.008341 0.566592 2.743000 71 46 58
1.008341 0.571393 2.743000 75 42 69
1.008341 0.576195 2.743000 80 45 57
1.008341 0.580996 2.743000 75 46 45
1.008341 0.585798 2.743000 70 46 41
1.008341 0.590600 2.743000 70 44 38
1.008341 0.595401 2.743000 70 42 32
1.008341 0.600203 2.743000 72 38 27
1.008341 0.605004 2.743000 75 39 46
1.008341 0.609806 2.743000 65 41 65
1.008341 0.614608 2.743000 55 42 49
1.008341 0.619409 2.743000 58 41 34
1.008341 0.624211 2.743000 62 39 51
1.008341 0.629013 2.743000 63 40 68
1.008341 0.633814 2.743000 64 42 59
1.008341 0.638616 2.743000 66 42 50
1.008341 0.643417 2.743000 69 43 49
1.008341 0.648219 2.743000 65 42 49
1.008341 0.653021 2.743000 62 43 49
1.008341 0.657822 2.743000 66 46 49
1.016428 0.667938 2.765000 70 50 45
1.016428 0.672779 2.765000 64 39 41
1.016428 0.677619 2.765000 58 31 35
1.016428 0.682459 2.765000 53 28 30
1.008341 0.681830 2.743000 48 29 17
1.008341 0.686632 2.743000 45 23 5
1.016428 0.696979 2.765000 43 17 16
1.008341 0.696235 2.743000 40 17 27
1.008341 0.701037 2.743000 38 18 34
1.008341 0.705838 2.743000 44 18 41
1.008341 0.710640 2.743000 50 19 31
1.016428 0.721180 2.765000 41 14 22
1.016428 0.726020 2.765000 32 10 13
1.016428 0.730860 2.765000 25 9 4
1.016428 0.735700 2.765000 18 9 4
1.016428 0.740540 2.765000 16 10 5
1.008341 0.739450 2.743000 14 9 4
1.008341 0.744251 2.743000 14 9 3
1.000621 0.743318 2.722000 14 7 4
1.000621 0.748083 2.722000 12 10 6
1.000621 0.752848 2.722000 10 13 10
0.985181 0.745923 2.680000 20 11 14
0.985181 0.750615 2.680000 31 12 26
0.740724 0.691343 2.015000 38 28 5
0.747341 0.701077 2.033000 43 25 2
0.747341 0.704636 2.033000 49 28 14
0.747341 0.708195 2.033000 48 14 26
0.742930 0.707552 2.021000 47 1 13
0.738519 0.706868 2.009000 84 33 1
0.734475 0.706495 1.998000 121 44 60
0.730064 0.705728 1.986000 129 106 120
0.721976 0.701349 1.964000 138 122 136
0.721976 0.704786 1.964000 138 117 152
0.717565 0.703897 1.952000 139 107 143
0.717565 0.707314 1.952000 141 107 135
0.713521 0.706726 1.941000 144 110 140
0.709845 0.706465 1.931000 148 111 145
0.705802 0.705802 1.920000 152 114 148
0.701758 0.705100 1.909000 154 124 151
0.694038 0.700648 1.888000 156 128 155
0.690362 0.700225 1.878000 156 125 160
0.683010 0.696020 1.858000 157 124 160
0.679334 0.695509 1.848000 154 133 160
0.679334 0.698744 1.848000 151 137 164
0.679334 0.701979 1.848000 158 131 169
0.675658 0.701397 1.838000 165 126 174
0.671982 0.700781 1.828000 168 131 179
0.661689 0.693198 1.800000 170 137 178
0.661689 0.696349 1.800000 173 137 178
0.658013 0.695614 1.790000 175 138 177
0.931884 -0.211993 2.523000 101 54 38
0.931884 -0.207576 2.523000 105 51 33
0.925236 -0.201710 2.505000 109 53 23
0.925236 -0.197325 2.505000 103 63 13
0.931884 -0.194326 2.523000 98 73 51
0.931884 -0.189910 2.523000 140 86 88
0.931884 -0.185493 2.523000 182 131 121
0.938902 -0.182441 2.542000 164 151 153
0.945550 -0.179251 2.560000 147 81 81
0.945550 -0.174770 2.560000 115 32 9
0.952937 -0.171619 2.580000 84 42 17
0.945550 -0.008962 2.560000 112 63 19
0.945550 -0.004481 2.560000 110 64 14
0.945550 -0.000000 2.560000 108 62 27
0.938902 0.004450 2.542000 107 59 40
0.945550 0.008963 2.560000 107 58 38
0.945550 0.013444 2.560000 112 57 37
0.945550 0.017925 2.560000 117 54 37
0.945550 0.022406 2.560000 112 50 37
0.945550 0.026888 2.560000 107 53 36
0.945550 0.031369 2.560000 106 54 35
0.945550 0.035850 2.560000 105 52 26
0.945550 0.040332 2.560000 105 48 18
0.945550 0.044813 2.560000 105 46 20
0.945550 0.049294 2.560000 104 42 22
0.952937 0.054196 2.580000 103 47 15
0.952937 0.058712 2.580000 102 54 8
0.952937 0.063228 2.580000 101 51 15
0.952937 0.067744 2.580000 102 49 22
0.952937 0.072261 2.580000 103 47 18
0.952937 0.076777 2.580000 102 43 15
0.952937 0.081293 2.580000 101 45 17
0.945550 0.085144 2.560000 104 45 19
0.952937 0.090326 2.580000 107 46 20
0.945550 0.094107 2.560000 105 45 21
0.945550 0.098588 2.560000 103 45 27
0.945550 0.103070 2.560000 102 45 34
0.945550 0.107551 2.560000 102 44 25
0.945550 0.112032 2.560000 101 40 17
0.945550 0.116513 2.560000 100 41 22
0.952937 0.121940 2.580000 96 39 27
0.952937 0.126456 2.580000 93 41 26
0.952937 0.130972 2.580000 98 41 25
0.952937 0.135489 2.580000 103 43 32
0.952937 0.140005 2.580000 102 47 38
0.952937 0.144521 2.580000 101 50 41
0.952937 0.149038 2.580000 105 57 45
0.952937 0.153554 2.580000 109 65 55
0.959955 0.159234 2.599000 104 73 65
0.967342 0.165044 2.619000 99 73 72
0.997629 0.174940 2.701000 96 72 79
1.013142 0.182462 2.743000 93 69 75
1.021268 0.188765 2.765000 92 68 70
1.021268 0.193605 2.765000 91 66 64
1.021268 0.198445 2.765000 93 68 59
1.013142 0.201668 2.743000 96 64 65
1.021268 0.208126 2.765000 93 65 71
1.021268 0.212966 2.765000 90 63 67
1.021268 0.217806 2.765000 90 59 64
1.021268 0.222646 2.765000 90 56 65
1.021268 0.227486 2.765000 89 55 66
1.013142 0.230478 2.743000 89 55 70
1.013142 0.235280 2.743000 87 58 75
1.021268 0.242007 2.765000 85 58 67
1.021268 0.246847 2.765000 84 60 59
1.021268 0.251687 2.765000 83 57 67
1.021268 0.256527 2.765000 85 54 74
1.021268 0.261367 2.765000 88 54 73
1.021268 0.266207 2.765000 93 55 72
1.021268 0.271047 2.765000 98 58 77
1.013142 0.273693 2.743000 93 60 82
1.013142 0.278494 2.743000 89 63 79
1.013142 0.283296 2.743000 93 69 76
1.013142 0.288097 2.743000 97 64 70
1.013142 0.292899 2.743000 92 63 65
1.013142 0.297701 2.743000 88 61 72
1.013142 0.302502 2.743000 88 63 79
1.013142 0.307304 2.743000 89 62 77
1.021268 0.314609 2.765000 88 63 75
1.021268 0.319449 2.765000 87 61 78
1.021268 0.324289 2.765000 88 61 80
1.021268 0.329129 2.765000 89 60 71
1.021268 0.333969 2.765000 90 59 62
1.021268 0.338809 2.765000 91 56 66
1.021268 0.343649 2.765000 90 50 71
1.021268 0.348490 2.765000 89 54 74
1.021268 0.353330 2.765000 88 57 78
1.021268 0.358170 2.765000 87 58 72
1.021268 0.363010 2.765000 87 58 66
1.021268 0.367850 2.765000 87 59 67
1.021268 0.372690 2.765000 82 60 68
1.021268 0.377530 2.765000 78 60 71
1.013142 0.379328 2.743000 82 64 75
1.013142 0.384130 2.743000 86 61 72
1.013142 0.388931 2.743000 88 60 70
1.013142 0.393733 2.743000 90 57 69
1.013142 0.398535 2.743000 91 56 69
1.013142 0.403336 2.743000 92 55 70
1.021268 0.411411 2.765000 90 54 71
1.013142 0.412939 2.743000 89 54 72
1.013142 0.417741 2.743000 87 54 74
1.021268 0.425932 2.765000 85 55 74
1.021268 0.430772 2.765000 82 55 73
1.021268 0.435612 2.765000 79 55 75
1.021268 0.440452 2.765000 86 55 76
1.021268 0.445292 2.765000 94 57 77
1.021268 0.450132 2.765000 87 63 77
1.021268 0.454973 2.765000 81 60 71
1.021268 0.459813 2.765000 82 58 65
1.021268 0.464653 2.765000 83 57 62
1.013142 0.465757 2.743000 83 57 60
1.021268 0.474333 2.765000 83 54 58
1.013142 0.475361 2.743000 81 49 56
1.013142 0.480162 2.743000 80 51 56
1.013142 0.484964 2.743000 78 54 57
1.013142 0.489765 2.743000 77 51 54
1.005386 0.490781 2.722000 80 49 51
1.013142 0.499369 2.743000 84 48 60
1.013142 0.504170 2.743000 79 46 69
1.021268 0.513054 2.765000 74 50 61
1.021268 0.517894 2.765000 68 53 53
1.021268 0.522734 2.765000 62 51 52
1.021268 0.527575 2.765000 68 54 52
1.021268 0.532415 2.765000 74 51 58
1.021268 0.537255 2.765000 74 49 65
1.021268 0.542095 2.765000 75 47 62
1.021268 0.546935 2.765000 74 44 59
1.013142 0.547385 2.743000 73 47 55
1.013142 0.552187 2.743000 70 49 52
1.013142 0.556988 2.743000 67 49 49
1.013142 0.561790 2.743000 72 51 46
1.013142 0.566592 2.743000 77 46 52
1.013142 0.571393 2.743000 83 42 59
1.013142 0.576195 2.743000 89 44 52
1.013142 0.580996 2.743000 81 47 46
1.013142 0.585798 2.743000 73 45 43
1.013142 0.590600 2.743000 73 44 40
1.021268 0.600177 2.765000 73 41 37
1.013142 0.600203 2.743000 77 36 33
1.013142 0.605004 2.743000 82 39 45
1.013142 0.609806 2.743000 64 41 58
1.013142 0.614608 2.743000 47 42 49
1.021268 0.624377 2.765000 54 42 41
1.013142 0.624211 2.743000 62 40 49
1.013142 0.629013 2.743000 63 39 57
1.013142 0.633814 2.743000 64 41 52
1.013142 0.638616 2.743000 64 42 47
1.013142 0.643417 2.743000 65 42 46
1.013142 0.648219 2.743000 64 43 46
1.013142 0.653021 2.743000 64 43 47
1.013142 0.657822 2.743000 64 47 48
1.013142 0.662624 2.743000 65 45 50
1.013142 0.667426 2.743000 63 43 51
1.013142 0.672227 2.743000 61 33 41
1.013142 0.677029 2.743000 55 29 31
1.013142 0.681830 2.743000 50 29 23
1.013142 0.686632 2.743000 48 26 15
1.013142 0.691434 2.743000 47 21 19
1.005386 0.690905 2.722000 46 19 24
1.005386 0.695670 2.722000 45 17 27
1.005386 0.700435 2.722000 52 19 30
1.005386 0.705200 2.722000 59 19 26
1.013142 0.715442 2.743000 45 13 23
1.013142 0.720243 2.743000 31 10 15
1.021268 0.730860 2.765000 25 7 7
1.021268 0.735700 2.765000 19 10 7
1.013142 0.734648 2.743000 16 14 7
1.013142 0.739450 2.743000 14 9 4
1.005386 0.738554 2.722000 12 8 2
1.005386 0.743318 2.722000 11 8 4
1.005386 0.748083 2.722000 7 9 5
1.005386 0.752848 2.722000 3 9 8
0.989873 0.745923 2.680000 22 7 11
0.982116 0.744733 2.659000 41 11 19
0.737972 0.685510 1.998000 36 26 10
0.737972 0.689007 1.998000 37 21 10
0.750900 0.704636 2.033000 38 23 16
0.750900 0.708195 2.033000 31 24 23
0.746467 0.707552 2.021000 25 11 13
0.737972 0.702997 1.998000 58 1 2
0.733540 0.702252 1.986000 92 41 31
0.729477 0.701819 1.975000 115 119 60
0.720982 0.697063 1.952000 139 107 93
0.720982 0.700480 1.952000 138 136 126
0.720982 0.703897 1.952000 137 117 133
0.716919 0.703328 1.941000 138 104 140
0.716919 0.706726 1.941000 140 106 141
0.713225 0.706465 1.931000 145 104 141
0.709163 0.705802 1.920000 150 111 143
0.701406 0.701406 1.899000 153 125 146
0.697343 0.700648 1.888000 156 124 156
0.689956 0.696496 1.868000 157 121 167
0.689956 0.699766 1.868000 158 123 163
0.686262 0.699272 1.858000 158 131 160
0.686262 0.702525 1.858000 158 132 163
0.682569 0.701979 1.848000 161 132 167
0.678875 0.701397 1.838000 165 126 172
0.675182 0.700781 1.828000 166 125 177
0.671858 0.700515 1.819000 168 131 176
0.664840 0.696349 1.800000 169 138 176
0.661146 0.695614 1.790000 170 137 176
0.936301 -0.211993 2.523000 103 55 33
0.936301 -0.207576 2.523000 103 52 34
0.929621 -0.201710 2.505000 104 49 23
0.929621 -0.197325 2.505000 109 49 13
0.929621 -0.192940 2.505000 115 77 68
0.929621 -0.188555 2.505000 153 107 123
0.936301 -0.185493 2.523000 192 158 137
0.936301 -0.181077 2.523000 153 123 152
0.950032 -0.179251 2.560000 115 42 77
0.943352 -0.173541 2.542000 102 36 2
0.950032 -0.170289 2.560000 89 50 13
0.943352 -0.013349 2.542000 116 59 23
0.943352 -0.008899 2.542000 108 59 15
0.943352 -0.004450 2.542000 107 61 8
0.943352 -0.000000 2.542000 106 63 27
0.943352 0.004450 2.542000 106 60 47
0.943352 0.008900 2.542000 106 58 40
0.943352 0.013349 2.542000 106 57 34
0.943352 0.017799 2.542000 107 55 37
0.943352 0.022249 2.542000 106 53 41
0.943352 0.026699 2.542000 104 56 45
0.950032 0.031369 2.560000 101 54 49
0.950032 0.035850 2.560000 98 54 38
0.950032 0.040332 2.560000 105 49 28
0.950032 0.044813 2.560000 113 44 27
0.950032 0.049294 2.560000 108 45 26
0.950032 0.053775 2.560000 104 48 20
0.957454 0.058712 2.580000 103 50 14
0.957454 0.063228 2.580000 103 48 17
0.957454 0.067744 2.580000 106 49 21
0.957454 0.072261 2.580000 110 50 19
0.957454 0.076777 2.580000 105 45 17
0.950032 0.080663 2.560000 101 44 19
0.950032 0.085144 2.560000 103 47 21
0.950032 0.089626 2.560000 105 50 23
0.943352 0.093445 2.542000 103 49 25
0.950032 0.098588 2.560000 102 49 33
0.943352 0.102345 2.542000 103 46 42
0.943352 0.106795 2.542000 104 46 34
0.943352 0.111244 2.542000 101 43 26
0.950032 0.116513 2.560000 99 42 28
0.950032 0.120995 2.560000 97 43 30
0.943352 0.124594 2.542000 96 44 34
0.950032 0.129957 2.560000 98 43 39
0.950032 0.134438 2.560000 100 41 39
0.950032 0.138920 2.560000 100 45 39
0.950032 0.143401 2.560000 101 49 42
0.950032 0.147882 2.560000 102 55 45
0.950032 0.152364 2.560000 104 64 55
0.950032 0.156845 2.560000 102 70 65
0.964505 0.163784 2.599000 99 74 70
1.010151 0.176300 2.722000 96 70 76
1.010151 0.181065 2.722000 93 67 70
1.017944 0.187263 2.743000 92 64 65
1.017944 0.192065 2.743000 91 64 54
1.017944 0.196866 2.743000 91 64 44
1.017944 0.201668 2.743000 91 62 51
1.017944 0.206470 2.743000 87 63 58
1.017944 0.211271 2.743000 83 63 59
1.017944 0.216073 2.743000 85 59 61
1.017944 0.220875 2.743000 88 57 62
1.017944 0.225676 2.743000 88 55 64
1.017944 0.230478 2.743000 88 55 67
1.017944 0.235280 2.743000 88 55 71
1.017944 0.240081 2.743000 89 55 68
1.017944 0.244883 2.743000 87 55 65
1.026108 0.251687 2.765000 84 54 66
1.026108 0.256527 2.765000 84 53 67
1.017944 0.259288 2.743000 85 51 67
1.017944 0.264089 2.743000 88 52 68
1.017944 0.268891 2.743000 92 57 70
1.017944 0.273693 2.743000 88 58 73
1.010151 0.276362 2.722000 85 56 73
1.010151 0.281127 2.722000 87 57 74
1.010151 0.285892 2.722000 90 58 64
1.010151 0.290657 2.722000 86 57 54
1.010151 0.295422 2.722000 81 58 63
1.010151 0.300186 2.722000 83 59 73
1.017944 0.307304 2.743000 86 60 73
1.017944 0.312105 2.743000 85 59 74
1.017944 0.316907 2.743000 85 56 74
1.017944 0.321709 2.743000 86 57 74
1.017944 0.326510 2.743000 87 59 65
1.017944 0.331312 2.743000 88 57 57
1.017944 0.336114 2.743000 89 55 61
1.026108 0.343649 2.765000 89 52 65
1.026108 0.348490 2.765000 88 54 66
1.026108 0.353330 2.765000 87 56 67
1.026108 0.358170 2.765000 86 56 64
1.026108 0.363010 2.765000 87 57 61
1.026108 0.367850 2.765000 87 58 62
1.026108 0.372690 2.765000 84 56 64
1.017944 0.374527 2.743000 81 55 67
1.017944 0.379328 2.743000 85 58 71
1.017944 0.384130 2.743000 89 60 67
1.017944 0.388931 2.743000 89 61 64
1.017944 0.393733 2.743000 88 61 60
1.017944 0.398535 2.743000 88 57 57
1.017944 0.403336 2.743000 88 55 62
1.017944 0.408138 2.743000 84 54 68
1.017944 0.412939 2.743000 81 54 70
1.017944 0.417741 2.743000 83 55 73
1.017944 0.422543 2.743000 86 59 72
1.017944 0.427344 2.743000 84 55 71
1.017944 0.432146 2.743000 81 58 74
1.017944 0.436948 2.743000 86 55 77
1.017944 0.441749 2.743000 90 54 79
1.026108 0.450132 2.765000 86 59 81
1.026108 0.454973 2.765000 82 60 73
1.026108 0.459813 2.765000 83 59 65
1.026108 0.464653 2.765000 84 60 64
1.017944 0.465757 2.743000 87 56 63
1.017944 0.470559 2.743000 89 54 59
1.017944 0.475361 2.743000 85 52 56
1.010151 0.476486 2.722000 80 53 54
1.010151 0.481251 2.722000 75 51 53
1.017944 0.489765 2.743000 69 48 48
1.010151 0.490781 2.722000 74 49 44
1.010151 0.495546 2.722000 80 48 61
1.010151 0.500311 2.722000 77 48 79
1.017944 0.508972 2.743000 74 51 68
1.017944 0.513774 2.743000 69 50 58
1.026108 0.522734 2.765000 65 50 56
1.026108 0.527575 2.765000 69 52 54
1.026108 0.532415 2.765000 73 54 64
1.026108 0.537255 2.765000 75 50 74
1.026108 0.542095 2.765000 76 47 66
1.017944 0.542583 2.743000 77 46 59
1.017944 0.547385 2.743000 79 46 54
1.017944 0.552187 2.743000 73 46 50
1.010151 0.552724 2.722000 67 47 48
1.010151 0.557489 2.722000 70 47 46
1.010151 0.562254 2.722000 73 47 47
1.010151 0.567019 2.722000 76 45 49
1.010151 0.571783 2.722000 80 44 48
1.017944 0.580996 2.743000 75 44 47
1.010151 0.581313 2.722000 71 44 45
1.017944 0.590600 2.743000 71 43 43
1.017944 0.595401 2.743000 70 42 41
1.017944 0.600203 2.743000 72 40 40
1.017944 0.605004 2.743000 74 43 45
1.017944 0.609806 2.743000 63 43 51
1.017944 0.614608 2.743000 53 44 49
1.017944 0.619409 2.743000 58 41 48
1.017944 0.624211 2.743000 62 40 47
1.017944 0.629013 2.743000 63 41 46
1.017944 0.633814 2.743000 64 44 45
1.010151 0.633727 2.722000 64 42 44
1.010151 0.638492 2.722000 63 41 44
1.010151 0.643256 2.722000 62 42 44
1.010151 0.648021 2.722000 61 42 46
1.017944 0.657822 2.743000 61 43 48
1.017944 0.662624 2.743000 61 43 55
1.017944 0.667426 2.743000 59 39 62
1.017944 0.672227 2.743000 57 30 47
1.017944 0.677029 2.743000 54 31 32
1.017944 0.681830 2.743000 50 34 28
1.010151 0.681375 2.722000 47 28 25
1.010151 0.686140 2.722000 45 22 23
1.010151 0.690905 2.722000 42 20 21
1.010151 0.695670 2.722000 40 15 20
1.010151 0.700435 2.722000 45 19 19
1.010151 0.705200 2.722000 50 25 22
1.010151 0.709964 2.722000 42 16 25
1.010151 0.714729 2.722000 33 10 18
1.002357 0.713943 2.701000 29 10 11
1.002357 0.718672 2.701000 24 12 10
1.002357 0.723400 2.701000 21 10 9
1.002357 0.728128 2.701000 17 7 5
1.002357 0.732856 2.701000 17 8 2
1.002357 0.737584 2.701000 16 9 3
1.010151 0.748083 2.722000 14 8 5
1.010151 0.752848 2.722000 11 8 7
1.002357 0.751768 2.701000 23 8 9
0.994564 0.750615 2.680000 34 9 13
0.986771 0.749388 2.659000 27 12 17
0.747779 0.694870 2.015000 35 23 18
0.750005 0.700477 2.021000 34 22 19
0.750005 0.704014 2.021000 33 22 21
0.750005 0.707552 2.021000 32 21 12
0.743325 0.704757 2.003000 48 13 4
0.737017 0.702252 1.986000 65 1 2
0.728852 0.697910 1.964000 91 44 1
0.724399 0.697063 1.952000 117 51 51
0.724399 0.700480 1.952000 127 107 101
0.724399 0.703897 1.952000 137 124 123
0.720317 0.703328 1.941000 138 121 146
0.720317 0.706726 1.941000 139 107 142
0.712524 0.702441 1.920000 144 104 138
0.708441 0.701758 1.909000 149 101 139
0.704730 0.701406 1.899000 151 117 141
0.696937 0.696937 1.878000 153 124 158
0.696937 0.700225 1.878000 154 122 175
0.693226 0.699766 1.868000 156 119 167
0.689515 0.699272 1.858000 156 125 160
0.689515 0.702525 1.858000 157 129 163
0.685804 0.701979 1.848000 160 128 166
0.682093 0.701397 1.838000 163 124 170
0.678382 0.700781 1.828000 163 125 175
0.675042 0.700515 1.819000 164 127 175
0.667991 0.696349 1.800000 165 133 175
0.664280 0.695614 1.790000 166 138 174
0.940717 -0.211993 2.523000 105 54 32
0.934006 -0.206095 2.505000 102 54 35
0.934006 -0.201710 2.505000 99 34 25
0.934006 -0.197325 2.505000 116 8 15
0.934006 -0.192940 2.505000 133 77 77
0.934006 -0.188555 2.505000 167 109 138
0.934006 -0.184170 2.505000 202 136 130
0.940717 -0.181077 2.523000 142 141 123
0.940717 -0.176660 2.523000 83 53 62
0.947801 -0.173541 2.542000 88 21 1
0.954513 -0.170289 2.560000 94 43 12
0.947801 -0.013349 2.542000 108 55 31
0.947801 -0.008899 2.542000 104 57 24
0.947801 -0.004450 2.542000 104 60 17
0.940717 -0.000000 2.523000 105 61 26
0.940717 0.004417 2.523000 105 62 36
0.940717 0.008833 2.523000 105 58 35
0.940717 0.013250 2.523000 101 58 34
0.940717 0.017666 2.523000 98 55 37
0.940717 0.022083 2.523000 100 53 41
0.947801 0.026699 2.542000 102 54 40
0.940717 0.030916 2.523000 97 55 39
0.940717 0.035332 2.523000 92 53 33
0.947801 0.040048 2.542000 106 50 26
0.947801 0.044498 2.542000 121 47 23
0.947801 0.048947 2.542000 113 46 19
0.947801 0.053397 2.542000 105 47 16
0.947801 0.057847 2.542000 105 50 14
0.947801 0.062297 2.542000 105 48 13
0.954513 0.067219 2.560000 111 49 13
0.954513 0.071701 2.560000 117 48 14
0.954513 0.076182 2.560000 109 45 15
0.954513 0.080663 2.560000 101 46 23
0.954513 0.085144 2.560000 102 49 32
0.954513 0.089626 2.560000 103 51 26
0.947801 0.093445 2.542000 102 52 21
0.947801 0.097895 2.542000 101 50 27
0.947801 0.102345 2.542000 103 44 33
0.947801 0.106795 2.542000 106 46 28
0.940717 0.110413 2.523000 102 46 23
0.947801 0.115694 2.542000 98 46 24
0.947801 0.120144 2.542000 98 48 25
0.947801 0.124594 2.542000 99 46 27
0.947801 0.129043 2.542000 98 46 30
0.947801 0.133493 2.542000 98 45 34
0.947801 0.137943 2.542000 99 46 39
0.947801 0.142393 2.542000 101 48 41
0.947801 0.146843 2.542000 100 53 44
0.947801 0.151292 2.542000 100 63 53
0.947801 0.155742 2.542000 100 71 63
0.976511 0.165044 2.619000 100 71 68
1.007086 0.174940 2.701000 97 69 74
1.014915 0.181065 2.722000 94 64 70
1.022745 0.187263 2.743000 92 58 65
1.022745 0.192065 2.743000 91 62 58
1.022745 0.196866 2.743000 89 63 51
1.022745 0.201668 2.743000 87 63 57
1.022745 0.206470 2.743000 81 65 63
1.022745 0.211271 2.743000 76 62 61
1.022745 0.216073 2.743000 81 58 60
1.022745 0.220875 2.743000 87 58 57
1.022745 0.225676 2.743000 87 56 54
1.022745 0.230478 2.743000 87 54 65
1.022745 0.235280 2.743000 90 54 75
1.022745 0.240081 2.743000 94 53 65
1.022745 0.244883 2.743000 90 52 55
1.022745 0.249684 2.743000 86 55 57
1.022745 0.254486 2.743000 84 56 60
1.022745 0.259288 2.743000 82 51 58
1.022745 0.264089 2.743000 84 47 55
1.022745 0.268891 2.743000 86 54 62
1.014915 0.271597 2.722000 83 59 69
1.014915 0.276362 2.722000 81 55 70
1.014915 0.281127 2.722000 82 48 70
1.014915 0.285892 2.722000 84 52 65
1.014915 0.290657 2.722000 79 51 60
1.014915 0.295422 2.722000 75 55 67
1.014915 0.300186 2.722000 79 55 74
1.014915 0.304951 2.722000 83 58 75
1.022745 0.312105 2.743000 83 58 77
1.022745 0.316907 2.743000 83 56 73
1.022745 0.321709 2.743000 84 54 69
1.022745 0.326510 2.743000 86 55 59
1.022745 0.331312 2.743000 87 56 50
1.022745 0.336114 2.743000 88 53 55
1.022745 0.340915 2.743000 88 51 60
1.022745 0.345717 2.743000 88 54 60
1.022745 0.350519 2.743000 87 58 61
1.030948 0.358170 2.765000 86 56 59
1.030948 0.363010 2.765000 87 58 57
1.022745 0.364923 2.743000 88 56 60
1.030948 0.372690 2.765000 86 52 64
1.022745 0.374527 2.743000 84 53 66
1.022745 0.379328 2.743000 88 54 69
1.022745 0.384130 2.743000 93 58 67
1.022745 0.388931 2.743000 90 63 66
1.022745 0.393733 2.743000 87 60 67
1.022745 0.398535 2.743000 85 58 68
1.022745 0.403336 2.743000 84 57 67
1.022745 0.408138 2.743000 78 55 67
1.014915 0.409778 2.722000 73 55 67
1.014915 0.414543 2.722000 80 56 68
1.014915 0.419308 2.722000 88 54 65
1.014915 0.424073 2.722000 86 51 62
1.014915 0.428838 2.722000 84 55 67
1.014915 0.433602 2.722000 85 56 72
1.022745 0.441749 2.743000 87 56 74
1.022745 0.446551 2.743000 85 59 76
1.022745 0.451353 2.743000 84 61 70
1.022745 0.456154 2.743000 85 61 65
1.022745 0.460956 2.743000 86 57 65
1.022745 0.465757 2.743000 91 54 65
1.022745 0.470559 2.743000 96 54 62
1.014915 0.471721 2.722000 88 53 59
1.014915 0.476486 2.722000 81 52 59
1.014915 0.481251 2.722000 71 49 59
1.014915 0.486016 2.722000 62 49 55
1.014915 0.490781 2.722000 69 51 51
1.014915 0.495546 2.722000 76 49 61
1.014915 0.500311 2.722000 75 48 71
1.022745 0.508972 2.743000 74 50 63
1.022745 0.513774 2.743000 71 49 55
1.022745 0.518575 2.743000 69 49 53
1.022745 0.523377 2.743000 71 51 51
1.022745 0.528178 2.743000 73 51 57
1.022745 0.532980 2.743000 75 50 63
1.022745 0.537782 2.743000 78 48 58
1.022745 0.542583 2.743000 81 49 53
1.014915 0.543194 2.722000 85 46 50
1.014915 0.547959 2.722000 76 44 48
1.014915 0.552724 2.722000 67 44 46
1.014915 0.557489 2.722000 68 44 44
1.014915 0.562254 2.722000 69 45 45
1.014915 0.567019 2.722000 70 49 46
1.014915 0.571783 2.722000 71 44 46
1.014915 0.576548 2.722000 70 41 45
1.022745 0.585798 2.743000 70 42 47
1.022745 0.590600 2.743000 69 42 49
1.022745 0.595401 2.743000 68 39 46
1.022745 0.600203 2.743000 67 39 43
1.022745 0.605004 2.743000 66 41 47
1.022745 0.609806 2.743000 63 44 52
1.022745 0.614608 2.743000 60 41 50
1.022745 0.619409 2.743000 61 41 49
1.022745 0.624211 2.743000 63 40 48
1.014915 0.624197 2.722000 64 41 47
1.014915 0.628962 2.722000 65 42 44
1.007086 0.628838 2.701000 63 42 41
1.007086 0.633566 2.701000 62 40 45
1.007086 0.638294 2.701000 60 42 50
1.007086 0.643022 2.701000 59 42 48
1.014915 0.652786 2.722000 58 40 47
1.014915 0.657551 2.722000 58 42 50
1.014915 0.662316 2.722000 56 42 52
1.014915 0.667081 2.722000 54 36 42
1.014915 0.671846 2.722000 52 32 32
1.014915 0.676610 2.722000 51 34 30
1.014915 0.681375 2.722000 47 30 28
1.014915 0.686140 2.722000 43 27 24
1.007086 0.685575 2.701000 39 27 20
1.007086 0.690303 2.701000 35 20 15
1.007086 0.695031 2.701000 38 17 10
1.007086 0.699759 2.701000 42 20 22
1.007086 0.704487 2.701000 39 17 34
1.007086 0.709215 2.701000 36 15 22
0.999255 0.708392 2.680000 33 12 10
0.999255 0.713084 2.680000 30 12 11
0.999255 0.717775 2.680000 25 10 13
0.999255 0.722467 2.680000 21 7 10
1.007086 0.732856 2.701000 21 8 7
1.007086 0.737584 2.701000 22 8 6
1.014915 0.748083 2.722000 21 7 5
1.014915 0.752848 2.722000 20 7 5
1.007086 0.751768 2.701000 24 8 6
1.007086 0.756496 2.701000 28 9 7
1.007086 0.761224 2.701000 23 12 9
0.991425 0.754042 2.659000 19 13 10
0.976511 0.747283 2.619000 20 17 12
0.976511 0.751868 2.619000 21 17 10
0.758017 0.701077 2.033000 34 21 17
0.758017 0.704636 2.033000 30 22 20
0.758017 0.708195 2.033000 34 24 24
0.753543 0.707552 2.021000 39 24 20
0.749069 0.706868 2.009000 39 29 16
0.727816 0.693646 1.952000 67 5 15
0.723715 0.693135 1.941000 96 43 33
0.727816 0.700480 1.952000 116 117 52
0.727816 0.703897 1.952000 137 112 93
0.723715 0.703328 1.941000 138 149 134
0.723715 0.706726 1.941000 139 121 135
0.719986 0.706465 1.931000 143 106 136
0.715885 0.705802 1.920000 148 110 138
0.708055 0.701406 1.899000 149 120 140
0.700225 0.696937 1.878000 151 120 148
0.700225 0.700225 1.878000 152 125 157
0.696496 0.699766 1.868000 154 120 155
0.696496 0.703036 1.868000 155 121 153
0.692767 0.702525 1.858000 156 129 156
0.689039 0.701979 1.848000 158 127 160
0.685310 0.701397 1.838000 161 124 165
0.681582 0.700781 1.828000 161 125 170
0.678226 0.700515 1.819000 161 128 171
0.671142 0.696349 1.800000 162 132 172
0.671142 0.699500 1.800000 163 136 172
0.945134 -0.211993 2.523000 102 53 32
0.938391 -0.206095 2.505000 100 45 36
0.938391 -0.201710 2.505000 99 25 27
0.938391 -0.197325 2.505000 123 50 18
0.938391 -0.192940 2.505000 148 117 86
0.938391 -0.188555 2.505000 167 125 154
0.938391 -0.184170 2.505000 186 136 124
0.931648 -0.178493 2.487000 135 96 94
0.938391 -0.175400 2.505000 83 10 47
0.945134 -0.172244 2.523000 86 26 1
0.945134 -0.013249 2.523000 105 58 39
0.952251 -0.008899 2.542000 100 56 32
0.945134 -0.004416 2.523000 102 57 26
0.945134 -0.000000 2.523000 104 59 26
0.945134 0.004417 2.523000 106 59 26
0.945134 0.008833 2.523000 109 57 30
0.945134 0.013250 2.523000 106 56 34
0.945134 0.017666 2.523000 103 55 37
0.945134 0.022083 2.523000 103 53 41
0.945134 0.026499 2.523000 104 53 35
0.945134 0.030916 2.523000 101 54 30
0.945134 0.035332 2.523000 99 56 27
0.945134 0.039749 2.523000 106 52 25
0.945134 0.044165 2.523000 114 51 19
0.945134 0.048582 2.523000 109 47 13
0.945134 0.052998 2.523000 104 45 13
0.945134 0.057415 2.523000 104 47 14
0.945134 0.061831 2.523000 104 47 9
0.945134 0.066248 2.523000 107 49 5
0.938391 0.070160 2.505000 111 50 9
0.938391 0.074545 2.505000 103 48 14
0.938391 0.078930 2.505000 96 46 28
0.938391 0.083315 2.505000 98 50 43
0.945134 0.088330 2.523000 101 56 30
0.945134 0.092747 2.523000 98 54 18
0.945134 0.097163 2.523000 95 55 21
0.945134 0.101580 2.523000 98 49 24
0.945134 0.105996 2.523000 101 48 22
0.945134 0.110413 2.523000 100 49 21
0.938391 0.114010 2.505000 99 49 21
0.938391 0.118395 2.505000 101 49 21
0.945134 0.123662 2.523000 104 49 21
0.945134 0.128079 2.523000 99 48 21
0.945134 0.132495 2.523000 95 50 30
0.945134 0.136912 2.523000 98 48 39
0.945134 0.141328 2.523000 101 46 41
0.938391 0.144705 2.505000 98 55 43
0.938391 0.149090 2.505000 96 65 52
0.945134 0.154578 2.523000 97 70 61
0.952251 0.160192 2.542000 99 72 67
0.988588 0.170924 2.639000 94 68 73
1.003947 0.178271 2.680000 89 62 69
1.019680 0.185830 2.722000 89 60 66
1.019680 0.190595 2.722000 89 63 62
1.019680 0.195359 2.722000 87 65 59
1.019680 0.200124 2.722000 85 65 64
1.019680 0.204889 2.722000 82 64 69
1.027547 0.211271 2.743000 79 64 64
1.019680 0.214419 2.722000 82 60 59
1.019680 0.219184 2.722000 85 61 52
1.019680 0.223949 2.722000 85 57 45
1.019680 0.228713 2.722000 85 53 62
1.019680 0.233478 2.722000 87 55 80
1.027547 0.240081 2.743000 89 54 62
1.027547 0.244883 2.743000 86 55 45
1.027547 0.249684 2.743000 84 58 49
1.027547 0.254486 2.743000 82 58 54
1.027547 0.259288 2.743000 81 53 48
1.027547 0.264089 2.743000 83 50 43
1.027547 0.268891 2.743000 84 55 54
1.019680 0.271597 2.722000 83 57 66
1.019680 0.276362 2.722000 83 58 66
1.011814 0.278958 2.701000 82 54 67
1.011814 0.283686 2.701000 82 53 66
1.011814 0.288414 2.701000 79 56 66
1.011814 0.293142 2.701000 76 57 71
1.011814 0.297870 2.701000 80 59 76
1.011814 0.302599 2.701000 83 60 78
1.019680 0.309716 2.722000 83 59 80
1.019680 0.314481 2.722000 83 58 72
1.019680 0.319246 2.722000 84 54 65
1.027547 0.326510 2.743000 85 51 54
1.027547 0.331312 2.743000 85 53 43
1.019680 0.333540 2.722000 86 53 49
1.027547 0.340915 2.743000 86 53 55
1.019680 0.343070 2.722000 86 55 55
1.027547 0.350519 2.743000 88 55 55
1.027547 0.355320 2.743000 90 54 54
1.027547 0.360122 2.743000 87 57 54
1.027547 0.364923 2.743000 85 58 59
1.027547 0.369725 2.743000 84 54 64
1.027547 0.374527 2.743000 83 52 66
1.027547 0.379328 2.743000 86 56 68
1.027547 0.384130 2.743000 89 58 68
1.027547 0.388931 2.743000 87 59 68
1.019680 0.390719 2.722000 86 58 73
1.027547 0.398535 2.743000 84 59 79
1.019680 0.400248 2.722000 83 60 73
1.011814 0.401889 2.701000 80 58 67
1.011814 0.406617 2.701000 78 56 65
1.011814 0.411345 2.701000 86 55 63
1.019680 0.419308 2.722000 95 51 58
1.019680 0.424073 2.722000 86 53 53
1.019680 0.428838 2.722000 78 56 60
1.019680 0.433602 2.722000 81 56 67
1.019680 0.438367 2.722000 85 57 69
1.019680 0.443132 2.722000 85 60 71
1.019680 0.447897 2.722000 84 64 68
1.019680 0.452662 2.722000 84 60 65
1.019680 0.457427 2.722000 84 56 66
1.019680 0.462192 2.722000 87 55 67
1.019680 0.466957 2.722000 90 56 64
1.019680 0.471721 2.722000 85 54 62
1.011814 0.472810 2.701000 81 53 64
1.011814 0.477538 2.701000 75 51 66
1.011814 0.482266 2.701000 70 49 62
1.011814 0.486995 2.701000 73 50 59
