ply
format ascii 1.0
element vertex 1227
property float x
property float y
property float z
property uchar red
property uchar green
property uchar blue
end_header
0.517430 0.719141 2.505000 226 195 242
0.509994 0.713128 2.469000 226 195 243
0.506276 0.712219 2.451000 227 195 243
0.502765 0.711540 2.434000 227 195 244
0.499253 0.710801 2.417000 228 193 244
0.495742 0.710003 2.400000 229 200 244
0.492437 0.709443 2.384000 230 204 244
0.488925 0.708527 2.367000 232 202 244
0.485620 0.707853 2.351000 234 201 244
0.482315 0.707123 2.335000 233 207 244
0.479217 0.706642 2.320000 231 211 243
0.475912 0.705802 2.304000 230 213 242
0.472814 0.705214 2.289000 229 214 241
0.469715 0.704573 2.274000 230 211 241
0.466617 0.703880 2.259000 231 203 240
0.463518 0.703134 2.244000 231 210 240
0.463518 0.707062 2.244000 231 203 240
0.457528 0.701802 2.215000 230 209 241
0.451745 0.696759 2.187000 229 204 240
0.449059 0.696423 2.174000 230 208 239
0.443482 0.691532 2.147000 232 209 241
0.443482 0.695290 2.147000 233 213 243
0.440590 0.694490 2.133000 234 216 243
0.440590 0.698224 2.133000 234 214 243
0.437905 0.697679 2.120000 234 214 243
0.432741 0.693119 2.095000 234 214 243
0.430056 0.692463 2.082000 235 215 242
0.427371 0.691761 2.069000 235 214 242
0.422413 0.687316 2.045000 235 214 242
0.419934 0.686842 2.033000 236 211 242
0.417456 0.686326 2.021000 238 207 244
0.417456 0.689863 2.021000 233 212 246
0.412705 0.685510 1.998000 228 216 242
0.410226 0.684869 1.986000 229 211 238
0.407954 0.684533 1.975000 231 210 240
0.405682 0.684159 1.964000 231 209 242
0.403203 0.683395 1.952000 232 209 242
0.403203 0.686812 1.952000 233 209 243
0.400931 0.686340 1.941000 235 210 243
0.398865 0.686184 1.931000 232 208 244
0.396593 0.685636 1.920000 230 206 242
0.394321 0.685049 1.909000 233 205 240
0.392256 0.684785 1.899000 236 205 242
0.385852 0.676876 1.868000 232 210 245
0.383787 0.676505 1.858000 227 214 244
0.381721 0.676099 1.848000 228 210 243
0.379655 0.675658 1.838000 229 207 242
0.377590 0.675182 1.828000 230 208 242
0.377590 0.678382 1.828000 231 207 242
0.375731 0.678226 1.819000 232 215 243
0.373665 0.677664 1.809000 234 221 243
0.371806 0.677444 1.800000 234 216 243
0.369741 0.676813 1.790000 235 213 243
0.367882 0.676528 1.781000 235 216 244
0.366023 0.676211 1.772000 235 216 242
0.364164 0.675863 1.763000 235 212 241
0.362304 0.675483 1.754000 235 209 241
0.360445 0.675072 1.745000 235 207 242
0.360445 0.678126 1.745000 234 202 242
0.679506 0.748027 3.262000 164 127 157
0.679506 0.753737 3.262000 170 137 164
0.673048 0.752230 3.231000 172 148 172
0.673048 0.757886 3.231000 174 144 175
0.666799 0.756453 3.201000 175 143 179
0.654717 0.748248 3.143000 177 144 184
0.648884 0.747035 3.115000 184 148 189
0.643051 0.745724 3.087000 191 151 191
0.643051 0.751127 3.087000 191 160 194
0.637219 0.749669 3.059000 192 158 197
0.631803 0.748607 3.033000 194 160 200
0.626178 0.747204 3.006000 197 160 204
0.615555 0.739700 2.955000 198 165 208
0.610347 0.738571 2.930000 200 167 209
0.610347 0.743700 2.930000 203 176 210
0.595140 0.730172 2.857000 207 176 215
0.595140 0.735173 2.857000 209 183 219
0.585350 0.727998 2.810000 212 184 221
0.580767 0.727179 2.788000 211 185 224
0.575976 0.726020 2.765000 211 183 227
0.571393 0.725045 2.743000 214 181 230
0.571393 0.729847 2.743000 217 185 230
0.562644 0.723400 2.701000 218 195 229
0.558270 0.722467 2.680000 219 191 228
0.553895 0.721460 2.659000 219 190 227
0.549729 0.720653 2.639000 220 188 228
0.545563 0.719776 2.619000 219 194 230
0.541396 0.718829 2.599000 218 190 228
0.537439 0.718090 2.580000 218 195 226
0.533272 0.717005 2.560000 219 193 235
0.529523 0.716413 2.542000 221 194 245
0.529523 0.720863 2.542000 224 195 242
0.525565 0.719892 2.523000 228 198 239
0.521815 0.719141 2.505000 233 197 239
0.514316 0.713128 2.469000 230 197 238
0.510567 0.712219 2.451000 228 194 241
0.510567 0.716510 2.451000 227 195 244
0.507025 0.715801 2.434000 227 196 243
0.503484 0.715032 2.417000 227 198 242
0.499943 0.714204 2.400000 228 201 243
0.493069 0.708527 2.367000 230 203 244
0.489736 0.707853 2.351000 233 202 243
0.486403 0.707123 2.335000 231 201 243
0.483278 0.706642 2.320000 230 207 242
0.479945 0.705802 2.304000 228 210 242
0.473696 0.700592 2.274000 226 209 242
0.473696 0.704573 2.274000 228 208 242
0.467447 0.699206 2.244000 230 208 241
0.467447 0.703134 2.244000 230 213 241
0.464530 0.702651 2.230000 230 211 242
0.461406 0.701802 2.215000 228 216 243
0.458489 0.701219 2.201000 227 210 241
0.452865 0.696423 2.174000 229 205 240
0.447241 0.691532 2.147000 231 207 241
0.449949 0.699500 2.160000 232 217 243
0.444324 0.694490 2.133000 234 213 243
0.444324 0.698224 2.133000 234 215 243
0.441616 0.697679 2.120000 235 213 243
0.438908 0.697090 2.107000 233 218 243
0.433700 0.692463 2.082000 231 212 242
0.433700 0.696108 2.082000 233 215 242
0.425993 0.687316 2.045000 235 215 242
0.423493 0.686842 2.033000 235 212 242
0.420994 0.686326 2.021000 236 211 243
0.420994 0.689863 2.021000 234 217 245
0.417244 0.687225 2.003000 233 212 242
0.413703 0.684869 1.986000 231 208 240
0.413703 0.688346 1.986000 229 207 240
0.411411 0.687990 1.975000 230 210 241
0.409120 0.687596 1.964000 232 209 242
0.406620 0.686812 1.952000 234 208 242
0.404329 0.686340 1.941000 237 209 242
0.404329 0.689737 1.941000 233 209 243
0.402246 0.689564 1.931000 230 204 241
0.397663 0.685049 1.909000 230 207 240
0.395580 0.684785 1.899000 231 204 241
0.391205 0.680500 1.878000 231 209 243
0.389122 0.680146 1.868000 231 212 241
0.387039 0.679758 1.858000 230 215 239
0.384956 0.679334 1.848000 230 210 240
0.382873 0.678876 1.838000 230 212 242
0.380790 0.678382 1.828000 231 210 242
0.378915 0.678226 1.819000 233 219 242
0.374957 0.674293 1.800000 235 215 242
0.372874 0.673680 1.790000 239 210 241
0.372874 0.676813 1.790000 243 211 242
0.370999 0.676528 1.781000 239 211 243
0.369124 0.676211 1.772000 235 211 242
0.367250 0.675863 1.763000 235 211 242
0.365375 0.675483 1.754000 236 211 243
0.363500 0.675072 1.745000 235 211 243
0.363500 0.678126 1.745000 235 207 243
0.691728 0.755136 3.293000 166 130 150
0.685216 0.753737 3.262000 169 125 159
0.685216 0.759448 3.262000 170 134 168
0.678704 0.757886 3.231000 172 143 172
0.672402 0.756453 3.201000 174 142 176
0.660219 0.748248 3.143000 175 144 180
0.654337 0.747035 3.115000 181 145 184
0.648455 0.745724 3.087000 186 145 189
0.642574 0.744315 3.059000 187 152 194
0.642574 0.749669 3.059000 188 159 196
0.637112 0.748607 3.033000 191 158 199
0.637112 0.753916 3.033000 194 157 203
0.620727 0.739700 2.955000 195 159 207
0.617997 0.741596 2.942000 196 158 207
0.615476 0.743700 2.930000 200 169 207
0.600141 0.730172 2.857000 204 172 213
0.600141 0.735173 2.857000 207 177 219
0.590269 0.727998 2.810000 211 186 220
0.585647 0.727179 2.788000 210 184 222
0.580816 0.726020 2.765000 210 185 225
0.576195 0.725045 2.743000 212 184 228
0.576195 0.729847 2.743000 214 184 228
0.567372 0.723400 2.701000 216 187 228
0.562961 0.722467 2.680000 219 187 227
0.558550 0.721460 2.659000 218 187 226
0.554348 0.720653 2.639000 218 181 226
0.550147 0.719776 2.619000 218 189 226
0.545946 0.718829 2.599000 217 188 219
0.541955 0.718090 2.580000 218 188 213
0.537754 0.717005 2.560000 219 191 230
0.533973 0.716413 2.542000 220 192 248
0.529981 0.715475 2.523000 222 193 242
0.526200 0.714756 2.505000 221 198 237
0.526200 0.719141 2.505000 221 200 235
0.518638 0.713128 2.469000 223 193 234
0.514857 0.712219 2.451000 226 191 239
0.511286 0.711540 2.434000 225 194 244
0.507715 0.710801 2.417000 225 201 242
0.507715 0.715032 2.417000 223 199 240
0.504144 0.714204 2.400000 221 200 242
0.497212 0.708527 2.367000 227 202 244
0.493851 0.707853 2.351000 233 206 243
0.490490 0.707123 2.335000 232 205 243
0.487339 0.706642 2.320000 230 207 242
0.480827 0.701207 2.289000 231 207 242
0.477677 0.700592 2.274000 232 206 242
0.477677 0.704573 2.274000 231 207 243
0.474526 0.703880 2.259000 230 208 243
0.471375 0.703134 2.244000 230 213 243
0.468434 0.702651 2.230000 231 215 244
0.465283 0.701802 2.215000 232 214 245
0.462342 0.701219 2.201000 233 215 243
0.459401 0.700587 2.187000 232 206 242
0.450999 0.691532 2.147000 232 199 242
0.453730 0.699500 2.160000 235 208 243
0.448058 0.694490 2.133000 238 204 243
0.448058 0.698224 2.133000 236 208 243
0.448058 0.701958 2.133000 235 207 243
0.442596 0.697090 2.107000 233 207 243
0.440076 0.696787 2.095000 232 203 242
0.437345 0.696108 2.082000 234 212 242
0.429573 0.687316 2.045000 236 219 242
0.427052 0.686842 2.033000 236 212 243
0.427052 0.690401 2.033000 236 208 243
0.424531 0.689863 2.021000 236 213 244
0.422011 0.689284 2.009000 236 210 243
0.419700 0.689007 1.998000 230 207 242
0.417179 0.688346 1.986000 225 200 241
0.414869 0.687990 1.975000 228 207 241
0.412558 0.687596 1.964000 230 209 241
0.410037 0.686812 1.952000 232 212 242
0.410037 0.690229 1.952000 234 212 242
0.407726 0.689737 1.941000 231 208 242
0.403315 0.685636 1.920000 229 196 241
0.401005 0.685049 1.909000 230 199 241
0.398904 0.684785 1.899000 231 197 241
0.394493 0.680500 1.878000 232 206 241
0.392392 0.680146 1.868000 232 211 238
0.392392 0.683416 1.868000 231 212 236
0.390292 0.683010 1.858000 230 208 239
0.388191 0.682569 1.848000 230 207 242
0.383990 0.678382 1.828000 230 203 242
0.383990 0.681582 1.828000 231 210 242
0.379999 0.677664 1.809000 233 211 241
0.376007 0.673680 1.790000 236 209 240
0.376007 0.676813 1.790000 239 210 241
0.374117 0.676528 1.781000 236 209 242
0.372226 0.676211 1.772000 234 209 243
0.370336 0.675863 1.763000 235 213 244
0.368445 0.675483 1.754000 235 216 244
0.366555 0.675072 1.745000 234 212 245
0.366555 0.678126 1.745000 233 211 244
0.697492 0.755136 3.293000 167 148 147
0.697492 0.760900 3.293000 168 132 153
0.690926 0.759448 3.262000 169 123 160
0.684360 0.757886 3.231000 171 135 170
0.678006 0.756453 3.201000 172 141 180
0.665720 0.748248 3.143000 174 142 181
0.659790 0.747035 3.115000 178 146 181
0.653859 0.745724 3.087000 182 147 188
0.653859 0.751127 3.087000 183 147 195
0.647928 0.749669 3.059000 185 151 195
0.642421 0.748607 3.033000 188 159 195
0.642421 0.753916 3.033000 191 158 199
0.636702 0.752467 3.006000 191 157 203
0.625900 0.744873 2.955000 192 161 205
0.620605 0.743700 2.930000 197 171 207
0.615310 0.742440 2.905000 202 167 211
0.605143 0.735173 2.857000 206 169 216
0.600271 0.734216 2.834000 210 176 220
0.595188 0.732917 2.810000 210 180 224
0.590528 0.732059 2.788000 210 180 226
0.585656 0.730860 2.765000 211 189 227
0.580996 0.729847 2.743000 212 184 226
0.572100 0.723400 2.701000 215 182 225
0.567652 0.722467 2.680000 219 186 225
0.563204 0.721460 2.659000 218 191 226
0.558968 0.720653 2.639000 217 186 227
0.554732 0.719776 2.619000 217 193 229
0.550496 0.718829 2.599000 217 187 227
0.546471 0.718090 2.580000 218 180 226
0.542235 0.717005 2.560000 219 186 233
0.538422 0.716413 2.542000 219 193 241
0.534398 0.715475 2.523000 220 194 239
0.530585 0.714756 2.505000 214 201 237
0.522960 0.708806 2.469000 209 196 237
0.519148 0.707929 2.451000 217 187 237
0.519148 0.712219 2.451000 225 190 240
0.511946 0.706570 2.417000 224 191 243
0.508345 0.705802 2.400000 223 193 241
0.508345 0.710003 2.400000 218 198 240
0.504956 0.709443 2.384000 214 198 241
0.501355 0.708527 2.367000 224 202 243
0.501355 0.712671 2.367000 234 201 243
0.494578 0.707123 2.335000 232 209 242
0.491400 0.706642 2.320000 231 207 243
0.488011 0.705802 2.304000 235 206 244
0.481657 0.700592 2.274000 239 207 243
0.478480 0.699925 2.259000 235 208 243
0.478480 0.703880 2.259000 231 210 243
0.475303 0.703134 2.244000 231 218 243
0.472337 0.702651 2.230000 232 212 243
0.469160 0.701802 2.215000 235 211 244
0.466195 0.701219 2.201000 239 211 243
0.460476 0.696423 2.174000 236 208 242
0.457511 0.695719 2.160000 233 206 242
0.454757 0.695290 2.147000 237 215 242
0.454757 0.699048 2.147000 242 210 242
0.451792 0.698224 2.133000 238 209 243
0.449038 0.697679 2.120000 235 206 243
0.449038 0.701391 2.120000 234 202 243
0.443743 0.696787 2.095000 233 206 242
0.440989 0.696108 2.082000 235 214 242
0.433152 0.687316 2.045000 237 210 242
0.430611 0.686842 2.033000 236 209 242
0.428069 0.686326 2.021000 236 209 243
0.428069 0.689863 2.021000 237 220 243
0.423197 0.685510 1.998000 239 213 243
0.423197 0.689007 1.998000 230 211 242
0.420656 0.688346 1.986000 222 208 242
0.418326 0.687990 1.975000 225 209 241
0.418326 0.691448 1.975000 229 212 241
0.413454 0.686812 1.952000 230 221 242
0.413454 0.690229 1.952000 231 213 242
0.411124 0.689737 1.941000 229 216 242
0.406676 0.685636 1.920000 228 207 242
0.404346 0.685049 1.909000 230 199 242
0.402228 0.684785 1.899000 232 204 242
0.397780 0.680500 1.878000 233 209 242
0.395662 0.680146 1.868000 234 210 240
0.393544 0.679758 1.858000 232 215 239
0.393544 0.683010 1.858000 230 207 240
0.391426 0.682569 1.848000 230 205 242
0.387190 0.678382 1.828000 230 206 242
0.387190 0.681582 1.828000 230 209 243
0.383165 0.677664 1.809000 231 207 242
0.379141 0.673680 1.790000 233 205 241
0.379141 0.676813 1.790000 235 209 242
0.377235 0.676528 1.781000 234 209 242
0.373422 0.672777 1.763000 234 211 243
0.371516 0.672413 1.754000 234 219 244
0.371516 0.675483 1.754000 235 215 243
0.369609 0.675072 1.745000 233 212 243
0.369609 0.678126 1.745000 232 212 242
0.703256 0.760900 3.293000 167 133 148
0.696636 0.759448 3.262000 167 128 153
0.690016 0.757886 3.231000 168 134 169
0.683609 0.756453 3.201000 169 136 185
0.665243 0.747035 3.115000 173 142 179
0.653283 0.738960 3.059000 177 150 187
0.653283 0.744315 3.059000 180 144 196
0.647731 0.743297 3.033000 183 139 194
0.647731 0.748607 3.033000 185 153 192
0.641964 0.747204 3.006000 188 159 195
0.641964 0.752467 3.006000 189 157 199
0.631073 0.744873 2.955000 190 160 203
0.625734 0.743700 2.930000 195 163 207
0.620395 0.742440 2.905000 200 159 210
0.610144 0.735173 2.857000 204 164 213
0.605232 0.734216 2.834000 208 171 220
0.600106 0.732917 2.810000 209 172 227
0.595408 0.732059 2.788000 210 168 227
0.590496 0.730860 2.765000 211 179 227
0.585798 0.729847 2.743000 212 181 224
0.576828 0.723400 2.701000 214 182 222
0.572343 0.722467 2.680000 216 184 224
0.567859 0.721460 2.659000 216 185 226
0.563587 0.720653 2.639000 216 179 229
0.559316 0.719776 2.619000 215 185 232
0.555045 0.718829 2.599000 215 188 235
0.550987 0.718090 2.580000 215 184 239
0.546716 0.717005 2.560000 215 181 237
0.542872 0.716413 2.542000 220 188 235
0.538814 0.715475 2.523000 225 190 236
0.534970 0.714756 2.505000 220 197 238
0.531126 0.713973 2.487000 214 197 239
0.523438 0.707929 2.451000 219 193 240
0.523438 0.712219 2.451000 224 192 241
0.516177 0.706570 2.417000 225 189 242
0.512546 0.705802 2.400000 226 185 241
0.509129 0.705270 2.384000 221 194 240
0.509129 0.709443 2.384000 216 193 241
0.505499 0.708527 2.367000 224 194 243
0.505499 0.712671 2.367000 233 189 242
0.502082 0.711969 2.351000 231 201 242
0.495462 0.706642 2.320000 230 206 244
0.492045 0.705802 2.304000 232 207 246
0.485638 0.700592 2.274000 235 208 244
0.482434 0.699925 2.259000 233 207 243
0.482434 0.703880 2.259000 231 207 243
0.479231 0.703134 2.244000 232 209 244
0.476241 0.702651 2.230000 232 206 243
0.473038 0.701802 2.215000 234 209 243
0.470048 0.701219 2.201000 235 211 243
0.467058 0.700587 2.187000 233 208 243
0.461292 0.695719 2.160000 231 205 242
0.458515 0.695290 2.147000 234 210 242
0.458515 0.699048 2.147000 237 214 242
0.455526 0.698224 2.133000 235 210 243
0.452749 0.697679 2.120000 234 207 243
0.452749 0.701391 2.120000 232 207 243
0.447410 0.696787 2.095000 230 205 243
0.444634 0.696108 2.082000 234 210 243
0.444634 0.699752 2.082000 238 201 242
0.436732 0.690896 2.045000 236 204 242
0.431607 0.686326 2.021000 235 202 242
0.429044 0.685767 2.009000 236 211 243
0.426695 0.685510 1.998000 237 212 243
0.426695 0.689007 1.998000 232 211 243
0.424132 0.688346 1.986000 228 212 242
0.424132 0.691822 1.986000 230 210 242
0.421783 0.691448 1.975000 232 209 242
0.419434 0.691035 1.964000 233 210 242
0.416871 0.690229 1.952000 235 206 242
0.414522 0.689737 1.941000 232 214 243
0.410037 0.685636 1.920000 230 220 243
0.407688 0.685049 1.909000 230 212 243
0.407688 0.688391 1.909000 231 214 243
0.401068 0.680500 1.878000 230 207 243
0.398932 0.680146 1.868000 229 205 242
0.396796 0.679758 1.858000 229 206 242
0.396796 0.683010 1.858000 230 201 242
0.394661 0.682569 1.848000 229 205 242
0.392525 0.682093 1.838000 229 208 243
0.390390 0.681582 1.828000 231 207 244
0.386332 0.677664 1.809000 232 203 243
0.384410 0.677444 1.800000 235 205 243
0.382274 0.676813 1.790000 237 212 243
0.380352 0.676528 1.781000 236 209 243
0.380352 0.679646 1.781000 235 208 244
0.374586 0.672413 1.754000 235 216 245
0.374586 0.675483 1.754000 235 216 243
0.372664 0.675072 1.745000 233 213 241
0.372664 0.678126 1.745000 232 209 241
0.667681 0.743677 3.101000 169 138 174
0.658638 0.738960 3.059000 172 143 182
0.658638 0.744315 3.059000 176 143 190
0.653040 0.743297 3.033000 181 145 189
0.647226 0.741943 3.006000 183 158 188
0.647226 0.747204 3.006000 185 155 190
0.641628 0.745958 2.980000 187 152 192
0.636246 0.744873 2.955000 189 156 200
0.630863 0.743700 2.930000 194 163 209
0.625480 0.742440 2.905000 199 159 209
0.620312 0.741349 2.881000 202 159 209
0.615145 0.740175 2.857000 206 166 214
0.605025 0.732917 2.810000 208 171 218
0.600288 0.732059 2.788000 211 171 221
0.595336 0.730860 2.765000 211 179 224
0.595336 0.735700 2.765000 212 180 223
0.581556 0.723400 2.701000 212 183 223
0.577035 0.722467 2.680000 213 180 225
0.572513 0.721460 2.659000 214 187 228
0.568207 0.720653 2.639000 215 183 230
0.563901 0.719776 2.619000 214 182 233
0.559595 0.718829 2.599000 213 186 235
0.559595 0.723379 2.599000 212 190 238
0.555504 0.722607 2.580000 212 187 235
0.551197 0.721486 2.560000 221 188 233
0.543231 0.715475 2.523000 231 191 231
0.539355 0.714756 2.505000 225 201 230
0.535480 0.713973 2.487000 220 196 233
0.531604 0.713128 2.469000 222 197 236
0.524068 0.707279 2.434000 224 192 238
0.520408 0.706570 2.417000 226 188 240
0.516748 0.705802 2.400000 229 190 239
0.513303 0.705270 2.384000 224 200 239
0.513303 0.709443 2.384000 219 196 240
0.509642 0.708527 2.367000 225 194 241
0.506197 0.707853 2.351000 232 195 240
0.502752 0.707123 2.335000 230 201 240
0.499523 0.706642 2.320000 229 205 242
0.496078 0.705802 2.304000 230 210 244
0.489618 0.700592 2.274000 232 205 243
0.486389 0.699925 2.259000 232 205 243
0.486389 0.703880 2.259000 232 205 243
0.483159 0.703134 2.244000 232 207 243
0.480145 0.702651 2.230000 233 204 243
0.476915 0.701802 2.215000 232 210 243
0.473901 0.701219 2.201000 232 206 243
0.470886 0.700587 2.187000 230 209 244
0.465073 0.695719 2.160000 229 208 242
0.462274 0.695290 2.147000 231 207 241
0.462274 0.699048 2.147000 233 210 242
0.459259 0.698224 2.133000 233 211 243
0.456460 0.697679 2.120000 233 212 243
0.451078 0.693119 2.095000 230 217 243
0.451078 0.696787 2.095000 227 212 243
0.448279 0.696108 2.082000 233 220 243
0.445479 0.695383 2.069000 239 210 242
0.440312 0.690896 2.045000 237 206 241
0.435145 0.686326 2.021000 235 206 242
0.432561 0.685767 2.009000 235 210 243
0.430192 0.685510 1.998000 235 212 243
0.430192 0.689007 1.998000 234 212 243
0.427609 0.688346 1.986000 234 211 242
0.427609 0.691822 1.986000 234 212 242
0.427609 0.695299 1.986000 235 210 242
0.425240 0.694905 1.975000 237 205 242
0.422872 0.694473 1.964000 240 209 242
0.417920 0.689737 1.941000 236 216 242
0.413398 0.685636 1.920000 232 214 242
0.411030 0.685049 1.909000 231 217 243
0.411030 0.688391 1.909000 230 209 242
0.404355 0.680500 1.878000 227 201 242
0.404355 0.683788 1.878000 224 202 242
0.402202 0.683416 1.868000 227 205 242
0.400049 0.683010 1.858000 230 205 242
0.397896 0.682569 1.848000 229 209 242
0.395743 0.682093 1.838000 229 208 243
0.393589 0.681582 1.828000 231 208 244
0.391652 0.681410 1.819000 234 206 243
0.387561 0.677444 1.800000 237 202 243
0.385408 0.676813 1.790000 240 207 243
0.383470 0.676528 1.781000 238 209 244
0.383470 0.679646 1.781000 236 211 244
0.379594 0.675863 1.763000 235 224 244
0.379594 0.678949 1.763000 235 217 242
0.376580 0.676619 1.749000 234 217 241
0.375719 0.678126 1.745000 233 213 241
0.670070 0.740320 3.087000 166 139 170
0.663993 0.738960 3.059000 170 141 177
0.663993 0.744315 3.059000 174 141 185
0.652488 0.736681 3.006000 178 142 185
0.646845 0.735525 2.980000 181 149 185
0.646845 0.740742 2.980000 184 153 185
0.641418 0.739700 2.955000 186 152 185
0.641418 0.744873 2.955000 188 150 198
0.635992 0.743700 2.930000 192 154 212
0.635992 0.748829 2.930000 197 155 209
0.630565 0.747525 2.905000 201 161 206
0.620146 0.740175 2.857000 204 164 208
0.609944 0.732917 2.810000 207 167 210
0.605169 0.732059 2.788000 210 166 215
0.600176 0.730860 2.765000 210 175 221
0.595401 0.729847 2.743000 210 177 222
0.586285 0.723400 2.701000 211 175 224
0.581726 0.722467 2.680000 212 166 227
0.577168 0.721460 2.659000 212 181 230
0.572827 0.720653 2.639000 213 187 232
0.568485 0.719776 2.619000 211 184 234
0.564144 0.718829 2.599000 209 184 235
0.560020 0.718090 2.580000 210 186 237
0.560020 0.722607 2.580000 212 190 234
0.551772 0.716413 2.542000 217 187 231
0.547647 0.715475 2.523000 223 185 227
0.547647 0.719892 2.523000 220 190 223
0.543740 0.719141 2.505000 218 189 227
0.539833 0.718327 2.487000 220 195 232
0.532019 0.712219 2.451000 221 191 235
0.524639 0.706570 2.417000 221 189 238
0.517476 0.701096 2.384000 222 188 238
0.517476 0.705270 2.384000 220 193 238
0.517476 0.709443 2.384000 219 197 238
0.513786 0.708527 2.367000 223 195 239
0.510313 0.707853 2.351000 228 197 238
0.506840 0.707123 2.335000 227 200 238
0.503584 0.706642 2.320000 227 203 240
0.500111 0.705802 2.304000 229 202 242
0.493599 0.700592 2.274000 231 197 242
0.490343 0.699925 2.259000 232 200 243
0.490343 0.703880 2.259000 233 202 243
0.487087 0.703134 2.244000 233 201 243
0.484048 0.702651 2.230000 233 195 243
0.480792 0.701802 2.215000 232 203 244
0.477754 0.701219 2.201000 232 197 244
0.474715 0.700587 2.187000 231 208 245
0.471893 0.700228 2.174000 230 211 242
0.466032 0.695290 2.147000 231 209 240
0.462993 0.694490 2.133000 233 211 241
0.462993 0.698224 2.133000 233 212 243
0.460171 0.697679 2.120000 234 215 243
0.454745 0.693119 2.095000 233 213 243
0.454745 0.696787 2.095000 232 208 243
0.451923 0.696108 2.082000 235 215 243
0.451923 0.699752 2.082000 238 214 242
0.443892 0.690896 2.045000 236 210 241
0.438682 0.686326 2.021000 234 207 242
0.436078 0.685767 2.009000 234 214 244
0.433690 0.685510 1.998000 233 214 243
0.431085 0.684869 1.986000 235 211 243
0.431085 0.688346 1.986000 238 210 243
0.431085 0.691822 1.986000 237 213 243
0.428697 0.691448 1.975000 236 215 242
0.428697 0.694905 1.975000 237 211 242
0.426310 0.694473 1.964000 238 210 242
0.421317 0.689737 1.941000 235 210 242
0.416759 0.685636 1.920000 233 205 242
0.414371 0.685049 1.909000 232 211 243
0.412201 0.684785 1.899000 231 206 242
0.409813 0.684124 1.888000 230 202 242
0.407642 0.683788 1.878000 229 200 242
0.405472 0.683416 1.868000 230 204 243
0.403301 0.683010 1.858000 232 207 242
0.401131 0.682569 1.848000 229 208 242
0.398960 0.682093 1.838000 226 207 243
0.396789 0.681582 1.828000 229 209 245
0.394836 0.681410 1.819000 233 212 244
0.390712 0.677444 1.800000 234 208 243
0.388541 0.676813 1.790000 236 208 244
0.388541 0.679947 1.790000 234 207 246
0.386587 0.679646 1.781000 232 206 245
0.384634 0.679313 1.772000 233 214 244
0.382680 0.678949 1.763000 234 214 242
0.380727 0.678553 1.754000 233 213 241
0.378773 0.678126 1.745000 233 215 241
0.675474 0.740320 3.087000 164 141 165
0.669348 0.738960 3.059000 168 140 172
0.669348 0.744315 3.059000 171 140 179
0.663658 0.743297 3.033000 175 142 181
0.652061 0.735525 2.980000 179 146 182
0.652061 0.740742 2.980000 183 148 181
0.646591 0.739700 2.955000 185 156 181
0.641121 0.738571 2.930000 187 153 193
0.641121 0.743700 2.930000 191 151 206
0.635650 0.742440 2.905000 196 159 206
0.630399 0.741349 2.881000 199 168 205
0.625147 0.740175 2.857000 203 162 208
0.614863 0.732917 2.810000 206 168 211
0.610049 0.732059 2.788000 209 170 214
0.605017 0.730860 2.765000 208 180 218
0.605017 0.735700 2.765000 208 176 219
0.591013 0.723400 2.701000 209 174 220
0.586418 0.722467 2.680000 211 173 221
0.581822 0.721460 2.659000 211 185 222
0.577446 0.720653 2.639000 211 185 224
0.573070 0.719776 2.619000 208 185 226
0.568694 0.718829 2.599000 206 183 229
0.564536 0.718090 2.580000 209 182 232
0.564536 0.722607 2.580000 212 187 232
0.560160 0.721486 2.560000 213 188 232
0.556221 0.720863 2.542000 215 186 228
0.552064 0.719892 2.523000 216 185 225
0.548125 0.719141 2.505000 217 190 230
0.544187 0.718327 2.487000 218 203 234
0.532590 0.707279 2.434000 219 190 236
0.528870 0.706570 2.417000 217 190 237
0.525150 0.705802 2.400000 215 189 238
0.521649 0.705270 2.384000 217 188 238
0.517929 0.704384 2.367000 220 191 236
0.517929 0.708527 2.367000 222 192 234
0.514428 0.707853 2.351000 224 194 238
0.510927 0.707123 2.335000 224 202 241
0.507645 0.706642 2.320000 225 202 241
0.504144 0.705802 2.304000 228 199 241
0.497580 0.700592 2.274000 231 198 241
0.494297 0.699925 2.259000 232 199 242
0.494297 0.703880 2.259000 234 201 243
0.487952 0.698747 2.230000 234 203 244
0.487952 0.702651 2.230000 234 200 239
0.484670 0.701802 2.215000 233 211 235
0.481606 0.701219 2.201000 232 205 240
0.478543 0.700587 2.187000 232 215 245
0.475698 0.700228 2.174000 232 209 243
0.472635 0.699500 2.160000 232 207 241
0.469790 0.699048 2.147000 233 211 242
0.466727 0.698224 2.133000 234 214 244
0.463883 0.697679 2.120000 236 211 243
0.461038 0.697090 2.107000 237 212 243
0.458412 0.696787 2.095000 238 213 243
0.458412 0.700454 2.095000 237 219 243
0.455568 0.699752 2.082000 237 215 243
0.450097 0.694950 2.057000 235 216 242
0.444846 0.690401 2.033000 234 216 243
0.442220 0.689863 2.021000 233 226 244
0.438281 0.687225 2.003000 232 215 243
0.437187 0.689007 1.998000 237 209 243
0.434562 0.688346 1.986000 242 211 243
0.434562 0.691822 1.986000 240 217 244
0.432155 0.691448 1.975000 238 216 243
0.432155 0.694905 1.975000 237 217 243
0.429748 0.694473 1.964000 236 213 243
0.427122 0.693646 1.952000 235 212 244
0.422527 0.689564 1.931000 234 213 243
0.417713 0.685049 1.909000 233 216 243
0.417713 0.688391 1.909000 233 210 242
0.415525 0.688109 1.899000 233 204 242
0.410930 0.683788 1.878000 234 202 242
0.408742 0.683416 1.868000 234 207 242
0.408742 0.686686 1.868000 235 209 242
0.406554 0.686263 1.858000 229 211 243
0.404366 0.685804 1.848000 224 209 243
0.402177 0.685310 1.838000 228 209 244
0.395832 0.677664 1.809000 232 210 243
0.393862 0.677444 1.800000 232 211 243
0.391674 0.676813 1.790000 233 209 243
0.389705 0.676528 1.781000 231 207 244
0.389705 0.679646 1.781000 229 209 243
0.387736 0.679313 1.772000 231 214 243
0.385766 0.678949 1.763000 233 209 242
0.383797 0.678553 1.754000 233 207 241
0.383797 0.681624 1.754000 234 212 242
0.680878 0.740320 3.087000 164 130 161
0.674702 0.738960 3.059000 168 138 167
0.674702 0.744315 3.059000 171 138 174
0.674702 0.749669 3.059000 174 140 177
0.663012 0.741943 3.006000 178 140 180
0.657278 0.740742 2.980000 181 138 178
0.651764 0.739700 2.955000 183 148 177
0.651764 0.744873 2.955000 185 158 189
0.646250 0.743700 2.930000 189 158 201
0.640736 0.742440 2.905000 193 162 203
0.640736 0.747525 2.905000 196 159 205
0.630149 0.740175 2.857000 199 150 209
0.625076 0.739177 2.834000 202 158 213
0.619782 0.737836 2.810000 206 167 214
0.614930 0.736940 2.788000 207 172 215
0.609857 0.735700 2.765000 207 176 215
0.600373 0.729024 2.722000 209 171 216
0.591109 0.722467 2.680000 211 167 215
0.586477 0.721460 2.659000 212 177 214
0.577655 0.715191 2.619000 214 185 216
0.577655 0.719776 2.619000 211 182 219
0.573243 0.718829 2.599000 209 181 223
0.569053 0.718090 2.580000 211 183 227
0.569053 0.722607 2.580000 214 188 230
0.564641 0.721486 2.560000 217 189 233
0.560671 0.720863 2.542000 220 187 230
0.556481 0.719892 2.523000 218 185 228
0.552510 0.719141 2.505000 217 184 232
0.548540 0.718327 2.487000 218 186 237
0.536850 0.707279 2.434000 219 178 237
0.533101 0.706570 2.417000 219 188 237
0.529351 0.705802 2.400000 220 190 238
0.525822 0.705270 2.384000 220 192 239
0.522073 0.704384 2.367000 220 188 234
0.522073 0.708527 2.367000 221 190 230
0.518544 0.707853 2.351000 222 188 237
0.515015 0.707123 2.335000 223 199 245
0.511706 0.706642 2.320000 224 204 242
0.508177 0.705802 2.304000 227 202 240
0.508177 0.709835 2.304000 230 199 240
0.501560 0.704573 2.274000 231 200 241
0.498252 0.703880 2.259000 232 202 243
0.494943 0.703134 2.244000 232 199 245
0.491856 0.702651 2.230000 233 194 236
0.488547 0.701802 2.215000 233 202 227
0.488547 0.705679 2.215000 233 200 236
0.482371 0.700587 2.187000 233 205 245
0.479504 0.700228 2.174000 233 204 243
0.473549 0.695290 2.147000 233 210 242
0.473549 0.699048 2.147000 234 212 244
0.470461 0.698224 2.133000 237 210 246
0.467594 0.697679 2.120000 240 204 244
0.464726 0.697090 2.107000 239 212 243
0.462080 0.696787 2.095000 238 216 243
0.462080 0.700454 2.095000 237 215 244
0.459212 0.699752 2.082000 236 214 244
0.456345 0.699005 2.069000 235 214 244
0.451051 0.694476 2.045000 234 215 244
0.445758 0.689863 2.021000 234 216 244
0.443111 0.689284 2.009000 233 214 243
0.440685 0.689007 1.998000 237 212 243
0.440685 0.692505 1.998000 240 210 244
0.438038 0.691822 1.986000 239 215 245
0.435612 0.691448 1.975000 237 218 244
0.433186 0.691035 1.964000 238 218 244
0.430539 0.690229 1.952000 239 216 245
0.428113 0.689737 1.941000 237 217 247
0.423481 0.685636 1.920000 235 219 245
0.421055 0.685049 1.909000 234 215 243
0.421055 0.688391 1.909000 234 215 243
0.418849 0.688109 1.899000 234 207 243
0.414217 0.683788 1.878000 234 200 242
0.412012 0.683416 1.868000 234 207 241
0.409806 0.683010 1.858000 235 211 242
0.409806 0.686263 1.858000 233 211 244
0.407600 0.685804 1.848000 231 211 243
0.405395 0.685310 1.838000 233 210 243
0.401204 0.681410 1.819000 236 210 243
0.398999 0.680831 1.809000 235 210 243
0.397013 0.680595 1.800000 235 210 242
0.394808 0.679947 1.790000 235 209 242
0.392823 0.679646 1.781000 236 211 242
0.390838 0.679313 1.772000 234 208 243
0.388853 0.678949 1.763000 233 203 242
0.386868 0.678553 1.754000 235 206 241
0.386868 0.681624 1.754000 238 208 243
0.690283 0.744637 3.105000 164 116 153
0.680057 0.738960 3.059000 168 124 155
0.680057 0.744315 3.059000 171 136 158
0.674277 0.743297 3.033000 174 136 168
0.662494 0.735525 2.980000 177 137 178
0.656936 0.734527 2.955000 180 139 178
0.656936 0.739700 2.955000 182 142 178
0.651379 0.738571 2.930000 184 152 187
0.651379 0.743700 2.930000 187 163 196
0.645821 0.742440 2.905000 190 157 198
0.640485 0.741349 2.881000 192 156 200
0.635150 0.740175 2.857000 195 152 205
0.630036 0.739177 2.834000 199 150 209
0.624701 0.737836 2.810000 204 158 211
0.619810 0.736940 2.788000 205 167 212
0.614697 0.735700 2.765000 207 170 214
0.600469 0.723400 2.701000 209 170 215
0.595800 0.722467 2.680000 211 170 216
0.586685 0.716033 2.639000 214 173 216
0.582239 0.715191 2.619000 217 177 218
0.577793 0.714279 2.599000 214 179 220
0.577793 0.718829 2.599000 212 179 223
0.573569 0.718090 2.580000 214 184 226
0.573569 0.722607 2.580000 216 187 231
0.569123 0.721486 2.560000 220 195 236
0.565121 0.720863 2.542000 225 188 229
0.560897 0.719892 2.523000 221 186 222
0.556895 0.719141 2.505000 217 184 229
0.552894 0.718327 2.487000 218 179 235
0.548892 0.717450 2.469000 219 182 235
0.537332 0.706570 2.417000 222 194 235
0.533552 0.705802 2.400000 225 194 236
0.533552 0.710003 2.400000 222 202 237
0.529995 0.709443 2.384000 220 190 235
0.526216 0.708527 2.367000 220 192 233
0.522659 0.707853 2.351000 221 194 236
0.519102 0.707123 2.335000 222 204 240
0.515767 0.706642 2.320000 224 202 239
0.512210 0.705802 2.304000 227 207 238
0.512210 0.709835 2.304000 230 202 238
0.505541 0.704573 2.274000 230 201 239
0.502206 0.703880 2.259000 230 201 241
0.495759 0.698747 2.230000 231 200 244
0.492424 0.697925 2.215000 232 198 239
0.492424 0.701802 2.215000 233 205 234
0.489312 0.701219 2.201000 234 201 239
0.486200 0.700587 2.187000 234 201 245
0.483310 0.700228 2.174000 235 206 242
0.480197 0.699500 2.160000 235 217 240
0.477307 0.699048 2.147000 235 213 242
0.471305 0.693968 2.120000 239 210 245
0.468415 0.693401 2.107000 244 210 244
0.468415 0.697090 2.107000 241 216 243
0.465747 0.696787 2.095000 238 211 243
0.465747 0.700454 2.095000 237 211 243
0.462857 0.699752 2.082000 236 210 243
0.457299 0.694950 2.057000 235 214 243
0.454631 0.694476 2.045000 235 211 243
0.451963 0.693960 2.033000 235 212 243
0.446628 0.689284 2.009000 235 212 242
0.444182 0.689007 1.998000 237 215 242
0.444182 0.692505 1.998000 239 215 242
0.441515 0.691822 1.986000 238 218 243
0.439069 0.691448 1.975000 237 216 243
0.436624 0.691035 1.964000 240 223 243
0.433956 0.690229 1.952000 243 219 244
0.431511 0.689737 1.941000 240 222 245
0.426842 0.685636 1.920000 237 213 243
0.424396 0.685049 1.909000 236 211 241
0.422173 0.684785 1.899000 235 211 242
0.419728 0.684124 1.888000 234 211 243
0.417505 0.683788 1.878000 234 209 242
0.415282 0.683416 1.868000 234 212 241
0.413058 0.683010 1.858000 235 209 242
0.413058 0.686263 1.858000 237 211 243
0.410835 0.685804 1.848000 239 211 242
0.408612 0.685310 1.838000 239 211 242
0.404388 0.681410 1.819000 240 208 242
0.400164 0.677444 1.800000 238 211 242
0.397941 0.676813 1.790000 237 209 242
0.395940 0.676528 1.781000 240 209 243
0.393939 0.676211 1.772000 243 209 243
0.393939 0.679313 1.772000 238 207 243
0.391939 0.678949 1.763000 234 206 242
0.389938 0.678553 1.754000 238 208 242
0.389938 0.681624 1.754000 242 207 243
0.699976 0.749193 3.124000 160 118 145
0.691686 0.745724 3.087000 159 109 144
0.685412 0.744315 3.059000 164 124 143
0.679586 0.743297 3.033000 169 132 160
0.667711 0.735525 2.980000 173 136 177
0.662109 0.734527 2.955000 178 140 178
0.662109 0.739700 2.955000 180 143 180
0.656508 0.738571 2.930000 182 148 185
0.650906 0.737355 2.905000 185 151 191
0.650906 0.742440 2.905000 188 149 193
0.645528 0.741349 2.881000 188 153 196
0.640151 0.740175 2.857000 189 155 201
0.634997 0.739177 2.834000 196 152 206
0.629620 0.737836 2.810000 203 149 208
0.624690 0.736940 2.788000 203 164 210
0.624690 0.741820 2.788000 203 169 212
0.614608 0.734648 2.743000 203 170 215
0.600492 0.722467 2.680000 203 171 217
0.586824 0.710607 2.619000 207 172 219
0.586824 0.715191 2.619000 211 174 220
0.582342 0.714279 2.599000 210 173 222
0.582342 0.718829 2.599000 210 173 224
0.578085 0.718090 2.580000 213 181 226
0.578085 0.722607 2.580000 216 182 232
0.573604 0.721486 2.560000 218 186 239
0.569571 0.720863 2.542000 220 187 228
0.565313 0.719892 2.523000 216 188 217
0.561280 0.719141 2.505000 212 188 225
0.557247 0.718327 2.487000 215 181 234
0.549181 0.712219 2.451000 218 179 233
0.541563 0.706570 2.417000 219 186 233
0.537754 0.705802 2.400000 221 191 234
0.534169 0.705270 2.384000 220 191 236
0.530360 0.704384 2.367000 220 181 236
0.526774 0.703738 2.351000 218 188 236
0.526774 0.707853 2.351000 216 194 235
0.523189 0.707123 2.335000 219 198 235
0.519829 0.706642 2.320000 221 194 235
0.516244 0.705802 2.304000 227 200 236
0.512883 0.705214 2.289000 233 204 236
0.509522 0.704573 2.274000 228 203 237
0.506161 0.703880 2.259000 224 203 240
0.502800 0.703134 2.244000 227 199 244
0.499663 0.702651 2.230000 230 196 242
0.496302 0.701802 2.215000 231 198 241
0.493165 0.701219 2.201000 232 201 243
0.490028 0.700587 2.187000 233 200 245
0.487115 0.700228 2.174000 233 205 242
0.483978 0.699500 2.160000 233 209 239
0.481065 0.699048 2.147000 233 215 241
0.475016 0.693968 2.120000 235 211 244
0.472103 0.693401 2.107000 238 212 243
0.472103 0.697090 2.107000 237 210 243
0.469414 0.696787 2.095000 237 204 242
0.469414 0.700454 2.095000 237 204 242
0.466501 0.699752 2.082000 237 202 242
0.460900 0.694950 2.057000 235 209 243
0.458211 0.694476 2.045000 234 203 243
0.455522 0.693960 2.033000 234 208 243
0.452833 0.693401 2.021000 234 207 242
0.448800 0.690732 2.003000 235 213 241
0.447680 0.692505 1.998000 236 217 241
0.444991 0.691822 1.986000 235 212 242
0.442526 0.691448 1.975000 235 206 242
0.440062 0.691035 1.964000 237 215 242
0.437373 0.690229 1.952000 239 215 242
0.434908 0.689737 1.941000 237 212 243
0.430203 0.685636 1.920000 235 203 241
0.427738 0.685049 1.909000 235 210 239
0.425498 0.684785 1.899000 235 210 241
0.423033 0.684124 1.888000 234 211 243
0.420792 0.683788 1.878000 234 213 242
0.418552 0.683416 1.868000 234 210 242
0.416311 0.683010 1.858000 234 202 242
0.416311 0.686263 1.858000 234 209 242
0.414070 0.685804 1.848000 235 213 241
0.411830 0.685310 1.838000 236 208 241
0.407572 0.681410 1.819000 236 203 241
0.403315 0.677444 1.800000 235 206 241
0.403315 0.680595 1.800000 234 208 242
0.399058 0.676528 1.781000 233 210 244
0.397041 0.676211 1.772000 233 210 243
0.397041 0.679313 1.772000 232 210 243
0.395025 0.678949 1.763000 231 206 243
0.393008 0.678553 1.754000 231 206 243
0.390992 0.678126 1.745000 232 207 243
0.897613 -0.146123 3.975000 122 1 1
0.897613 -0.139165 3.975000 125 62 71
0.897613 -0.132206 3.975000 189 134 142
0.897613 -0.125248 3.975000 254 224 198
0.709735 0.753750 3.143000 157 120 149
0.697089 0.745724 3.087000 151 118 146
0.690767 0.744315 3.059000 158 120 142
0.684895 0.743297 3.033000 165 129 155
0.672927 0.735525 2.980000 170 135 168
0.672927 0.740742 2.980000 176 140 171
0.667282 0.739700 2.955000 178 145 174
0.661637 0.738571 2.930000 181 147 180
0.661637 0.743700 2.930000 183 147 186
0.655991 0.742440 2.905000 186 148 189
0.650572 0.741349 2.881000 184 152 193
0.645152 0.740175 2.857000 183 152 198
0.634539 0.732917 2.810000 193 156 203
0.634539 0.737836 2.810000 203 157 204
0.629571 0.736940 2.788000 201 172 205
0.629571 0.741820 2.788000 199 167 209
0.619409 0.734648 2.743000 197 172 213
0.609925 0.728128 2.701000 196 171 214
0.591408 0.710607 2.619000 200 173 216
0.591408 0.715191 2.619000 205 172 218
0.586892 0.714279 2.599000 207 169 220
0.586892 0.718829 2.599000 209 173 222
0.582601 0.718090 2.580000 212 185 223
0.582601 0.722607 2.580000 216 183 228
0.578085 0.721486 2.560000 216 183 232
0.574021 0.720863 2.542000 216 183 228
0.569730 0.719892 2.523000 211 193 224
0.569730 0.724308 2.523000 207 186 228
0.565665 0.723526 2.505000 212 180 233
0.557536 0.717450 2.469000 217 181 232
0.553471 0.716510 2.451000 217 182 230
0.545794 0.710801 2.417000 218 186 229
0.538342 0.705270 2.384000 219 190 228
0.534503 0.704384 2.367000 220 186 231
0.534503 0.708527 2.367000 216 185 235
0.530890 0.707853 2.351000 212 192 234
0.527277 0.707123 2.335000 215 201 233
0.523890 0.706642 2.320000 219 198 234
0.520277 0.705802 2.304000 227 197 236
0.516889 0.705214 2.289000 236 201 237
0.516889 0.709220 2.289000 227 204 238
0.513502 0.708554 2.274000 219 200 240
0.506728 0.703134 2.244000 223 199 241
0.503566 0.702651 2.230000 228 194 242
0.500179 0.701802 2.215000 229 193 243
0.497018 0.701219 2.201000 231 195 244
0.493856 0.700587 2.187000 231 195 245
0.490921 0.700228 2.174000 232 201 243
0.487759 0.699500 2.160000 231 201 242
0.484824 0.699048 2.147000 231 207 243
0.481662 0.698224 2.133000 232 209 244
0.475791 0.693401 2.107000 233 207 243
0.475791 0.697090 2.107000 234 209 243
0.473081 0.696787 2.095000 236 205 243
0.473081 0.700454 2.095000 237 201 243
0.470146 0.699752 2.082000 238 205 243
0.467210 0.699005 2.069000 236 220 244
0.461791 0.694476 2.045000 234 209 243
0.459081 0.693960 2.033000 233 212 243
0.456371 0.693401 2.021000 233 212 242
0.453661 0.692801 2.009000 233 214 241
0.451177 0.692505 1.998000 233 214 241
0.445984 0.687990 1.975000 233 210 242
0.443500 0.687596 1.964000 233 207 242
0.440790 0.686812 1.952000 234 216 242
0.440790 0.690229 1.952000 236 214 242
0.438306 0.689737 1.941000 235 209 243
0.433564 0.685636 1.920000 234 211 241
0.431080 0.685049 1.909000 234 217 240
0.428822 0.684785 1.899000 235 212 241
0.426338 0.684124 1.888000 235 210 243
0.421821 0.680146 1.868000 235 211 242
0.421821 0.683416 1.868000 234 214 242
0.419563 0.683010 1.858000 233 211 242
0.419563 0.686263 1.858000 232 213 242
0.417305 0.685804 1.848000 232 211 242
0.415047 0.685310 1.838000 232 208 241
0.410757 0.681410 1.819000 233 206 241
0.408498 0.680831 1.809000 232 205 242
0.406466 0.680595 1.800000 232 209 242
0.404208 0.679947 1.790000 227 215 242
0.400143 0.676211 1.772000 223 213 242
0.398111 0.675863 1.763000 226 218 242
0.398111 0.678949 1.763000 229 208 243
0.396079 0.678553 1.754000 225 203 243
0.394046 0.678126 1.745000 222 206 243
0.894331 -0.144469 3.930000 123 30 1
0.894331 -0.137589 3.930000 159 115 79
0.904571 -0.132206 3.975000 206 172 158
0.894331 0.048156 3.930000 103 19 1
0.894331 0.055036 3.930000 113 64 20
0.904571 0.076541 3.975000 111 62 26
0.904571 0.083499 3.975000 111 60 28
0.884090 0.163217 3.885000 102 57 25
0.715237 0.753750 3.143000 148 126 154
0.702493 0.745724 3.087000 154 125 148
0.690205 0.737988 3.033000 157 127 142
0.690205 0.743297 3.033000 161 130 151
0.678144 0.735525 2.980000 166 132 160
0.678144 0.740742 2.980000 171 140 164
0.678144 0.745958 2.980000 175 144 168
0.672455 0.744873 2.955000 178 149 175
0.666766 0.743700 2.930000 180 147 182
0.661076 0.742440 2.905000 182 146 186
0.650153 0.735173 2.857000 182 148 190
0.644919 0.734216 2.834000 182 148 195
0.644919 0.739177 2.834000 189 152 200
0.639458 0.737836 2.810000 197 154 200
0.634451 0.736940 2.788000 197 160 200
0.634451 0.741820 2.788000 198 157 205
0.624211 0.734648 2.743000 197 165 211
0.609874 0.722467 2.680000 196 170 212
0.600544 0.716033 2.639000 199 172 213
0.595993 0.715191 2.619000 203 174 216
0.591441 0.714279 2.599000 205 170 219
0.591441 0.718829 2.599000 207 165 220
0.587118 0.718090 2.580000 210 178 221
0.582566 0.717005 2.560000 213 185 223
0.582566 0.721486 2.560000 214 181 226
0.578470 0.720863 2.542000 216 171 228
0.574147 0.719892 2.523000 214 183 231
0.574147 0.724308 2.523000 212 183 232
0.570050 0.723526 2.505000 216 183 233
0.561858 0.717450 2.469000 221 184 230
0.557762 0.716510 2.451000 219 183 228
0.553893 0.715801 2.434000 217 184 224
0.542515 0.705270 2.384000 221 186 220
0.538646 0.704384 2.367000 226 188 227
0.538646 0.708527 2.367000 221 189 235
0.535005 0.707853 2.351000 216 189 233
0.531364 0.707123 2.335000 218 196 231
0.527951 0.706642 2.320000 221 200 233
0.524310 0.705802 2.304000 226 198 236
0.520896 0.705214 2.289000 232 199 238
0.517483 0.704573 2.274000 227 199 240
0.517483 0.708554 2.274000 222 195 239
0.510656 0.703134 2.244000 225 194 239
0.507470 0.702651 2.230000 228 190 242
0.504057 0.701802 2.215000 228 191 246
0.500871 0.701219 2.201000 229 193 246
0.497685 0.700587 2.187000 230 197 246
0.497685 0.704415 2.187000 231 204 245
0.494726 0.704034 2.174000 230 204 245
0.488582 0.699048 2.147000 230 205 244
0.485396 0.698224 2.133000 231 203 244
0.479479 0.693401 2.107000 232 198 243
0.479479 0.697090 2.107000 234 203 243
0.476749 0.696787 2.095000 236 207 244
0.476749 0.700454 2.095000 238 206 245
0.473790 0.699752 2.082000 241 200 245
0.468101 0.694950 2.057000 237 207 245
0.465370 0.694476 2.045000 233 204 244
0.462640 0.693960 2.033000 232 215 243
0.459909 0.693401 2.021000 230 215 242
0.457178 0.692801 2.009000 231 214 242
0.454675 0.692505 1.998000 232 218 242
0.449441 0.687990 1.975000 231 209 242
0.446938 0.687596 1.964000 230 196 242
0.444207 0.686812 1.952000 232 210 243
0.444207 0.690229 1.952000 234 216 243
0.441704 0.689737 1.941000 231 214 243
0.439428 0.689564 1.931000 229 216 242
0.436925 0.688997 1.920000 233 215 242
0.432146 0.684785 1.899000 238 214 242
0.429643 0.684124 1.888000 236 211 243
0.425091 0.680146 1.868000 234 209 243
0.425091 0.683416 1.868000 235 213 243
0.422816 0.683010 1.858000 235 216 243
0.422816 0.686263 1.858000 232 213 243
0.420540 0.685804 1.848000 229 212 242
0.418265 0.685310 1.838000 232 210 242
0.415989 0.684782 1.828000 235 211 242
0.411665 0.680831 1.809000 233 209 243
0.409617 0.680595 1.800000 232 210 241
0.405293 0.676528 1.781000 229 211 240
0.403245 0.676211 1.772000 226 209 241
0.401197 0.675863 1.763000 230 210 242
0.401197 0.678949 1.763000 235 205 243
0.399149 0.678553 1.754000 231 204 244
0.397101 0.678126 1.745000 227 206 244
0.895936 -0.143623 3.907000 125 3 1
0.901210 -0.137589 3.930000 193 113 97
0.901210 -0.130710 3.930000 223 185 193
0.901210 0.048156 3.930000 101 10 1
0.911529 0.055666 3.975000 111 50 20
0.911529 0.062624 3.975000 111 65 38
0.911529 0.069583 3.975000 112 64 34
0.911529 0.076541 3.975000 111 69 29
0.911529 0.083499 3.975000 111 62 28
0.911529 0.090457 3.975000 115 56 27
0.911529 0.097415 3.975000 119 58 32
0.911529 0.111332 3.975000 108 55 35
0.890891 0.163217 3.885000 108 56 21
0.890891 0.170017 3.885000 107 57 24
0.881030 0.174861 3.842000 106 54 33
0.901210 0.185746 3.930000 103 58 41
0.901210 0.192625 3.930000 100 65 54
0.911529 0.201789 3.975000 115 72 67
0.911529 0.208747 3.975000 130 78 80
0.695514 0.737988 3.033000 157 136 143
0.695514 0.743297 3.033000 157 130 148
0.689322 0.741943 3.006000 162 124 154
0.683360 0.740742 2.980000 167 132 160
0.683360 0.745958 2.980000 171 145 166
0.677627 0.744873 2.955000 176 144 171
0.671894 0.743700 2.930000 177 148 176
0.666162 0.742440 2.905000 179 149 180
0.655154 0.735173 2.857000 180 148 184
0.649880 0.734216 2.834000 181 149 191
0.644377 0.732917 2.810000 186 153 198
0.644377 0.737836 2.810000 191 156 198
0.639332 0.736940 2.788000 194 158 198
0.634057 0.735700 2.765000 197 160 203
0.629012 0.734648 2.743000 197 162 208
0.609750 0.716805 2.659000 197 166 209
0.605164 0.716033 2.639000 199 173 210
0.600577 0.715191 2.619000 201 172 213
0.595991 0.714279 2.599000 203 174 216
0.595991 0.718829 2.599000 206 173 217
0.591634 0.718090 2.580000 208 180 219
0.587048 0.717005 2.560000 211 182 221
0.587048 0.721486 2.560000 213 185 223
0.582920 0.720863 2.542000 216 180 224
0.578563 0.719892 2.523000 216 185 226
0.574435 0.719141 2.505000 217 183 228
0.574435 0.723526 2.505000 221 185 230
0.566180 0.717450 2.469000 226 184 230
0.562052 0.716510 2.451000 221 185 231
0.558154 0.715801 2.434000 217 185 232
0.550357 0.710003 2.400000 224 185 233
0.546688 0.709443 2.384000 232 186 233
0.546688 0.713616 2.384000 226 195 233
0.542790 0.712671 2.367000 220 189 232
0.535452 0.707123 2.335000 222 197 231
0.532012 0.706642 2.320000 224 198 235
0.532012 0.710703 2.320000 226 198 238
0.528343 0.709835 2.304000 228 199 240
0.524903 0.709220 2.289000 227 200 243
0.521464 0.708554 2.274000 226 197 241
0.514584 0.703134 2.244000 227 194 240
0.511374 0.702651 2.230000 228 192 241
0.507934 0.701802 2.215000 227 188 243
0.504723 0.701219 2.201000 227 193 244
0.501513 0.700587 2.187000 228 198 245
0.498532 0.700228 2.174000 230 202 244
0.498532 0.704034 2.174000 230 209 243
0.495322 0.703281 2.160000 230 205 243
0.489130 0.698224 2.133000 231 202 244
0.486149 0.697679 2.120000 232 200 243
0.486149 0.701391 2.120000 234 201 243
0.483168 0.700778 2.107000 237 208 243
0.480416 0.700454 2.095000 240 216 244
0.477435 0.699752 2.082000 244 208 244
0.471702 0.694950 2.057000 238 205 243
0.468950 0.694476 2.045000 233 208 243
0.466198 0.693960 2.033000 230 230 242
0.463447 0.693401 2.021000 228 217 241
0.460695 0.692801 2.009000 230 211 241
0.458172 0.692505 1.998000 232 211 241
0.450376 0.684159 1.964000 229 214 242
0.447624 0.683395 1.952000 227 209 242
0.447624 0.686812 1.952000 230 212 243
0.445101 0.686340 1.941000 233 215 242
0.445101 0.689737 1.941000 228 217 242
0.442808 0.689564 1.931000 224 212 242
0.440286 0.688997 1.920000 233 215 242
0.437763 0.688391 1.909000 242 214 242
0.435470 0.688109 1.899000 238 211 243
0.428361 0.680146 1.868000 234 211 242
0.428361 0.683416 1.868000 236 213 241
0.426068 0.683010 1.858000 238 214 242
0.426068 0.686263 1.858000 232 214 243
0.423775 0.685804 1.848000 227 212 242
0.421482 0.685310 1.838000 232 209 241
0.419189 0.684782 1.828000 237 208 242
0.414832 0.680831 1.809000 235 212 242
0.412768 0.680595 1.800000 233 212 241
0.410475 0.679947 1.790000 231 210 241
0.406347 0.676211 1.772000 230 209 241
0.406347 0.679313 1.772000 235 209 241
0.404283 0.678949 1.763000 241 206 242
0.402219 0.678553 1.754000 236 203 244
