ply
format ascii 1.0
element vertex 1195
property float x
property float y
property float z
property uchar red
property uchar green
property uchar blue
end_header
0.599868 0.747204 3.006000 203 164 200
0.589691 0.739700 2.955000 204 166 203
0.584702 0.738571 2.930000 205 164 204
0.584702 0.743700 2.930000 204 167 206
0.584702 0.748829 2.930000 203 169 207
0.579713 0.747525 2.905000 205 169 208
0.579713 0.752610 2.905000 208 170 208
0.574924 0.751436 2.881000 209 173 208
0.570134 0.750177 2.857000 209 171 210
0.560755 0.742755 2.810000 208 166 213
0.547385 0.729847 2.743000 207 160 213
0.547385 0.734648 2.743000 207 167 213
0.543194 0.733789 2.722000 207 169 214
0.539004 0.732856 2.701000 206 166 216
0.539004 0.737584 2.701000 205 163 215
0.534813 0.736540 2.680000 207 169 214
0.530622 0.735424 2.659000 209 170 211
0.526631 0.734512 2.639000 213 169 208
0.522640 0.733530 2.619000 217 172 208
0.514857 0.727123 2.580000 214 172 208
0.510866 0.725968 2.560000 211 172 208
0.507274 0.725313 2.542000 208 170 209
0.503482 0.724308 2.523000 206 171 213
0.499890 0.723526 2.505000 204 170 217
0.496298 0.722680 2.487000 203 163 214
0.492706 0.721772 2.469000 206 162 211
0.492706 0.726094 2.469000 209 163 213
0.489114 0.725091 2.451000 204 162 215
0.485722 0.724322 2.434000 199 162 209
0.482329 0.723494 2.417000 201 161 204
0.475744 0.717789 2.384000 203 163 202
0.472351 0.716814 2.367000 204 161 201
0.469159 0.716084 2.351000 206 160 201
0.465966 0.715298 2.335000 206 165 202
0.462972 0.714764 2.320000 207 162 203
0.459779 0.713868 2.304000 205 162 204
0.456786 0.713227 2.289000 203 166 203
0.453793 0.712534 2.274000 202 164 203
0.450799 0.711788 2.259000 201 160 202
0.447806 0.710990 2.244000 200 159 202
0.445012 0.710458 2.230000 200 161 201
0.442019 0.709557 2.215000 198 161 201
0.439225 0.708925 2.201000 197 163 202
0.436431 0.708244 2.187000 199 164 203
0.436431 0.712072 2.187000 200 164 202
0.433837 0.711645 2.174000 200 162 201
0.431043 0.710843 2.160000 200 154 199
0.428449 0.710323 2.147000 201 159 198
0.425655 0.709425 2.133000 203 161 196
0.423061 0.708813 2.120000 198 159 195
0.418072 0.704121 2.095000 194 158 195
0.415478 0.703397 2.082000 195 160 196
0.412883 0.702626 2.069000 197 161 198
0.408094 0.698056 2.045000 198 160 201
0.405699 0.697518 2.033000 200 162 196
0.403305 0.696939 2.021000 196 160 192
0.403305 0.700477 2.021000 192 161 191
0.400910 0.699834 2.009000 196 160 190
0.398715 0.699500 1.998000 199 160 192
0.396320 0.698775 1.986000 198 157 195
0.396320 0.702252 1.986000 197 157 193
0.394125 0.701819 1.975000 195 158 191
0.391930 0.701349 1.964000 193 160 190
0.389535 0.700480 1.952000 192 154 189
0.387340 0.699931 1.941000 191 148 189
0.380954 0.691733 1.909000 189 150 189
0.380954 0.695075 1.909000 187 150 187
0.378959 0.694758 1.899000 187 148 185
0.378959 0.698082 1.899000 187 148 182
0.376764 0.697343 1.888000 184 146 180
0.374768 0.696937 1.878000 182 141 180
0.372772 0.696496 1.868000 182 145 180
0.368781 0.692274 1.848000 181 146 177
0.366786 0.691745 1.838000 181 145 175
0.366786 0.694963 1.838000 182 146 177
0.364790 0.694381 1.828000 184 145 180
0.362994 0.694147 1.819000 187 146 177
0.362994 0.697331 1.819000 184 146 175
0.360999 0.696664 1.809000 181 145 183
0.359203 0.696349 1.800000 181 144 192
0.357207 0.695614 1.790000 181 144 185
0.638547 0.766257 3.172000 199 158 195
0.632710 0.764753 3.143000 200 158 192
0.621436 0.756531 3.087000 202 158 195
0.615800 0.755024 3.059000 201 158 197
0.605130 0.747204 3.006000 201 162 199
0.599896 0.745958 2.980000 203 171 201
0.594864 0.744873 2.955000 206 166 201
0.594864 0.750046 2.955000 206 164 202
0.589831 0.748829 2.930000 206 166 204
0.584798 0.747525 2.905000 206 168 207
0.584798 0.752610 2.905000 206 166 207
0.579967 0.751436 2.881000 203 168 207
0.575136 0.750177 2.857000 200 167 208
0.570505 0.749099 2.834000 202 164 210
0.552186 0.729847 2.743000 205 165 210
0.552186 0.734648 2.743000 206 170 210
0.547959 0.733789 2.722000 208 169 211
0.547959 0.738554 2.722000 204 171 213
0.543732 0.737584 2.701000 201 168 212
0.539504 0.736540 2.680000 205 170 211
0.535277 0.735424 2.659000 209 168 210
0.531251 0.734512 2.639000 214 164 209
0.527224 0.733530 2.619000 220 169 208
0.523198 0.732478 2.599000 216 171 208
0.519373 0.731639 2.580000 212 169 208
0.511724 0.725313 2.542000 208 169 209
0.507899 0.724308 2.523000 205 168 211
0.504275 0.723526 2.505000 203 172 213
0.504275 0.727911 2.505000 201 165 211
0.497028 0.721772 2.469000 207 162 209
0.493405 0.720800 2.451000 213 163 209
0.493405 0.725091 2.451000 208 163 210
0.489982 0.724322 2.434000 204 163 207
0.486560 0.723494 2.417000 204 162 204
0.483138 0.722606 2.400000 204 162 202
0.476495 0.716814 2.367000 204 162 200
0.476495 0.720958 2.367000 205 164 200
0.473274 0.720200 2.351000 207 167 201
0.470053 0.719386 2.335000 210 164 203
0.467033 0.718825 2.320000 206 162 206
0.460793 0.713227 2.289000 203 164 204
0.457773 0.712534 2.274000 201 164 203
0.457773 0.716515 2.274000 199 162 202
0.451734 0.710990 2.244000 200 159 201
0.448916 0.710458 2.230000 201 159 197
0.445896 0.709557 2.215000 200 162 193
0.443078 0.708925 2.201000 200 161 197
0.440260 0.708244 2.187000 201 160 201
0.440260 0.712072 2.187000 203 160 200
0.437643 0.711645 2.174000 202 158 200
0.434824 0.710843 2.160000 202 159 198
0.432207 0.710323 2.147000 202 163 196
0.429389 0.709425 2.133000 202 161 195
0.426772 0.708813 2.120000 200 159 194
0.421739 0.704121 2.095000 198 159 193
0.419122 0.703397 2.082000 197 159 193
0.416505 0.702626 2.069000 197 159 194
0.414090 0.702152 2.057000 197 159 196
0.409258 0.697518 2.033000 197 159 193
0.406842 0.696939 2.021000 193 158 191
0.404427 0.696317 2.009000 190 161 188
0.402212 0.696002 1.998000 196 163 185
0.402212 0.699500 1.998000 203 161 189
0.399797 0.698775 1.986000 200 158 194
0.397582 0.698362 1.975000 198 157 193
0.397582 0.701819 1.975000 198 157 193
0.395368 0.701349 1.964000 199 156 194
0.392952 0.700480 1.952000 195 154 195
0.390738 0.699931 1.941000 192 151 193
0.384296 0.691733 1.909000 190 148 191
0.384296 0.695075 1.909000 189 148 189
0.382283 0.694758 1.899000 188 145 187
0.382283 0.698082 1.899000 187 148 184
0.380069 0.697343 1.888000 184 150 181
0.380069 0.700648 1.888000 182 148 180
0.378056 0.700225 1.878000 182 152 178
0.374029 0.696020 1.858000 182 148 175
0.370003 0.691745 1.838000 182 146 171
0.367990 0.691182 1.828000 183 147 177
0.367990 0.694381 1.828000 187 146 184
0.366178 0.694147 1.819000 192 144 181
0.364165 0.693498 1.809000 188 146 178
0.364165 0.696664 1.809000 185 146 182
0.362354 0.696349 1.800000 184 145 187
0.360340 0.695614 1.790000 183 147 183
0.638211 0.759252 3.143000 194 160 196
0.632526 0.757940 3.115000 199 159 196
0.626840 0.756531 3.087000 204 158 197
0.615875 0.748607 3.033000 202 157 198
0.610392 0.747204 3.006000 201 156 198
0.605113 0.745958 2.980000 202 163 199
0.600037 0.744873 2.955000 204 166 199
0.600037 0.750046 2.955000 205 164 199
0.594960 0.748829 2.930000 206 165 202
0.589884 0.747525 2.905000 206 162 206
0.589884 0.752610 2.905000 207 158 206
0.585010 0.751436 2.881000 206 164 206
0.580137 0.750177 2.857000 205 168 206
0.570593 0.742755 2.810000 205 166 207
0.556988 0.729847 2.743000 205 166 207
0.556988 0.734648 2.743000 208 168 207
0.552724 0.733789 2.722000 211 169 208
0.552724 0.738554 2.722000 207 169 210
0.548460 0.737584 2.701000 203 171 209
0.544196 0.736540 2.680000 205 171 209
0.539931 0.735424 2.659000 208 171 209
0.535870 0.734512 2.639000 211 168 210
0.531809 0.733530 2.619000 214 169 209
0.527748 0.732478 2.599000 212 167 208
0.523890 0.731639 2.580000 210 166 208
0.519829 0.730449 2.560000 207 165 209
0.516173 0.729763 2.542000 205 162 209
0.512315 0.728725 2.523000 203 167 210
0.508660 0.727911 2.505000 202 164 208
0.505005 0.727034 2.487000 206 163 207
0.501350 0.726094 2.469000 210 164 206
0.497695 0.725091 2.451000 206 165 206
0.494243 0.724322 2.434000 203 165 205
0.490791 0.723494 2.417000 203 163 204
0.484090 0.717789 2.384000 203 163 201
0.484090 0.721962 2.384000 201 165 199
0.480638 0.720958 2.367000 200 169 200
0.477389 0.720200 2.351000 203 166 201
0.474140 0.719386 2.335000 206 166 204
0.474140 0.723473 2.335000 204 164 208
0.464800 0.713227 2.289000 202 166 206
0.461754 0.712534 2.274000 200 165 204
0.458708 0.711788 2.259000 197 165 202
0.455662 0.710990 2.244000 196 161 200
0.452819 0.710458 2.230000 196 156 192
0.449774 0.709557 2.215000 198 159 185
0.446931 0.708925 2.201000 201 160 192
0.444088 0.708244 2.187000 203 159 200
0.444088 0.712072 2.187000 206 159 199
0.441448 0.711645 2.174000 204 163 199
0.438605 0.710843 2.160000 203 163 196
0.435966 0.710323 2.147000 201 162 194
0.433123 0.709425 2.133000 200 162 193
0.430483 0.708813 2.120000 199 159 193
0.427843 0.708154 2.107000 198 160 192
0.422767 0.703397 2.082000 197 159 191
0.420127 0.702626 2.069000 196 159 191
0.417690 0.702152 2.057000 197 159 191
0.412817 0.697518 2.033000 198 160 190
0.410380 0.696939 2.021000 195 160 190
0.407944 0.696317 2.009000 193 163 185
0.405710 0.696002 1.998000 196 163 180
0.405710 0.699500 1.998000 199 163 186
0.403273 0.698775 1.986000 196 160 193
0.403273 0.702252 1.986000 194 159 194
0.401040 0.701819 1.975000 195 157 195
0.398806 0.701349 1.964000 196 155 198
0.396369 0.700480 1.952000 193 157 201
0.394136 0.699931 1.941000 189 155 197
0.389871 0.695719 1.920000 188 151 193
0.387638 0.695075 1.909000 188 151 191
0.385607 0.694758 1.899000 187 149 189
0.383374 0.694038 1.888000 186 150 186
0.383374 0.697343 1.888000 184 150 183
0.381343 0.696937 1.878000 183 150 180
0.379312 0.696496 1.868000 183 150 177
0.377282 0.696020 1.858000 183 149 172
0.375251 0.695509 1.848000 183 149 168
0.373221 0.694963 1.838000 184 152 178
0.371190 0.694381 1.828000 186 147 188
0.369363 0.694147 1.819000 189 140 185
0.367332 0.693498 1.809000 187 144 182
0.365504 0.693198 1.800000 185 149 182
0.365504 0.696349 1.800000 184 147 182
0.363474 0.695614 1.790000 183 149 181
0.661736 0.769198 3.231000 207 158 194
0.649653 0.760705 3.172000 198 159 195
0.643713 0.759252 3.143000 190 159 196
0.637978 0.757940 3.115000 198 160 197
0.626509 0.749669 3.059000 207 159 200
0.621184 0.748607 3.033000 204 159 203
0.621184 0.753916 3.033000 201 159 200
0.610329 0.745958 2.980000 201 160 198
0.610329 0.751175 2.980000 202 162 198
0.605209 0.750046 2.955000 204 164 198
0.600089 0.748829 2.930000 206 161 203
0.594969 0.747525 2.905000 207 160 208
0.594969 0.752610 2.905000 208 161 206
0.590053 0.751436 2.881000 209 163 204
0.580427 0.744138 2.834000 211 167 204
0.575512 0.742755 2.810000 208 168 205
0.561790 0.729847 2.743000 206 168 205
0.561790 0.734648 2.743000 210 169 206
0.557489 0.733789 2.722000 214 169 208
0.557489 0.738554 2.722000 210 168 210
0.553188 0.737584 2.701000 206 170 209
0.548887 0.736540 2.680000 206 172 208
0.544586 0.735424 2.659000 207 170 208
0.540490 0.734512 2.639000 207 168 209
0.540490 0.739131 2.639000 208 166 209
0.532297 0.732478 2.599000 208 165 209
0.528406 0.731639 2.580000 208 166 208
0.524310 0.730449 2.560000 206 165 207
0.520623 0.729763 2.542000 205 167 207
0.513045 0.723526 2.505000 204 172 208
0.513045 0.727911 2.505000 204 168 206
0.509359 0.727034 2.487000 205 164 205
0.505672 0.726094 2.469000 207 163 205
0.501986 0.725091 2.451000 205 168 204
0.498504 0.724322 2.434000 203 167 204
0.495022 0.723494 2.417000 202 165 205
0.491540 0.722606 2.400000 202 164 206
0.488263 0.721962 2.384000 199 166 208
0.484782 0.720958 2.367000 196 166 206
0.481505 0.720200 2.351000 199 164 203
0.478228 0.719386 2.335000 203 165 205
0.478228 0.723473 2.335000 202 164 206
0.468807 0.713227 2.289000 202 164 205
0.468807 0.717234 2.289000 199 168 203
0.465735 0.716515 2.274000 196 166 201
0.459590 0.710990 2.244000 193 165 199
0.456723 0.710458 2.230000 191 162 195
0.453651 0.709557 2.215000 196 161 190
0.450784 0.708925 2.201000 202 161 195
0.447916 0.708244 2.187000 206 159 200
0.447916 0.712072 2.187000 210 163 200
0.445254 0.711645 2.174000 207 174 201
0.442386 0.710843 2.160000 204 165 198
0.439724 0.710323 2.147000 201 163 195
0.436857 0.709425 2.133000 199 160 194
0.434194 0.708813 2.120000 199 157 193
0.429074 0.704121 2.095000 199 154 191
0.426411 0.703397 2.082000 197 160 189
0.423749 0.702626 2.069000 196 158 189
0.421291 0.702152 2.057000 197 161 190
0.418833 0.701636 2.045000 199 160 191
0.413918 0.696939 2.021000 197 160 192
0.411460 0.696317 2.009000 196 161 192
0.410231 0.697744 2.003000 196 165 192
0.409207 0.699500 1.998000 196 162 194
0.406750 0.698775 1.986000 193 160 195
0.406750 0.702252 1.986000 190 159 194
0.404497 0.701819 1.975000 192 157 193
0.402244 0.701349 1.964000 194 158 195
0.399786 0.700480 1.952000 190 165 197
0.397533 0.699931 1.941000 187 156 194
0.390979 0.691733 1.909000 187 151 191
0.390979 0.695075 1.909000 187 151 190
0.388931 0.694758 1.899000 186 151 189
0.386678 0.694038 1.888000 186 151 187
0.384630 0.693650 1.878000 185 151 184
0.384630 0.696937 1.878000 184 150 182
0.382582 0.696496 1.868000 184 150 180
0.380534 0.696020 1.858000 184 150 178
0.378486 0.695509 1.848000 184 150 176
0.376438 0.694963 1.838000 185 151 180
0.374390 0.694381 1.828000 185 153 185
0.372547 0.694147 1.819000 186 148 183
0.370499 0.693498 1.809000 186 143 182
0.368655 0.693198 1.800000 186 145 182
0.366607 0.692480 1.790000 185 146 183
0.366607 0.695614 1.790000 184 146 184
0.661195 0.762056 3.201000 203 156 192
0.655205 0.760705 3.172000 198 157 194
0.649215 0.759252 3.143000 194 158 196
0.649215 0.764753 3.143000 198 159 198
0.643431 0.763393 3.115000 202 160 203
0.637648 0.761935 3.087000 201 160 208
0.626493 0.753916 3.033000 200 161 202
0.615546 0.745958 2.980000 201 159 197
0.610382 0.744873 2.955000 201 158 197
0.610382 0.750046 2.955000 202 159 198
0.605218 0.748829 2.930000 203 157 204
0.605218 0.753958 2.930000 204 161 210
0.600054 0.752610 2.905000 205 163 206
0.590139 0.745176 2.857000 206 166 203
0.585388 0.744138 2.834000 208 171 203
0.580431 0.742755 2.810000 206 169 203
0.575886 0.741820 2.788000 204 169 204
0.566591 0.734648 2.743000 206 169 206
0.566591 0.739450 2.743000 209 170 208
0.562254 0.738554 2.722000 207 170 211
0.557916 0.737584 2.701000 206 172 209
0.553578 0.736540 2.680000 206 171 208
0.553578 0.741232 2.680000 207 172 208
0.549240 0.740078 2.659000 207 169 208
0.545109 0.739131 2.639000 207 163 209
0.540978 0.738114 2.619000 206 167 210
0.536847 0.737027 2.599000 206 170 208
0.528791 0.730449 2.560000 205 168 206
0.521148 0.724308 2.523000 205 170 206
0.521148 0.728725 2.523000 203 171 206
0.517430 0.727911 2.505000 202 172 205
0.513712 0.727034 2.487000 203 165 204
0.509994 0.726094 2.469000 205 159 203
0.506276 0.725091 2.451000 203 167 203
0.502765 0.724322 2.434000 201 172 204
0.499253 0.723494 2.417000 202 168 206
0.495742 0.722606 2.400000 203 165 212
0.492437 0.721962 2.384000 201 165 218
0.488925 0.720958 2.367000 200 168 212
0.485620 0.720200 2.351000 203 166 206
0.479217 0.714764 2.320000 207 166 205
0.479217 0.718825 2.320000 204 165 205
0.472814 0.713227 2.289000 202 160 204
0.469715 0.712534 2.274000 199 166 203
0.469715 0.716515 2.274000 197 168 201
0.463518 0.710990 2.244000 196 165 199
0.460627 0.710458 2.230000 195 166 197
0.457528 0.709557 2.215000 198 164 196
0.454636 0.708925 2.201000 201 164 198
0.451745 0.708244 2.187000 201 161 200
0.449059 0.707839 2.174000 202 163 202
0.449059 0.711645 2.174000 202 164 204
0.446167 0.710843 2.160000 202 161 200
0.443482 0.710323 2.147000 200 162 196
0.440590 0.709425 2.133000 198 160 194
0.437905 0.708813 2.120000 192 152 193
0.432741 0.704121 2.095000 187 140 190
0.430056 0.703397 2.082000 190 151 187
0.430056 0.707041 2.082000 193 155 188
0.424892 0.702152 2.057000 195 160 189
0.422413 0.701636 2.045000 197 162 192
0.419934 0.701077 2.033000 195 159 195
0.414977 0.696317 2.009000 194 156 200
0.414977 0.699834 2.009000 196 160 205
0.412705 0.699500 1.998000 198 162 201
0.410226 0.698775 1.986000 195 160 198
0.410226 0.702252 1.986000 192 160 195
0.407954 0.701819 1.975000 194 158 192
0.405682 0.701349 1.964000 195 156 192
0.403203 0.700480 1.952000 195 156 193
0.400931 0.699931 1.941000 196 154 191
0.396593 0.695719 1.920000 192 152 189
0.394321 0.695075 1.909000 188 152 189
0.392256 0.694758 1.899000 187 152 190
0.389983 0.694038 1.888000 186 155 188
0.387918 0.693650 1.878000 185 152 186
0.385852 0.693226 1.868000 185 152 184
0.383787 0.692768 1.858000 185 151 183
0.381721 0.692274 1.848000 186 151 183
0.381721 0.695509 1.848000 186 150 184
0.379655 0.694963 1.838000 186 152 183
0.377590 0.694381 1.828000 186 156 182
0.377590 0.697581 1.828000 186 157 182
0.373665 0.693498 1.809000 188 147 183
0.371806 0.693198 1.800000 190 143 183
0.369741 0.692480 1.790000 188 144 184
0.369741 0.695614 1.790000 186 145 187
0.660758 0.760705 3.172000 199 156 191
0.654717 0.759252 3.143000 198 157 192
0.654717 0.764753 3.143000 198 159 193
0.648884 0.763393 3.115000 198 159 197
0.643051 0.761935 3.087000 199 161 201
0.637219 0.760379 3.059000 200 160 199
0.631803 0.759225 3.033000 200 159 197
0.626178 0.757729 3.006000 201 159 194
0.620762 0.756391 2.980000 201 159 192
0.610347 0.748829 2.930000 201 159 196
0.610347 0.753958 2.930000 202 165 201
0.605139 0.752610 2.905000 203 164 201
0.595140 0.745176 2.857000 204 168 201
0.585350 0.737836 2.810000 205 166 202
0.585350 0.742755 2.810000 204 170 204
0.580767 0.741820 2.788000 203 170 204
0.571393 0.734648 2.743000 203 171 204
0.571393 0.739450 2.743000 204 167 205
0.567019 0.738554 2.722000 205 172 206
0.562644 0.737584 2.701000 207 171 207
0.562644 0.742312 2.701000 207 169 208
0.558270 0.741232 2.680000 207 171 210
0.553895 0.740078 2.659000 206 174 212
0.549729 0.739131 2.639000 206 167 210
0.545563 0.738114 2.619000 205 171 209
0.537439 0.731639 2.580000 204 170 208
0.533272 0.730449 2.560000 204 167 206
0.525565 0.724308 2.523000 205 169 206
0.521815 0.723526 2.505000 203 172 206
0.521815 0.727911 2.505000 201 168 205
0.518066 0.727034 2.487000 202 167 204
0.514316 0.726094 2.469000 203 166 204
0.514316 0.730416 2.469000 201 171 204
0.510567 0.729381 2.451000 199 169 205
0.507025 0.728583 2.434000 202 172 205
0.503484 0.727725 2.417000 205 166 207
0.499943 0.726808 2.400000 204 164 209
0.496610 0.726136 2.384000 204 165 206
0.489736 0.720200 2.351000 207 167 204
0.483278 0.714764 2.320000 211 166 204
0.483278 0.718825 2.320000 206 170 204
0.476820 0.713227 2.289000 202 168 202
0.476820 0.717234 2.289000 200 170 201
0.473696 0.716515 2.274000 198 163 198
0.470571 0.715743 2.259000 198 164 196
0.464530 0.710458 2.230000 199 165 196
0.461406 0.709557 2.215000 199 165 196
0.458489 0.708925 2.201000 200 163 198
0.455573 0.708244 2.187000 197 160 199
0.452865 0.707839 2.174000 194 160 200
0.452865 0.711645 2.174000 197 160 201
0.449949 0.710843 2.160000 200 161 199
0.447241 0.710323 2.147000 199 164 197
0.444324 0.709425 2.133000 198 158 196
0.441616 0.708813 2.120000 186 153 195
0.436408 0.704121 2.095000 175 149 192
0.433700 0.703397 2.082000 183 151 190
0.433700 0.707041 2.082000 191 157 190
0.430992 0.706248 2.069000 193 165 190
0.425993 0.701636 2.045000 195 161 191
0.423493 0.701077 2.033000 193 158 193
0.420994 0.700477 2.021000 192 157 197
0.418494 0.699834 2.009000 196 158 201
0.417244 0.701250 2.003000 201 160 198
0.416202 0.702997 1.998000 198 161 195
0.413703 0.702252 1.986000 195 159 191
0.411411 0.701819 1.975000 196 159 187
0.409120 0.701349 1.964000 197 152 190
0.406620 0.700480 1.952000 201 150 192
0.404329 0.699931 1.941000 205 151 190
0.399954 0.695719 1.920000 197 152 189
0.397663 0.695075 1.909000 190 152 191
0.395580 0.694758 1.899000 188 151 193
0.393288 0.694038 1.888000 186 152 190
0.391205 0.693650 1.878000 186 152 187
0.389122 0.693226 1.868000 187 151 185
0.387039 0.692768 1.858000 187 151 184
0.387039 0.696020 1.858000 188 150 185
0.384956 0.695509 1.848000 187 148 186
0.382873 0.694963 1.838000 187 152 183
0.380790 0.694381 1.828000 186 163 180
0.378915 0.694147 1.819000 186 154 182
0.378915 0.697331 1.819000 190 148 184
0.376832 0.696664 1.809000 194 144 185
0.372874 0.692480 1.790000 191 142 185
0.370999 0.692116 1.781000 188 145 186
0.666310 0.760705 3.172000 197 154 188
0.660219 0.759252 3.143000 197 158 188
0.660219 0.764753 3.143000 197 158 189
0.654337 0.763393 3.115000 198 159 191
0.648455 0.761935 3.087000 201 161 194
0.642574 0.760379 3.059000 204 162 195
0.631440 0.752467 3.006000 202 160 197
0.631440 0.757729 3.006000 200 161 192
0.625979 0.756391 2.980000 197 158 187
0.615476 0.748829 2.930000 195 155 189
0.615476 0.753958 2.930000 197 159 192
0.610224 0.752610 2.905000 200 160 195
0.605183 0.751436 2.881000 201 160 199
0.600141 0.750177 2.857000 203 156 202
0.595310 0.749099 2.834000 202 163 205
0.590269 0.747674 2.810000 201 171 203
0.580816 0.740540 2.765000 203 166 202
0.576195 0.739450 2.743000 205 157 201
0.571783 0.738554 2.722000 208 168 201
0.567372 0.737584 2.701000 211 174 204
0.562961 0.736540 2.680000 209 172 208
0.558550 0.735424 2.659000 207 171 212
0.558550 0.740078 2.659000 207 167 216
0.554348 0.739131 2.639000 207 161 212
0.550147 0.738114 2.619000 206 168 209
0.545946 0.737027 2.599000 205 172 208
0.537754 0.730449 2.560000 205 170 207
0.529981 0.724308 2.523000 206 167 206
0.526200 0.723526 2.505000 204 166 206
0.526200 0.727911 2.505000 203 163 205
0.522419 0.727034 2.487000 203 164 205
0.518638 0.726094 2.469000 204 167 205
0.514857 0.725091 2.451000 203 166 206
0.511286 0.724322 2.434000 202 163 205
0.511286 0.728583 2.434000 203 165 205
0.507715 0.727725 2.417000 205 165 202
0.504144 0.726808 2.400000 205 163 200
0.500783 0.726136 2.384000 205 163 201
0.493851 0.720200 2.351000 206 163 203
0.483978 0.709835 2.304000 207 162 203
0.483978 0.713868 2.304000 204 166 204
0.483978 0.717901 2.304000 201 172 201
0.480827 0.717234 2.289000 198 167 199
0.477677 0.716515 2.274000 195 152 196
0.474526 0.715743 2.259000 198 161 193
0.468434 0.710458 2.230000 201 165 195
0.462342 0.705072 2.201000 200 164 197
0.459401 0.704415 2.187000 200 163 198
0.459401 0.708244 2.187000 198 160 199
0.456670 0.707839 2.174000 196 158 199
0.456670 0.711645 2.174000 198 159 199
0.456670 0.715450 2.174000 200 161 198
0.453730 0.714624 2.160000 198 159 198
0.448058 0.709425 2.133000 197 155 197
0.445327 0.708813 2.120000 190 157 197
0.440076 0.704121 2.095000 183 155 195
0.437345 0.703397 2.082000 188 154 193
0.437345 0.707041 2.082000 193 157 192
0.434614 0.706248 2.069000 194 159 191
0.432093 0.705753 2.057000 195 160 191
0.429573 0.705215 2.045000 195 158 192
0.424531 0.700477 2.021000 194 158 195
0.424531 0.704014 2.021000 196 158 198
0.422011 0.703351 2.009000 199 161 195
0.419700 0.702997 1.998000 196 160 192
0.417179 0.702252 1.986000 194 159 187
0.414869 0.701819 1.975000 194 155 183
0.410037 0.697063 1.952000 195 146 187
0.407726 0.696533 1.941000 197 148 192
0.407726 0.699931 1.941000 199 151 190
0.403315 0.695719 1.920000 194 152 189
0.401005 0.695075 1.909000 189 153 192
0.398904 0.694758 1.899000 188 152 196
0.396593 0.694038 1.888000 187 153 192
0.394493 0.693650 1.878000 188 151 188
0.394493 0.696937 1.878000 189 149 186
0.392392 0.696496 1.868000 188 150 185
0.390292 0.696020 1.858000 188 150 187
0.388191 0.695509 1.848000 187 148 189
0.386090 0.694963 1.838000 186 145 184
0.382099 0.690963 1.819000 183 150 179
0.382099 0.694147 1.819000 181 148 182
0.379999 0.693498 1.809000 186 146 186
0.379999 0.696664 1.809000 190 145 186
0.376007 0.692480 1.790000 188 144 187
0.374117 0.692116 1.781000 187 144 186
0.665720 0.759252 3.143000 196 153 187
0.659790 0.757940 3.115000 197 159 189
0.653859 0.756531 3.087000 198 158 190
0.653859 0.761935 3.087000 203 164 192
0.647928 0.760379 3.059000 209 161 196
0.642421 0.759225 3.033000 204 160 199
0.636702 0.757729 3.006000 199 159 195
0.631195 0.756391 2.980000 194 157 192
0.625900 0.755218 2.955000 190 156 192
0.620605 0.753958 2.930000 193 156 193
0.615310 0.752610 2.905000 197 158 195
0.610226 0.751436 2.881000 199 159 197
0.605143 0.750177 2.857000 202 156 198
0.600271 0.749099 2.834000 201 155 200
0.595188 0.747674 2.810000 200 163 201
0.585656 0.740540 2.765000 203 167 202
0.580996 0.739450 2.743000 206 163 201
0.576548 0.738554 2.722000 211 170 201
0.572100 0.737584 2.701000 216 169 203
0.567652 0.736540 2.680000 211 174 205
0.563204 0.735424 2.659000 207 169 208
0.563204 0.740078 2.659000 208 163 212
0.558968 0.739131 2.639000 209 163 210
0.554732 0.738114 2.619000 208 170 209
0.546471 0.731639 2.580000 207 170 210
0.534398 0.719892 2.523000 207 174 212
0.534398 0.724308 2.523000 207 166 210
0.530585 0.723526 2.505000 206 165 208
0.530585 0.727911 2.505000 206 164 207
0.526773 0.727034 2.487000 205 162 206
0.522960 0.726094 2.469000 205 165 206
0.522960 0.730416 2.469000 205 166 206
0.515547 0.724322 2.434000 206 164 207
0.515547 0.728583 2.434000 205 163 207
0.511946 0.727725 2.417000 205 163 205
0.508345 0.726808 2.400000 205 163 204
0.508345 0.731009 2.400000 206 162 204
0.497967 0.720200 2.351000 205 162 204
0.491400 0.714764 2.320000 204 162 204
0.488011 0.713868 2.304000 202 163 204
0.488011 0.717901 2.304000 201 169 202
0.484834 0.717234 2.289000 197 177 200
0.481657 0.716515 2.274000 193 163 198
0.478480 0.715743 2.259000 198 163 196
0.472337 0.710458 2.230000 203 164 197
0.466195 0.705072 2.201000 202 164 199
0.463230 0.704415 2.187000 201 162 201
0.463230 0.708244 2.187000 200 162 204
0.460476 0.707839 2.174000 199 160 201
0.460476 0.711645 2.174000 199 159 198
0.457511 0.710843 2.160000 200 158 197
0.457511 0.714624 2.160000 198 156 196
0.449038 0.705102 2.120000 196 159 196
0.446285 0.704466 2.107000 193 168 196
0.440989 0.699752 2.082000 191 159 194
0.438236 0.699005 2.069000 193 154 193
0.438236 0.702626 2.069000 195 156 192
0.435694 0.702152 2.057000 195 157 192
0.433152 0.701636 2.045000 196 157 192
0.430611 0.701077 2.033000 196 156 192
0.428069 0.700477 2.021000 197 157 197
0.428069 0.704014 2.021000 197 157 202
0.425527 0.703351 2.009000 197 158 197
0.424256 0.704757 2.003000 195 160 193
0.420656 0.702252 1.986000 193 158 192
0.418326 0.701819 1.975000 193 157 190
0.413454 0.697063 1.952000 193 150 191
0.411124 0.696533 1.941000 193 148 192
0.411124 0.699931 1.941000 194 151 190
0.406676 0.695719 1.920000 191 152 188
0.404346 0.695075 1.909000 189 152 190
0.402228 0.694758 1.899000 189 153 192
0.402228 0.698082 1.899000 189 152 189
0.399898 0.697343 1.888000 190 151 187
0.397780 0.696937 1.878000 192 150 185
0.395662 0.696496 1.868000 190 151 184
0.393544 0.696020 1.858000 188 150 186
0.391426 0.695509 1.848000 186 151 188
0.389308 0.694963 1.838000 185 147 185
0.385283 0.690963 1.819000 181 145 182
0.385283 0.694147 1.819000 177 147 187
0.383165 0.693498 1.809000 182 146 191
0.383165 0.696664 1.809000 187 146 189
0.379141 0.692480 1.790000 186 147 187
0.379141 0.695614 1.790000 186 144 185
0.665243 0.752488 3.115000 194 147 187
0.665243 0.757940 3.115000 195 151 189
0.659263 0.756531 3.087000 197 152 190
0.659263 0.761935 3.087000 201 158 191
0.653283 0.760379 3.059000 205 161 196
0.647731 0.759225 3.033000 202 159 202
0.641964 0.757729 3.006000 200 160 199
0.636412 0.756391 2.980000 196 158 197
0.631073 0.755218 2.955000 192 157 195
0.625734 0.753958 2.930000 195 156 194
0.620395 0.752610 2.905000 198 158 195
0.615269 0.751436 2.881000 201 157 196
0.605232 0.744138 2.834000 205 157 195
0.605232 0.749099 2.834000 200 157 195
0.600106 0.747674 2.810000 196 160 198
0.590496 0.740540 2.765000 199 162 202
0.585798 0.739450 2.743000 203 158 202
0.581313 0.738554 2.722000 205 160 202
0.576828 0.737584 2.701000 208 158 202
0.572343 0.736540 2.680000 206 169 203
0.567859 0.735424 2.659000 205 171 205
0.567859 0.740078 2.659000 208 164 208
0.563587 0.739131 2.639000 211 161 209
0.559316 0.738114 2.619000 209 164 210
0.550987 0.731639 2.580000 207 164 213
0.546716 0.730449 2.560000 207 168 217
0.538814 0.724308 2.523000 208 161 213
0.534970 0.723526 2.505000 208 163 210
0.534970 0.727911 2.505000 208 168 209
0.531126 0.727034 2.487000 206 164 208
0.523438 0.720800 2.451000 204 165 207
0.519807 0.720061 2.434000 203 166 207
0.519807 0.724322 2.434000 203 166 208
0.516177 0.723494 2.417000 203 163 210
0.516177 0.727725 2.417000 204 163 209
0.512546 0.726808 2.400000 205 162 208
0.509129 0.726136 2.384000 206 163 206
0.502082 0.720200 2.351000 205 162 205
0.495462 0.714764 2.320000 205 162 204
0.492045 0.713868 2.304000 205 163 204
0.492045 0.717901 2.304000 205 166 203
0.488841 0.717234 2.289000 202 167 202
0.485638 0.716515 2.274000 198 163 201
0.482434 0.715743 2.259000 203 163 200
0.476241 0.710458 2.230000 208 164 200
0.473038 0.709557 2.215000 204 163 201
0.467058 0.704415 2.187000 201 162 205
0.464282 0.704034 2.174000 200 163 210
0.461292 0.703281 2.160000 199 164 203
0.461292 0.707062 2.160000 201 160 197
0.458515 0.706565 2.147000 202 157 195
0.458515 0.710323 2.147000 199 156 194
0.455526 0.709425 2.133000 195 157 194
0.452749 0.708813 2.120000 195 160 195
0.449973 0.708154 2.107000 194 160 194
0.444634 0.703397 2.082000 198 156 193
0.441858 0.702626 2.069000 201 157 193
0.439295 0.702152 2.057000 199 157 193
0.436732 0.701636 2.045000 197 158 192
0.434169 0.701077 2.033000 199 157 192
0.434169 0.704636 2.033000 200 157 199
0.431607 0.704014 2.021000 198 157 206
0.431607 0.707552 2.021000 197 157 200
0.429044 0.706868 2.009000 195 156 195
0.426695 0.706495 1.998000 194 156 196
0.421783 0.701819 1.975000 193 153 198
0.416871 0.697063 1.952000 192 149 195
0.414522 0.696533 1.941000 192 149 192
0.414522 0.699931 1.941000 192 153 190
0.410037 0.695719 1.920000 190 152 188
0.407688 0.695075 1.909000 188 151 188
0.405552 0.694758 1.899000 188 153 188
0.403203 0.694038 1.888000 189 153 187
0.403203 0.697343 1.888000 190 151 186
0.401068 0.696937 1.878000 191 150 185
0.398932 0.696496 1.868000 189 151 184
0.396796 0.696020 1.858000 188 151 185
0.394661 0.695509 1.848000 187 150 187
0.392525 0.694963 1.838000 186 150 186
0.388467 0.690963 1.819000 184 148 186
0.386332 0.690331 1.809000 182 150 191
0.384410 0.690047 1.800000 186 148 197
0.384410 0.693198 1.800000 190 147 192
0.382274 0.692480 1.790000 189 146 187
0.380352 0.692116 1.781000 187 148 185
0.670695 0.752488 3.115000 192 148 185
0.670695 0.757940 3.115000 194 149 188
0.664667 0.756531 3.087000 196 152 189
0.658638 0.755024 3.059000 198 157 190
0.658638 0.760379 3.059000 201 157 194
0.653040 0.759225 3.033000 201 157 198
0.647226 0.757729 3.006000 201 159 198
0.641628 0.756391 2.980000 198 159 197
0.636246 0.755218 2.955000 195 156 197
0.630863 0.753958 2.930000 197 153 197
0.625480 0.752610 2.905000 200 155 196
0.620312 0.751436 2.881000 204 156 195
0.615145 0.750177 2.857000 208 157 190
0.610193 0.749099 2.834000 200 157 186
0.605025 0.747674 2.810000 192 160 195
0.600288 0.746700 2.788000 196 165 203
0.590599 0.739450 2.743000 201 159 201
0.586078 0.738554 2.722000 200 155 200
0.581556 0.737584 2.701000 200 161 202
0.577035 0.736540 2.680000 202 175 204
0.572513 0.735424 2.659000 204 167 205
0.568207 0.734512 2.639000 209 163 206
0.568207 0.739131 2.639000 214 163 207
0.563901 0.738114 2.619000 211 164 209
0.555504 0.731639 2.580000 208 167 211
0.551197 0.730449 2.560000 208 173 213
0.543231 0.724308 2.523000 209 165 211
0.543231 0.728725 2.523000 209 161 209
0.539355 0.727911 2.505000 210 163 207
0.531604 0.721772 2.469000 207 164 206
0.527728 0.720800 2.451000 204 165 207
0.524068 0.720061 2.434000 202 168 208
0.524068 0.724322 2.434000 200 167 212
0.520408 0.723494 2.417000 202 163 216
0.520408 0.727725 2.417000 204 161 213
0.516748 0.726808 2.400000 205 162 209
0.516748 0.731009 2.400000 207 163 206
0.506197 0.720200 2.351000 206 164 203
0.499523 0.714764 2.320000 206 163 204
0.496078 0.713868 2.304000 208 164 204
0.496078 0.717901 2.304000 210 164 203
0.492848 0.717234 2.289000 207 162 203
0.492848 0.721241 2.289000 204 161 202
0.489618 0.720495 2.274000 208 162 202
0.486389 0.719697 2.259000 213 162 201
0.476915 0.709557 2.215000 207 162 200
0.470886 0.704415 2.187000 201 161 202
0.468087 0.704034 2.174000 200 164 205
0.462274 0.699048 2.147000 200 163 201
0.462274 0.702807 2.147000 202 161 196
0.462274 0.706565 2.147000 205 160 194
0.459259 0.705691 2.133000 200 157 192
0.459259 0.709425 2.133000 195 155 191
0.456460 0.708813 2.120000 196 156 190
0.456460 0.712524 2.120000 198 156 192
0.448279 0.703397 2.082000 203 155 194
0.445479 0.702626 2.069000 208 156 196
0.442896 0.702152 2.057000 203 158 199
0.440312 0.701636 2.045000 199 157 195
0.440312 0.705215 2.045000 201 157 191
0.437728 0.704636 2.033000 204 156 192
0.437728 0.708195 2.033000 200 157 194
0.435145 0.707552 2.021000 197 155 193
0.432561 0.706868 2.009000 196 152 193
0.427609 0.702252 1.986000 195 153 194
0.425240 0.701819 1.975000 193 152 195
0.420288 0.697063 1.952000 192 150 193
0.417920 0.696533 1.941000 191 149 190
0.417920 0.699931 1.941000 190 151 189
0.413398 0.695719 1.920000 188 152 187
0.411030 0.695075 1.909000 187 152 187
0.411030 0.698416 1.909000 188 155 187
0.408877 0.698082 1.899000 189 153 186
0.406508 0.697343 1.888000 189 150 185
0.404355 0.696937 1.878000 190 150 183
0.402202 0.696496 1.868000 189 152 182
0.400049 0.696020 1.858000 189 151 183
0.397896 0.695509 1.848000 188 149 185
0.395743 0.694963 1.838000 188 149 184
0.391652 0.690963 1.819000 188 149 184
0.391652 0.694147 1.819000 188 150 188
0.389499 0.693498 1.809000 191 150 192
0.387561 0.693198 1.800000 194 147 189
0.385408 0.692480 1.790000 191 145 186
0.385408 0.695614 1.790000 189 146 184
0.676148 0.752488 3.115000 191 148 184
0.676148 0.757940 3.115000 192 151 187
0.663993 0.749669 3.059000 194 153 188
0.663993 0.755024 3.059000 196 154 190
0.658349 0.753916 3.033000 198 156 192
0.652488 0.752467 3.006000 198 157 195
0.646845 0.751175 2.980000 198 160 196
0.641418 0.750046 2.955000 197 159 198
0.635992 0.748829 2.930000 196 158 199
0.635992 0.753958 2.930000 197 155 200
0.630565 0.752610 2.905000 199 154 197
0.625356 0.751436 2.881000 201 156 194
0.615154 0.744138 2.834000 203 158 186
0.615154 0.749099 2.834000 198 158 178
0.609944 0.747674 2.810000 194 158 191
0.605169 0.746700 2.788000 197 159 205
0.600176 0.745381 2.765000 200 160 201
0.590843 0.738554 2.722000 200 158 198
0.586285 0.737584 2.701000 200 159 202
0.581726 0.736540 2.680000 201 164 206
0.577168 0.735424 2.659000 203 162 205
0.572827 0.734512 2.639000 206 163 205
0.572827 0.739131 2.639000 208 166 206
0.568485 0.738114 2.619000 207 165 208
0.560020 0.731639 2.580000 206 168 208
0.555679 0.730449 2.560000 206 169 209
0.547647 0.724308 2.523000 207 166 208
0.547647 0.728725 2.523000 208 162 208
0.543740 0.727911 2.505000 209 162 206
0.535926 0.721772 2.469000 207 163 205
0.532019 0.720800 2.451000 205 165 207
0.528329 0.720061 2.434000 203 167 210
0.528329 0.724322 2.434000 202 172 216
0.528329 0.728583 2.434000 205 167 223
0.524639 0.727725 2.417000 207 159 217
0.524639 0.731956 2.417000 207 161 211
0.520949 0.731009 2.400000 206 165 206
0.513786 0.725101 2.367000 204 164 202
0.503584 0.714764 2.320000 203 165 203
0.500111 0.713868 2.304000 205 165 205
0.500111 0.717901 2.304000 207 167 204
0.496855 0.717234 2.289000 205 164 204
0.496855 0.721241 2.289000 204 158 204
0.493599 0.720495 2.274000 206 160 205
0.490343 0.719697 2.259000 209 162 202
0.484048 0.714362 2.230000 204 160 199
0.480792 0.713434 2.215000 200 158 200
0.474715 0.708244 2.187000 198 161 201
0.468854 0.703281 2.160000 196 164 198
0.466032 0.702807 2.147000 198 165 196
0.466032 0.706565 2.147000 200 165 193
0.462993 0.705691 2.133000 195 158 190
0.462993 0.709425 2.133000 190 153 187
0.460171 0.708813 2.120000 193 155 185
0.460171 0.712524 2.120000 196 156 190
0.451923 0.703397 2.082000 199 155 195
0.446497 0.698551 2.057000 203 156 200
0.443892 0.698056 2.045000 199 156 205
0.443892 0.701636 2.045000 196 158 198
0.441287 0.701077 2.033000 196 156 191
0.441287 0.704636 2.033000 197 155 186
0.438682 0.704014 2.021000 196 154 182
0.438682 0.707552 2.021000 196 155 186
0.436078 0.706868 2.009000 195 153 191
0.431085 0.702252 1.986000 194 154 192
0.426310 0.697910 1.964000 191 154 193
0.423705 0.697063 1.952000 189 152 191
0.421317 0.696533 1.941000 190 149 189
0.421317 0.699931 1.941000 192 150 188
0.419147 0.699705 1.931000 193 151 187
0.416759 0.699080 1.920000 194 153 186
0.414371 0.698416 1.909000 192 153 186
0.412201 0.698082 1.899000 190 154 185
0.412201 0.701406 1.899000 190 151 185
0.409813 0.700648 1.888000 189 150 182
0.405472 0.696496 1.868000 188 150 180
0.403301 0.696020 1.858000 188 152 182
0.401131 0.695509 1.848000 188 150 184
0.394836 0.687779 1.819000 188 150 183
0.394836 0.690963 1.819000 188 150 182
0.394836 0.694147 1.819000 189 151 184
0.392665 0.693498 1.809000 190 150 187
0.390712 0.693198 1.800000 192 149 186
0.388541 0.692480 1.790000 190 146 185
0.388541 0.695614 1.790000 187 146 183
0.681601 0.752488 3.115000 190 146 182
0.681601 0.757940 3.115000 191 154 184
0.675474 0.756531 3.087000 193 152 186
0.669348 0.755024 3.059000 194 151 188
0.663658 0.753916 3.033000 196 155 191
0.657750 0.752467 3.006000 196 157 194
0.652061 0.751175 2.980000 196 158 196
0.646591 0.750046 2.955000 197 160 198
0.641121 0.748829 2.930000 198 157 201
0.641121 0.753958 2.930000 198 155 204
0.635650 0.752610 2.905000 198 156 201
0.630399 0.751436 2.881000 198 158 197
0.620115 0.744138 2.834000 199 159 191
0.620115 0.749099 2.834000 197 161 184
0.614863 0.747674 2.810000 196 158 190
0.614863 0.752593 2.810000 197 156 196
0.610049 0.751581 2.788000 199 158 196
0.600203 0.744251 2.743000 199 160 197
0.586418 0.731849 2.680000 200 159 202
0.581822 0.730769 2.659000 201 160 208
0.581822 0.735424 2.659000 203 162 206
0.577446 0.734512 2.639000 203 162 205
0.577446 0.739131 2.639000 203 164 205
0.573070 0.738114 2.619000 203 164 206
0.568694 0.737027 2.599000 204 167 206
0.564536 0.736156 2.580000 205 170 206
0.556221 0.729763 2.542000 206 167 205
0.552064 0.728725 2.523000 207 162 205
0.544187 0.722680 2.487000 208 162 204
0.540248 0.721772 2.469000 207 161 203
0.536309 0.720800 2.451000 206 163 205
0.536309 0.725091 2.451000 205 166 208
0.532590 0.724322 2.434000 205 167 212
0.532590 0.728583 2.434000 208 175 216
0.528870 0.727725 2.417000 211 164 212
0.525150 0.726808 2.400000 208 159 209
0.521649 0.726136 2.384000 206 162 206
0.514428 0.720200 2.351000 203 164 204
0.507645 0.714764 2.320000 200 164 204
0.507645 0.718825 2.320000 202 164 204
0.504144 0.717901 2.304000 204 167 204
0.500862 0.717234 2.289000 204 170 205
0.500862 0.721241 2.289000 205 162 204
0.497580 0.720495 2.274000 205 160 204
0.500862 0.729255 2.289000 205 160 201
0.487952 0.714362 2.230000 202 161 199
0.484670 0.713434 2.215000 199 160 201
0.478543 0.708244 2.187000 196 161 202
0.472635 0.703281 2.160000 193 165 200
0.472635 0.707062 2.160000 194 173 198
0.469790 0.706565 2.147000 196 164 195
0.466727 0.705691 2.133000 190 160 192
0.466727 0.709425 2.133000 185 157 191
0.463883 0.708813 2.120000 190 157 190
0.463883 0.712524 2.120000 195 156 193
0.455568 0.703397 2.082000 196 155 196
0.452723 0.702626 2.069000 198 154 199
0.447472 0.698056 2.045000 195 154 201
0.447472 0.701636 2.045000 193 154 197
0.444846 0.701077 2.033000 191 155 193
0.444846 0.704636 2.033000 190 154 190
0.442220 0.704014 2.021000 193 152 187
0.442220 0.707552 2.021000 196 153 189
0.439594 0.706868 2.009000 194 154 192
0.434562 0.702252 1.986000 193 155 192
0.432155 0.701819 1.975000 189 158 192
0.427122 0.697063 1.952000 186 152 191
0.424715 0.696533 1.941000 190 147 189
0.424715 0.699931 1.941000 194 149 188
0.422527 0.699705 1.931000 198 150 186
0.420120 0.699080 1.920000 202 151 185
0.417713 0.698416 1.909000 197 151 185
0.415525 0.698082 1.899000 192 151 185
0.415525 0.701406 1.899000 190 150 186
0.413118 0.700648 1.888000 189 150 184
0.410930 0.700225 1.878000 188 149 181
0.408742 0.699766 1.868000 187 151 183
0.404366 0.695509 1.848000 187 152 184
0.398020 0.687779 1.819000 188 151 181
0.398020 0.690963 1.819000 189 152 178
0.395832 0.690331 1.809000 190 151 181
0.395832 0.693498 1.809000 190 150 185
0.393862 0.693198 1.800000 191 148 184
0.391674 0.692480 1.790000 188 144 184
0.391674 0.695614 1.790000 186 146 183
0.687054 0.752488 3.115000 188 139 180
0.680878 0.751127 3.087000 189 148 182
0.674702 0.749669 3.059000 190 153 184
0.668968 0.748607 3.033000 192 153 186
0.668968 0.753916 3.033000 195 156 190
0.663012 0.752467 3.006000 193 155 194
0.657278 0.751175 2.980000 192 155 196
0.657278 0.756391 2.980000 194 156 199
0.646250 0.748829 2.930000 197 157 204
0.646250 0.753958 2.930000 197 156 209
0.640736 0.752610 2.905000 198 158 205
0.630149 0.745176 2.857000 199 158 201
0.625076 0.744138 2.834000 200 160 196
0.625076 0.749099 2.834000 198 160 191
0.619782 0.747674 2.810000 196 160 189
0.619782 0.752593 2.810000 197 158 187
0.614930 0.751581 2.788000 198 157 191
0.605004 0.744251 2.743000 199 157 196
0.591109 0.731849 2.680000 200 159 203
0.586477 0.730769 2.659000 200 161 210
0.582066 0.729892 2.639000 201 164 207
0.582066 0.734512 2.639000 201 164 205
0.582066 0.739131 2.639000 202 165 204
0.577655 0.738114 2.619000 202 166 204
0.569053 0.731639 2.580000 202 169 203
0.569053 0.736156 2.580000 203 169 203
0.560671 0.729763 2.542000 205 170 203
0.556481 0.728725 2.523000 206 167 203
0.548540 0.722680 2.487000 208 163 202
0.544570 0.721772 2.469000 206 161 202
0.540600 0.720800 2.451000 205 161 204
0.540600 0.725091 2.451000 205 160 206
0.536850 0.724322 2.434000 205 156 207
0.536850 0.728583 2.434000 206 164 209
0.533101 0.727725 2.417000 207 163 208
0.533101 0.731956 2.417000 206 162 208
0.525822 0.726136 2.384000 205 163 207
0.522073 0.725101 2.367000 204 164 206
0.518544 0.724315 2.351000 204 165 205
0.515015 0.723473 2.335000 204 165 204
0.511706 0.722887 2.320000 205 169 205
0.504869 0.717234 2.289000 206 167 206
0.504869 0.721241 2.289000 207 160 204
0.501560 0.720495 2.274000 206 162 203
0.498252 0.719697 2.259000 205 159 201
0.491856 0.714362 2.230000 202 159 200
0.488547 0.713434 2.215000 199 162 202
0.485459 0.712777 2.201000 198 161 204
0.476416 0.703281 2.160000 197 162 202
0.473549 0.702807 2.147000 197 162 200
0.470461 0.701958 2.133000 196 158 197
0.470461 0.705691 2.133000 193 158 194
0.470461 0.709425 2.133000 190 159 195
0.467594 0.708813 2.120000 195 157 196
0.467594 0.712524 2.120000 200 157 197
0.459212 0.703397 2.082000 198 154 198
0.456345 0.702626 2.069000 197 154 198
0.451051 0.698056 2.045000 195 153 198
0.451051 0.701636 2.045000 193 152 196
0.448405 0.701077 2.033000 193 154 195
0.448405 0.704636 2.033000 192 156 193
0.445758 0.704014 2.021000 195 154 192
0.445758 0.707552 2.021000 198 154 192
0.440685 0.702997 1.998000 196 154 193
0.438038 0.702252 1.986000 195 156 192
0.435612 0.701819 1.975000 195 154 192
0.430539 0.697063 1.952000 196 151 191
0.428113 0.696533 1.941000 195 150 190
0.428113 0.699931 1.941000 195 150 188
0.425907 0.699705 1.931000 195 150 186
0.423481 0.699080 1.920000 196 152 185
0.421055 0.698416 1.909000 193 152 184
0.418849 0.698082 1.899000 190 152 186
0.418849 0.701406 1.899000 189 151 188
0.416423 0.700648 1.888000 189 151 185
0.414217 0.700225 1.878000 187 150 183
0.409806 0.696020 1.858000 185 152 184
0.407600 0.695509 1.848000 186 153 185
0.403189 0.691182 1.828000 188 150 179
0.401204 0.690963 1.819000 191 152 174
0.401204 0.694147 1.819000 195 154 178
0.398999 0.693498 1.809000 192 151 183
0.397013 0.693198 1.800000 190 151 183
0.394808 0.692480 1.790000 187 148 184
0.394808 0.695614 1.790000 185 149 183
0.692507 0.752488 3.115000 187 140 177
0.686282 0.751127 3.087000 187 148 180
0.680057 0.749669 3.059000 187 150 182
0.674277 0.748607 3.033000 190 155 184
0.674277 0.753916 3.033000 194 155 187
0.668274 0.752467 3.006000 191 154 191
0.662494 0.751175 2.980000 189 154 193
0.656936 0.750046 2.955000 192 154 196
0.651379 0.748829 2.930000 196 155 200
0.651379 0.753958 2.930000 197 157 204
0.645821 0.752610 2.905000 199 156 202
0.640485 0.751436 2.881000 200 157 200
0.630036 0.744138 2.834000 201 158 197
0.630036 0.749099 2.834000 199 159 193
0.624701 0.747674 2.810000 197 159 191
0.624701 0.752593 2.810000 197 159 189
0.619810 0.751581 2.788000 198 156 190
0.605137 0.738554 2.722000 199 155 191
0.595800 0.731849 2.680000 200 157 198
0.591132 0.730769 2.659000 199 163 205
0.586685 0.729892 2.639000 199 161 203
0.586685 0.734512 2.639000 200 165 202
0.586685 0.739131 2.639000 201 164 202
0.582239 0.738114 2.619000 200 167 203
0.577793 0.737027 2.599000 200 165 203
0.573569 0.736156 2.580000 202 169 203
0.565121 0.729763 2.542000 205 170 203
0.560897 0.728725 2.523000 206 176 204
0.556895 0.727911 2.505000 208 165 203
0.552894 0.727034 2.487000 206 159 203
0.548892 0.726094 2.469000 204 159 204
0.544890 0.725091 2.451000 204 158 205
0.541111 0.724322 2.434000 205 159 206
0.537332 0.723494 2.417000 204 162 208
0.537332 0.727725 2.417000 204 162 208
0.533552 0.726808 2.400000 204 164 208
0.529995 0.726136 2.384000 205 164 207
0.526216 0.725101 2.367000 206 164 207
0.522659 0.724315 2.351000 208 165 204
0.519102 0.723473 2.335000 207 164 202
0.515767 0.722887 2.320000 206 167 206
0.508876 0.717234 2.289000 207 170 210
0.508876 0.721241 2.289000 209 167 206
0.505541 0.720495 2.274000 207 169 202
0.502206 0.719697 2.259000 205 161 200
0.495759 0.714362 2.230000 202 157 198
0.492424 0.713434 2.215000 200 160 196
0.489312 0.712777 2.201000 201 162 195
0.483310 0.707839 2.174000 202 160 196
0.477307 0.702807 2.147000 199 156 198
0.477307 0.706565 2.147000 197 156 195
0.477307 0.710323 2.147000 196 157 193
0.474195 0.709425 2.133000 196 156 196
0.471305 0.708813 2.120000 200 157 199
0.471305 0.712524 2.120000 205 155 198
0.462857 0.703397 2.082000 201 153 196
0.459967 0.702626 2.069000 197 154 195
0.454631 0.698056 2.045000 195 155 194
0.454631 0.701636 2.045000 194 153 196
0.451963 0.701077 2.033000 194 155 198
0.451963 0.704636 2.033000 195 155 195
0.449296 0.704014 2.021000 197 154 193
0.446628 0.703351 2.009000 200 154 192
0.444182 0.702997 1.998000 198 154 192
0.441515 0.702252 1.986000 197 154 190
0.439069 0.701819 1.975000 201 153 189
0.436624 0.701349 1.964000 206 154 190
0.431511 0.696533 1.941000 201 154 192
0.431511 0.699931 1.941000 196 150 189
0.429287 0.699705 1.931000 193 148 186
0.426842 0.699080 1.920000 191 149 181
0.424396 0.698416 1.909000 189 155 176
0.422173 0.698082 1.899000 188 153 181
0.422173 0.701406 1.899000 188 151 185
0.419728 0.700648 1.888000 189 149 184
0.417505 0.700225 1.878000 186 148 183
0.413058 0.696020 1.858000 183 151 184
0.410835 0.695509 1.848000 185 158 185
0.406389 0.691182 1.828000 188 152 180
0.404388 0.690963 1.819000 194 154 176
0.404388 0.694147 1.819000 201 153 179
0.402165 0.693498 1.809000 195 152 182
0.400164 0.693198 1.800000 189 150 182
0.397941 0.692480 1.790000 187 150 183
0.397941 0.695614 1.790000 185 148 183
0.710731 0.755152 3.172000 179 138 168
0.704233 0.753750 3.143000 182 136 171
0.697959 0.752488 3.115000 185 136 174
