ply
format ascii 1.0
element vertex 1187
property float x
property float y
property float z
property uchar red
property uchar green
property uchar blue
end_header
-1.010746 0.734554 3.357000 122 83 100
-1.000810 0.733152 3.324000 126 80 96
-0.982143 0.725187 3.262000 122 82 93
-0.972809 0.723951 3.231000 119 85 96
-0.972809 0.729607 3.231000 123 83 99
-0.963776 0.728436 3.201000 128 81 97
-0.963776 0.734039 3.201000 122 80 95
-0.955045 0.732942 3.172000 115 83 96
-0.946313 0.731743 3.143000 119 84 97
-0.937883 0.730676 3.115000 123 84 99
-0.929453 0.729512 3.087000 122 84 102
-0.905065 0.715633 3.006000 121 86 105
-0.889709 0.708664 2.955000 122 85 108
-0.889709 0.713836 2.955000 123 85 105
-0.882182 0.712926 2.930000 123 87 103
-0.874655 0.711928 2.905000 123 89 104
-0.867429 0.711090 2.881000 124 89 105
-0.867429 0.716133 2.881000 125 89 102
-0.860203 0.715169 2.857000 124 87 100
-0.860203 0.720170 2.857000 124 89 101
-0.846052 0.713241 2.810000 124 89 102
-0.839428 0.712538 2.788000 124 89 102
-0.819556 0.700435 2.722000 130 87 102
-0.813233 0.699759 2.701000 136 87 99
-0.806911 0.699010 2.680000 128 87 97
-0.800588 0.698187 2.659000 119 86 102
-0.800588 0.702842 2.659000 123 89 108
-0.788544 0.696853 2.619000 127 91 108
-0.782523 0.696081 2.599000 126 92 109
-0.776802 0.695509 2.580000 125 93 112
-0.770780 0.694599 2.560000 128 90 115
-0.765361 0.694164 2.542000 130 88 115
-0.759640 0.693392 2.523000 127 92 115
-0.759640 0.697809 2.523000 123 95 119
-0.748801 0.692206 2.487000 125 96 123
-0.743381 0.691518 2.469000 127 96 117
-0.743381 0.695840 2.469000 128 95 111
-0.732843 0.690236 2.434000 129 97 115
-0.727725 0.689646 2.417000 131 98 120
-0.722606 0.688997 2.400000 134 103 121
-0.717789 0.688577 2.384000 136 99 123
-0.712671 0.687810 2.367000 139 92 125
-0.703036 0.682599 2.335000 134 95 128
-0.703036 0.686686 2.335000 129 95 127
-0.693702 0.681603 2.304000 132 96 127
-0.689186 0.681172 2.289000 136 99 127
-0.684670 0.680689 2.274000 136 101 128
-0.684670 0.684670 2.274000 137 103 131
-0.680153 0.684108 2.259000 131 103 135
-0.675637 0.683493 2.244000 125 104 131
-0.671422 0.683133 2.230000 128 105 127
-0.662690 0.678102 2.201000 132 106 123
-0.658475 0.677617 2.187000 134 102 119
-0.654561 0.677395 2.174000 136 100 125
-0.646432 0.672740 2.147000 140 101 131
-0.638302 0.667991 2.120000 144 103 133
-0.634388 0.667583 2.107000 141 99 136
-0.630775 0.667448 2.095000 139 100 140
-0.630775 0.671116 2.095000 136 104 145
-0.626861 0.670596 2.082000 134 109 135
-0.622947 0.670030 2.069000 136 109 125
-0.622947 0.673652 2.069000 138 108 129
-0.619334 0.673346 2.057000 138 105 133
-0.612108 0.669048 2.033000 139 109 135
-0.604882 0.664667 2.009000 140 110 138
-0.604882 0.668183 2.009000 141 110 135
-0.601570 0.668023 1.998000 140 110 133
-0.597957 0.667487 1.986000 139 110 134
-0.597957 0.670963 1.986000 140 108 136
-0.591333 0.666969 1.964000 142 105 141
-0.584408 0.662556 1.941000 142 103 147
-0.581397 0.662522 1.931000 142 103 141
-0.581397 0.665903 1.931000 143 106 136
-0.578085 0.665470 1.920000 144 111 137
-0.574773 0.664999 1.909000 141 113 139
-0.571762 0.664840 1.899000 138 114 139
-0.568450 0.664294 1.888000 139 110 139
-0.562429 0.660527 1.868000 140 108 135
-0.556407 0.656690 1.848000 141 110 132
-0.553396 0.656354 1.838000 143 111 132
-0.553396 0.659571 1.838000 143 109 133
-0.550385 0.659182 1.828000 143 111 137
-0.550385 0.662382 1.828000 142 109 141
-0.541955 0.655387 1.800000 142 107 138
-0.541955 0.658538 1.800000 139 105 135
-0.538944 0.658013 1.790000 137 106 146
-0.536234 0.657822 1.781000 143 111 158
-0.536234 0.660940 1.781000 150 114 149
-0.530815 0.657346 1.763000 145 112 141
-0.528105 0.657061 1.754000 140 112 139
-0.528105 0.660131 1.754000 139 114 138
-0.525395 0.659799 1.745000 139 115 142
-0.522685 0.659435 1.736000 139 115 147
-0.520277 0.659420 1.728000 140 116 146
-0.517567 0.658995 1.719000 143 115 145
-0.512448 0.655457 1.702000 145 118 143
-0.510040 0.655342 1.694000 147 117 142
-0.507631 0.655198 1.686000 150 115 144
-1.189859 0.744532 3.975000 110 68 90
-1.189859 0.751490 3.975000 109 68 79
-1.176389 0.749862 3.930000 108 72 68
-1.162919 0.748076 3.885000 108 76 74
-1.150047 0.746522 3.842000 109 79 80
-1.162919 0.761678 3.885000 111 79 87
-1.137475 0.751665 3.800000 111 79 94
-1.125202 0.750135 3.759000 111 78 91
-1.125202 0.756715 3.759000 111 78 88
-1.112930 0.754970 3.718000 112 79 86
-1.089581 0.745503 3.640000 108 82 84
-1.067131 0.736383 3.565000 104 84 89
-1.067131 0.742624 3.565000 109 86 93
-1.045579 0.733740 3.493000 115 82 95
-1.045579 0.739854 3.493000 119 82 97
-1.035102 0.738494 3.458000 123 82 92
-1.035102 0.744547 3.458000 121 83 87
-1.024626 0.743003 3.423000 120 85 91
-1.004869 0.734554 3.357000 124 87 96
-0.994991 0.733152 3.324000 129 84 94
-0.985712 0.732078 3.293000 122 83 92
-0.967153 0.723951 3.231000 116 84 97
-0.967153 0.729607 3.231000 124 85 102
-0.958173 0.728436 3.201000 133 81 99
-0.958173 0.734039 3.201000 127 79 96
-0.949492 0.732942 3.172000 122 80 96
-0.940812 0.731743 3.143000 125 83 97
-0.924049 0.724108 3.087000 129 84 101
-0.915668 0.722896 3.059000 125 85 106
-0.899803 0.715633 3.006000 122 84 106
-0.892020 0.714659 2.980000 123 85 107
-0.884537 0.713836 2.955000 125 85 104
-0.877053 0.712926 2.930000 125 89 102
-0.869570 0.711928 2.905000 125 89 103
-0.862386 0.711090 2.881000 124 91 104
-0.862386 0.716133 2.881000 124 90 103
-0.855202 0.715169 2.857000 124 90 101
-0.848317 0.714372 2.834000 124 89 102
-0.841133 0.713241 2.810000 124 88 102
-0.827663 0.706660 2.765000 124 86 103
-0.814791 0.700435 2.722000 126 84 105
-0.808505 0.699759 2.701000 128 86 102
-0.802219 0.699010 2.680000 121 86 100
-0.795933 0.698187 2.659000 114 88 104
-0.795933 0.702842 2.659000 121 91 107
-0.789947 0.702175 2.639000 128 90 108
-0.783960 0.701438 2.619000 126 93 110
-0.777973 0.700631 2.599000 125 91 114
-0.772286 0.700025 2.580000 125 91 118
-0.760911 0.694164 2.542000 126 90 117
-0.755224 0.693392 2.523000 123 92 117
-0.749836 0.692831 2.505000 120 94 124
-0.744448 0.692206 2.487000 124 95 132
-0.739060 0.691518 2.469000 128 95 124
-0.739060 0.695840 2.469000 129 96 117
-0.733671 0.695057 2.451000 130 96 119
-0.728583 0.694497 2.434000 131 98 121
-0.718405 0.688997 2.400000 133 98 122
-0.713616 0.688577 2.384000 134 95 124
-0.708527 0.687810 2.367000 135 95 125
-0.703738 0.687276 2.351000 130 99 126
-0.698949 0.686686 2.335000 125 97 127
-0.694459 0.686336 2.320000 130 94 128
-0.689669 0.685636 2.304000 136 98 129
-0.685179 0.685179 2.289000 139 102 130
-0.680689 0.684670 2.274000 142 101 134
-0.676199 0.684108 2.259000 136 104 138
-0.671709 0.683493 2.244000 131 104 133
-0.663028 0.678538 2.215000 132 106 129
-0.658838 0.678102 2.201000 133 104 126
-0.654647 0.677617 2.187000 135 102 123
-0.646565 0.673032 2.160000 138 100 127
-0.642673 0.672740 2.147000 145 98 131
-0.634591 0.667991 2.120000 152 100 132
-0.630700 0.667583 2.107000 146 97 133
-0.627108 0.667448 2.095000 141 99 137
-0.623217 0.666951 2.082000 137 101 141
-0.619325 0.666408 2.069000 133 106 135
-0.619325 0.670030 2.069000 134 110 129
-0.615733 0.669745 2.057000 135 107 131
-0.612141 0.669418 2.045000 136 104 134
-0.608549 0.669048 2.033000 138 107 135
-0.601365 0.664667 2.009000 140 111 136
-0.601365 0.668183 2.009000 142 110 132
-0.599569 0.669694 2.003000 140 113 129
-0.598072 0.671520 1.998000 139 112 131
-0.594480 0.670963 1.986000 136 112 134
-0.587895 0.666969 1.964000 133 108 137
-0.584303 0.666310 1.952000 137 103 140
-0.578017 0.662522 1.931000 142 104 139
-0.578017 0.665903 1.931000 142 106 137
-0.574724 0.665470 1.920000 143 110 142
-0.571432 0.664999 1.909000 140 115 147
-0.568438 0.664840 1.899000 138 111 143
-0.565146 0.664294 1.888000 140 109 138
-0.559159 0.660527 1.868000 142 108 135
-0.550179 0.653136 1.838000 143 109 132
-0.550179 0.656354 1.838000 145 108 133
-0.550179 0.659571 1.838000 144 106 135
-0.547185 0.659182 1.828000 144 108 138
-0.547185 0.662382 1.828000 144 111 141
-0.541498 0.658664 1.809000 144 109 140
-0.538804 0.658538 1.800000 143 107 138
-0.535811 0.658013 1.790000 142 109 144
-0.535811 0.661146 1.790000 148 115 151
-0.533117 0.660940 1.781000 155 114 144
-0.527729 0.657346 1.763000 147 114 138
-0.525035 0.657061 1.754000 140 113 138
-0.522341 0.656744 1.745000 142 115 138
-0.522341 0.659799 1.745000 144 115 144
-0.519647 0.659435 1.736000 142 113 151
-0.517252 0.659420 1.728000 141 114 145
-0.514558 0.658995 1.719000 144 113 140
-0.509469 0.655457 1.702000 148 113 141
-0.507074 0.655342 1.694000 151 118 142
-0.504680 0.655198 1.686000 155 113 144
-1.182900 0.716699 3.975000 110 72 76
-1.182900 0.723657 3.975000 111 74 72
-1.182900 0.730615 3.975000 110 75 69
-1.182900 0.737573 3.975000 109 76 83
-1.182900 0.744532 3.975000 106 71 98
-1.169509 0.742982 3.930000 104 63 78
-1.182900 0.758448 3.975000 106 70 59
-1.169509 0.756741 3.930000 109 76 68
-1.156118 0.754877 3.885000 110 77 78
-1.156118 0.761678 3.885000 111 79 83
-1.143322 0.759973 3.842000 112 78 89
-1.130823 0.758317 3.800000 114 78 89
-1.130823 0.764969 3.800000 114 78 90
-1.118622 0.763295 3.759000 114 79 90
-1.083209 0.745503 3.640000 112 81 90
-1.049880 0.728740 3.528000 109 84 91
-1.049880 0.734916 3.528000 113 83 93
-1.039465 0.733740 3.493000 116 79 92
-1.039465 0.739854 3.493000 118 81 92
-1.029049 0.738494 3.458000 119 84 87
-1.029049 0.744547 3.458000 116 84 82
-1.008813 0.735840 3.390000 113 85 87
-0.998993 0.734554 3.357000 118 86 92
-0.989173 0.733152 3.324000 123 87 92
-0.979947 0.732078 3.293000 120 84 92
-0.970722 0.730897 3.262000 118 83 98
-0.961497 0.729607 3.231000 122 84 105
-0.952570 0.728436 3.201000 127 82 101
-0.952570 0.734039 3.201000 124 80 97
-0.943940 0.732942 3.172000 120 77 97
-0.935310 0.731743 3.143000 122 83 98
-0.918645 0.724108 3.087000 125 87 104
-0.902575 0.716751 3.033000 123 85 110
-0.886803 0.709443 2.980000 122 82 108
-0.879364 0.708664 2.955000 126 83 106
-0.879364 0.713836 2.955000 130 83 104
-0.871924 0.712926 2.930000 127 83 102
-0.864484 0.711928 2.905000 125 87 103
-0.857342 0.711090 2.881000 123 89 104
-0.850200 0.710167 2.857000 121 90 103
-0.850200 0.715169 2.857000 122 90 103
-0.843356 0.714372 2.834000 123 90 103
-0.836214 0.713241 2.810000 124 88 103
-0.822823 0.706660 2.765000 124 85 105
-0.810026 0.700435 2.722000 126 86 108
-0.803777 0.699759 2.701000 128 89 106
-0.797528 0.699010 2.680000 124 89 104
-0.791279 0.698187 2.659000 120 90 105
-0.791279 0.702842 2.659000 126 89 107
-0.785327 0.702175 2.639000 133 88 109
-0.779375 0.701438 2.619000 127 90 111
-0.773423 0.700631 2.599000 122 90 116
-0.767769 0.700025 2.580000 124 90 121
-0.756461 0.694164 2.542000 125 91 120
-0.750807 0.693392 2.523000 125 94 119
-0.745450 0.692831 2.505000 124 97 130
-0.740094 0.692206 2.487000 127 94 141
-0.734737 0.691518 2.469000 130 93 132
-0.734737 0.695840 2.469000 130 95 123
-0.729381 0.695057 2.451000 131 95 122
-0.724322 0.694497 2.434000 132 96 122
-0.714204 0.688997 2.400000 132 97 123
-0.714204 0.693198 2.400000 133 95 125
-0.709443 0.692750 2.384000 134 97 125
-0.704384 0.691954 2.367000 131 100 125
-0.699622 0.691392 2.351000 128 101 127
-0.690397 0.686336 2.320000 131 98 130
-0.685636 0.685636 2.304000 134 98 131
-0.681172 0.685179 2.289000 134 99 133
-0.676708 0.684670 2.274000 135 98 137
-0.672245 0.684108 2.259000 133 103 142
-0.667781 0.683493 2.244000 132 105 136
-0.659151 0.678538 2.215000 132 104 131
-0.654985 0.678102 2.201000 133 102 129
-0.646950 0.673589 2.174000 135 101 127
-0.642784 0.673032 2.160000 136 101 129
-0.638915 0.672740 2.147000 141 101 132
-0.634749 0.672087 2.133000 146 102 131
-0.627012 0.667583 2.107000 143 100 130
-0.623441 0.667448 2.095000 140 100 133
-0.619572 0.666951 2.082000 137 103 137
-0.615703 0.666408 2.069000 134 106 135
-0.615703 0.670030 2.069000 134 108 133
-0.612132 0.669745 2.057000 134 109 134
-0.608561 0.669418 2.045000 132 106 135
-0.604990 0.669048 2.033000 131 107 135
-0.597848 0.664667 2.009000 136 108 135
-0.597848 0.668183 2.009000 140 109 130
-0.597848 0.671700 2.009000 139 112 125
-0.594575 0.671520 1.998000 139 114 129
-0.587730 0.667247 1.975000 138 112 133
-0.584457 0.666969 1.964000 138 113 133
-0.577613 0.662556 1.941000 142 109 134
-0.574637 0.662522 1.931000 146 104 136
-0.574637 0.665903 1.931000 141 108 139
-0.571363 0.665470 1.920000 137 110 147
-0.568090 0.664999 1.909000 138 111 156
-0.565114 0.664840 1.899000 139 109 147
-0.561841 0.664294 1.888000 141 109 138
-0.555889 0.660527 1.868000 144 108 135
-0.549937 0.656690 1.848000 144 108 133
-0.546961 0.656354 1.838000 144 106 135
-0.546961 0.659571 1.838000 142 106 137
-0.543985 0.659182 1.828000 141 104 139
-0.541307 0.659121 1.819000 145 108 142
-0.538331 0.658664 1.809000 150 111 142
-0.535653 0.658538 1.800000 146 109 142
-0.532677 0.658013 1.790000 143 110 143
-0.529999 0.657822 1.781000 146 111 144
-0.527321 0.657600 1.772000 148 113 140
-0.524642 0.657346 1.763000 140 113 136
-0.521964 0.657061 1.754000 131 113 137
-0.519286 0.656744 1.745000 135 115 139
-0.519286 0.659799 1.745000 140 118 147
-0.516608 0.659435 1.736000 141 116 155
-0.511549 0.655986 1.719000 142 115 145
-0.509168 0.655928 1.711000 144 111 136
-0.504109 0.652376 1.694000 146 104 139
-0.501728 0.652247 1.686000 148 112 142
-0.499050 0.651701 1.677000 150 114 144
-1.175942 0.751490 3.975000 99 71 77
-1.175942 0.758448 3.975000 104 71 66
-1.162630 0.756741 3.930000 110 76 72
-1.149317 0.754877 3.885000 111 77 78
-1.149317 0.761678 3.885000 112 78 82
-1.136596 0.759973 3.842000 114 79 87
-1.124171 0.758317 3.800000 117 78 90
-1.124171 0.764969 3.800000 117 77 93
-1.112042 0.763295 3.759000 117 79 92
-1.033350 0.715396 3.493000 116 82 92
-1.033350 0.721511 3.493000 115 82 93
-1.033350 0.727625 3.493000 116 83 95
-1.033350 0.733740 3.493000 118 81 94
-1.022996 0.732441 3.458000 117 80 93
-1.022996 0.738494 3.458000 116 83 90
-1.022996 0.744547 3.458000 111 85 87
-1.002879 0.735840 3.390000 106 87 90
-0.993117 0.734554 3.357000 111 88 92
-0.983354 0.733152 3.324000 117 86 92
-0.974183 0.732078 3.293000 118 83 91
-0.955841 0.723951 3.231000 120 84 95
-0.955841 0.729607 3.231000 121 88 100
-0.946966 0.728436 3.201000 122 84 96
-0.946966 0.734039 3.201000 120 82 93
-0.938387 0.732942 3.172000 119 83 95
-0.929808 0.731743 3.143000 120 86 97
-0.913241 0.724108 3.087000 121 86 101
-0.889279 0.710371 3.006000 121 86 105
-0.881587 0.709443 2.980000 122 84 104
-0.874191 0.708664 2.955000 128 84 102
-0.874191 0.713836 2.955000 135 81 102
-0.866795 0.712926 2.930000 130 73 102
-0.859399 0.711928 2.905000 125 83 102
-0.852299 0.711090 2.881000 121 89 103
-0.845199 0.710167 2.857000 118 90 100
-0.845199 0.715169 2.857000 120 90 98
-0.838395 0.714372 2.834000 123 90 101
-0.831295 0.713241 2.810000 124 89 105
-0.824787 0.712538 2.788000 125 87 106
-0.811474 0.705838 2.743000 126 89 106
-0.799049 0.699759 2.701000 128 90 106
-0.792837 0.699010 2.680000 127 91 106
-0.786624 0.698187 2.659000 127 91 106
-0.780707 0.697555 2.639000 132 89 107
-0.780707 0.702175 2.639000 138 89 109
-0.774791 0.701438 2.619000 129 89 112
-0.768874 0.700631 2.599000 120 90 115
-0.763253 0.700025 2.580000 122 90 118
-0.757336 0.699080 2.560000 125 91 118
-0.746391 0.693392 2.523000 127 96 118
-0.741066 0.692831 2.505000 129 95 125
-0.735741 0.692206 2.487000 130 93 133
-0.730416 0.691518 2.469000 132 94 128
-0.725091 0.690767 2.451000 132 96 124
-0.725091 0.695057 2.451000 133 95 124
-0.715032 0.689646 2.417000 132 94 124
-0.710003 0.688997 2.400000 132 95 124
-0.710003 0.693198 2.400000 133 94 124
-0.705270 0.692750 2.384000 134 98 119
-0.700240 0.691954 2.367000 132 103 114
-0.695507 0.691392 2.351000 131 101 120
-0.686336 0.686336 2.320000 131 101 125
-0.681603 0.685636 2.304000 132 100 128
-0.672728 0.680689 2.274000 130 99 131
-0.672728 0.684670 2.274000 129 102 134
-0.668290 0.684108 2.259000 131 105 136
-0.659711 0.679229 2.230000 133 105 133
-0.651132 0.674249 2.201000 133 105 129
-0.646990 0.673789 2.187000 134 104 127
-0.643144 0.673589 2.174000 134 102 126
-0.639003 0.673032 2.160000 135 103 128
-0.635157 0.672740 2.147000 137 104 130
-0.631015 0.672087 2.133000 140 103 130
-0.623323 0.667583 2.107000 139 102 131
-0.619773 0.667448 2.095000 139 103 132
-0.619773 0.671116 2.095000 137 105 133
-0.615928 0.670596 2.082000 136 106 129
-0.612082 0.670030 2.069000 134 110 126
-0.608532 0.669745 2.057000 133 109 130
-0.604982 0.669418 2.045000 129 107 133
-0.597882 0.665099 2.021000 125 108 133
-0.597882 0.668637 2.021000 132 107 132
-0.594332 0.668183 2.009000 139 109 130
-0.594332 0.671700 2.009000 139 113 128
-0.587527 0.667487 1.986000 139 112 135
-0.584273 0.667247 1.975000 141 111 142
-0.581019 0.666969 1.964000 144 114 138
-0.577469 0.666310 1.952000 147 118 135
-0.574215 0.665953 1.941000 151 112 136
-0.574215 0.669351 1.941000 141 112 137
-0.571257 0.669283 1.931000 131 111 142
-0.568002 0.668831 1.920000 136 111 147
-0.564748 0.668341 1.909000 141 110 139
-0.555577 0.660775 1.878000 143 111 131
-0.552619 0.660527 1.868000 146 110 132
-0.549661 0.660243 1.858000 145 110 133
-0.543744 0.656354 1.838000 144 111 135
-0.543744 0.659571 1.838000 141 111 137
-0.540786 0.659182 1.828000 138 112 140
-0.538123 0.659121 1.819000 147 108 143
-0.538123 0.662305 1.819000 156 111 143
-0.532502 0.658538 1.800000 150 110 143
-0.529544 0.658013 1.790000 145 110 146
-0.529544 0.661146 1.790000 143 108 150
-0.526881 0.660940 1.781000 142 111 143
-0.521556 0.657346 1.763000 132 113 137
-0.518894 0.657061 1.754000 123 114 134
-0.516231 0.656744 1.745000 129 114 131
-0.516231 0.659799 1.745000 136 118 140
-0.513569 0.659435 1.736000 140 120 149
-0.506173 0.652933 1.711000 144 116 145
-0.506173 0.655928 1.711000 144 113 141
-0.501144 0.652376 1.694000 145 111 143
-0.498777 0.652247 1.686000 145 112 145
-0.496115 0.651701 1.677000 146 114 147
-1.168984 0.751490 3.975000 110 74 76
-1.168984 0.758448 3.975000 112 76 74
-1.155750 0.756741 3.930000 113 80 76
-1.142516 0.754877 3.885000 113 78 78
-1.142516 0.761678 3.885000 113 78 81
-1.129871 0.759973 3.842000 117 78 85
-1.117519 0.758317 3.800000 121 78 91
-1.105462 0.756715 3.759000 119 78 97
-1.093404 0.754970 3.718000 118 78 95
-1.059291 0.737720 3.602000 116 81 94
-1.027236 0.721511 3.493000 115 82 95
-1.027236 0.727625 3.493000 117 82 97
-1.027236 0.733740 3.493000 120 82 95
-1.016943 0.732441 3.458000 119 81 94
-1.016943 0.738494 3.458000 118 84 93
-1.016943 0.744547 3.458000 114 86 93
-0.996945 0.735840 3.390000 109 90 93
-0.977535 0.727333 3.324000 113 87 93
-0.977535 0.733152 3.324000 117 86 92
-0.968419 0.732078 3.293000 119 85 91
-0.959302 0.730897 3.262000 121 84 93
-0.950185 0.729607 3.231000 121 85 95
-0.941363 0.728436 3.201000 122 84 92
-0.941363 0.734039 3.201000 120 84 89
-0.932835 0.732942 3.172000 119 89 92
-0.924306 0.731743 3.143000 120 87 96
-0.907837 0.724108 3.087000 121 87 98
-0.884017 0.710371 3.006000 121 87 101
-0.876370 0.709443 2.980000 121 87 100
-0.869018 0.708664 2.955000 126 85 99
-0.869018 0.713836 2.955000 131 87 100
-0.861666 0.712926 2.930000 128 83 102
-0.854314 0.711928 2.905000 125 86 102
-0.847256 0.711090 2.881000 123 89 103
-0.840198 0.710167 2.857000 120 92 98
-0.833434 0.709411 2.834000 121 91 93
-0.833434 0.714372 2.834000 122 92 100
-0.826376 0.713241 2.810000 123 89 108
-0.819906 0.712538 2.788000 125 87 106
-0.806672 0.705838 2.743000 126 88 105
-0.794321 0.699759 2.701000 128 91 106
-0.781969 0.693532 2.659000 126 92 108
-0.776088 0.692936 2.639000 125 94 108
-0.776088 0.697555 2.639000 129 91 108
-0.770206 0.696853 2.619000 134 90 110
-0.770206 0.701438 2.619000 129 91 113
-0.764324 0.700631 2.599000 124 92 114
-0.758737 0.700025 2.580000 125 91 115
-0.747562 0.694164 2.542000 126 90 116
-0.741974 0.693392 2.523000 129 93 117
-0.736681 0.692831 2.505000 131 96 121
-0.731387 0.692206 2.487000 132 98 125
-0.726093 0.691518 2.469000 134 94 125
-0.720800 0.690767 2.451000 134 95 125
-0.720800 0.695057 2.451000 134 98 125
-0.710801 0.689646 2.417000 134 100 126
-0.705802 0.688997 2.400000 135 96 124
-0.705802 0.693198 2.400000 134 96 123
-0.701096 0.692750 2.384000 134 100 113
-0.696097 0.691954 2.367000 132 101 104
-0.686686 0.686686 2.335000 130 102 112
-0.682275 0.686336 2.320000 132 103 121
-0.677570 0.685636 2.304000 133 105 125
-0.668747 0.680689 2.274000 132 104 130
-0.664336 0.680153 2.259000 131 107 130
-0.659925 0.679565 2.244000 131 107 131
-0.651396 0.674660 2.215000 132 108 129
-0.647279 0.674249 2.201000 132 107 128
-0.643162 0.673789 2.187000 133 107 126
-0.639339 0.673589 2.174000 134 105 125
-0.635221 0.673032 2.160000 135 106 126
-0.631398 0.672740 2.147000 138 107 128
-0.631398 0.676498 2.147000 140 107 130
-0.623458 0.671702 2.120000 139 104 132
-0.619635 0.671271 2.107000 139 105 130
-0.619635 0.674960 2.107000 138 104 129
-0.616106 0.674783 2.095000 137 105 124
-0.612283 0.674240 2.082000 137 109 120
-0.608460 0.673652 2.069000 136 110 126
-0.604931 0.673346 2.057000 136 110 132
-0.597873 0.669048 2.033000 136 112 131
-0.594344 0.668637 2.021000 138 109 130
-0.590815 0.668183 2.009000 139 107 131
-0.590815 0.671700 2.009000 140 109 132
-0.584051 0.667487 1.986000 140 111 141
-0.580816 0.667247 1.975000 142 110 151
-0.577581 0.666969 1.964000 143 115 144
-0.574052 0.666310 1.952000 145 114 137
-0.574052 0.669727 1.952000 147 114 136
-0.574052 0.673144 1.952000 141 113 136
-0.567876 0.669283 1.931000 136 113 137
-0.564641 0.668831 1.920000 138 111 138
-0.558466 0.664840 1.899000 141 112 131
-0.552290 0.660775 1.878000 145 113 124
-0.549349 0.660527 1.868000 149 112 129
-0.546408 0.660243 1.858000 147 111 134
-0.540526 0.656354 1.838000 146 118 136
-0.540526 0.659571 1.838000 145 116 138
-0.537586 0.659182 1.828000 143 126 141
-0.534939 0.659121 1.819000 148 117 144
-0.531998 0.658664 1.809000 152 117 144
-0.529351 0.658538 1.800000 149 112 144
-0.526410 0.658013 1.790000 146 113 150
-0.523764 0.657822 1.781000 144 112 156
-0.521117 0.657600 1.772000 142 112 147
-0.518470 0.657346 1.763000 137 115 139
-0.515823 0.657061 1.754000 131 118 131
-0.513177 0.656744 1.745000 136 118 124
-0.513177 0.659799 1.745000 141 121 134
-0.510530 0.659435 1.736000 143 119 144
-0.503178 0.652933 1.711000 145 118 145
-0.500531 0.652478 1.702000 146 115 146
-0.498178 0.652376 1.694000 146 116 147
-0.495826 0.652247 1.686000 144 115 149
-0.493179 0.651701 1.677000 142 118 151
-1.162026 0.751490 3.975000 122 75 79
-1.162026 0.758448 3.975000 119 79 76
-1.148871 0.756741 3.930000 117 79 76
-1.135716 0.754877 3.885000 116 78 76
-1.135716 0.761678 3.885000 115 78 80
-1.123145 0.759973 3.842000 120 78 85
-1.110868 0.758317 3.800000 125 78 93
-1.110868 0.764969 3.800000 122 79 102
-1.086896 0.754970 3.718000 119 79 96
-1.052985 0.737720 3.602000 117 82 90
-1.021121 0.721511 3.493000 116 81 93
-1.021121 0.727625 3.493000 119 82 97
-1.021121 0.733740 3.493000 122 81 97
-1.021121 0.739854 3.493000 121 81 98
-1.010889 0.738494 3.458000 121 82 97
-1.010889 0.744547 3.458000 117 86 96
-0.981364 0.728677 3.357000 113 87 96
-0.971717 0.727333 3.324000 115 87 96
-0.962654 0.726314 3.293000 118 86 94
-0.962654 0.732078 3.293000 120 88 93
-0.953592 0.730897 3.262000 122 84 96
-0.944530 0.729607 3.231000 122 84 99
-0.944530 0.735263 3.231000 122 85 96
-0.935760 0.734039 3.201000 121 84 94
-0.927282 0.732942 3.172000 120 86 96
-0.918804 0.731743 3.143000 121 87 98
-0.871154 0.699010 2.980000 122 87 100
-0.871154 0.704226 2.980000 121 90 102
-0.871154 0.709443 2.980000 120 87 98
-0.863846 0.708664 2.955000 123 85 95
-0.863846 0.713836 2.955000 127 86 98
-0.856537 0.712926 2.930000 126 88 102
-0.849229 0.711928 2.905000 126 88 103
-0.842213 0.711090 2.881000 124 91 104
-0.835197 0.710167 2.857000 123 90 101
-0.828473 0.709411 2.834000 122 92 99
-0.828473 0.714372 2.834000 121 91 104
-0.815026 0.707657 2.788000 123 89 110
-0.808302 0.706660 2.765000 125 87 105
-0.801871 0.705838 2.743000 126 88 101
-0.789593 0.699759 2.701000 128 90 104
-0.777315 0.693532 2.659000 126 93 107
-0.771468 0.692936 2.639000 124 93 108
-0.771468 0.697555 2.639000 127 94 109
-0.765622 0.696853 2.619000 130 92 111
-0.765622 0.701438 2.619000 129 93 113
-0.759775 0.700631 2.599000 128 93 114
-0.754221 0.700025 2.580000 128 92 116
-0.748374 0.699080 2.560000 128 91 117
-0.737557 0.693392 2.523000 131 92 118
-0.732296 0.692831 2.505000 134 99 121
-0.727034 0.692206 2.487000 135 112 125
-0.721771 0.691518 2.469000 136 96 126
-0.716510 0.690767 2.451000 136 92 128
-0.716510 0.695057 2.451000 136 100 125
-0.711540 0.694497 2.434000 137 112 123
-0.701600 0.688997 2.400000 138 100 125
-0.701600 0.693198 2.400000 136 96 127
-0.696923 0.692750 2.384000 134 98 123
-0.687276 0.687276 2.351000 132 99 120
-0.682599 0.686686 2.335000 130 103 122
-0.678214 0.686336 2.320000 132 107 123
-0.673537 0.685636 2.304000 135 106 128
-0.669151 0.685179 2.289000 134 107 134
-0.664766 0.684670 2.274000 133 107 133
-0.660381 0.684108 2.259000 132 110 132
-0.651904 0.679229 2.230000 132 108 130
-0.647519 0.678538 2.215000 132 109 128
-0.639333 0.673789 2.187000 132 108 123
-0.635533 0.673589 2.174000 134 108 119
-0.635533 0.677395 2.174000 136 108 124
-0.631440 0.676813 2.160000 138 113 129
-0.627640 0.676498 2.147000 141 106 129
-0.623547 0.675821 2.133000 140 102 130
-0.619747 0.675413 2.120000 139 103 130
-0.615947 0.674960 2.107000 139 104 130
-0.612439 0.674783 2.095000 139 107 127
-0.608638 0.674240 2.082000 139 112 125
-0.604838 0.673652 2.069000 140 110 128
-0.601330 0.673346 2.057000 144 111 132
-0.597822 0.672997 2.045000 148 111 129
-0.594314 0.672607 2.033000 144 110 126
-0.590806 0.672175 2.021000 140 107 129
-0.587298 0.671700 2.009000 141 106 132
-0.580574 0.667487 1.986000 142 107 138
-0.574143 0.663531 1.964000 142 106 144
-0.574143 0.666969 1.964000 143 110 137
-0.570635 0.666310 1.952000 143 111 131
-0.570635 0.669727 1.952000 144 112 133
-0.570635 0.673144 1.952000 142 113 136
-0.567419 0.672749 1.941000 141 111 137
-0.564496 0.672663 1.931000 141 111 138
-0.558065 0.668341 1.909000 142 113 134
-0.551926 0.664294 1.888000 147 118 130
-0.546079 0.660527 1.868000 152 113 134
-0.543156 0.660243 1.858000 150 106 138
-0.543156 0.663496 1.858000 149 110 142
-0.537309 0.659571 1.838000 149 109 146
-0.531755 0.655937 1.819000 149 116 146
-0.528831 0.655498 1.809000 149 119 146
-0.526200 0.655387 1.800000 149 115 142
-0.523277 0.654880 1.790000 148 111 137
-0.520646 0.654705 1.781000 147 113 144
-0.520646 0.657822 1.781000 145 116 151
-0.518015 0.657600 1.772000 143 116 145
-0.515384 0.657346 1.763000 141 118 140
-0.512753 0.657061 1.754000 140 117 136
-0.510122 0.656744 1.745000 143 120 132
-0.510122 0.659799 1.745000 147 119 138
-0.507491 0.659435 1.736000 147 119 144
-0.502521 0.655986 1.719000 147 117 146
-0.500183 0.655928 1.711000 147 116 148
-0.497552 0.655457 1.702000 148 116 149
-0.495213 0.655342 1.694000 143 117 150
-0.492874 0.655198 1.686000 138 117 150
-1.155068 0.758448 3.975000 117 76 79
-1.141991 0.756741 3.930000 117 79 76
-1.128915 0.754877 3.885000 115 78 74
-1.116420 0.753247 3.842000 114 78 79
-1.104216 0.751665 3.800000 116 78 85
-1.104216 0.758317 3.800000 118 77 96
-1.092302 0.756715 3.759000 117 77 107
-1.080388 0.754970 3.718000 117 78 97
-1.057722 0.745503 3.640000 115 79 87
-1.025177 0.728740 3.528000 112 80 92
-1.015007 0.727625 3.493000 119 79 97
-1.015007 0.733740 3.493000 125 79 99
-1.015007 0.739854 3.493000 124 79 102
-1.004836 0.738494 3.458000 122 79 100
-1.004836 0.744547 3.458000 119 82 99
-0.975487 0.728677 3.357000 117 85 99
-0.965898 0.727333 3.324000 118 83 99
-0.956890 0.726314 3.293000 119 83 97
-0.956890 0.732078 3.293000 121 84 95
-0.947882 0.730897 3.262000 123 83 99
-0.938874 0.729607 3.231000 123 84 103
-0.930156 0.728436 3.201000 123 89 101
-0.930156 0.734039 3.201000 122 85 100
-0.921730 0.732942 3.172000 121 85 100
-0.913303 0.731743 3.143000 122 84 100
-0.881338 0.711442 3.033000 124 85 101
-0.865938 0.704226 2.980000 123 87 103
-0.865938 0.709443 2.980000 122 89 97
-0.858673 0.708664 2.955000 126 86 91
-0.851408 0.707797 2.930000 129 87 96
-0.851408 0.712926 2.930000 128 87 102
-0.851408 0.718055 2.930000 127 87 104
-0.837170 0.711090 2.881000 127 88 106
-0.830196 0.710167 2.857000 128 88 105
-0.830196 0.715169 2.857000 124 89 105
-0.823512 0.714372 2.834000 120 91 108
-0.810146 0.707657 2.788000 123 88 112
-0.797069 0.701037 2.743000 126 87 104
-0.790967 0.700435 2.722000 128 88 97
-0.778763 0.694319 2.680000 130 91 102
-0.778763 0.699010 2.680000 128 91 107
-0.772660 0.698187 2.659000 127 91 109
-0.766849 0.697555 2.639000 129 93 111
-0.766849 0.702175 2.639000 131 94 112
-0.761037 0.701438 2.619000 131 94 113
-0.755225 0.700631 2.599000 132 95 115
-0.749704 0.700025 2.580000 128 93 117
-0.743893 0.699080 2.560000 124 90 118
-0.738662 0.698614 2.542000 129 95 119
-0.727911 0.692831 2.505000 134 99 122
-0.722680 0.692206 2.487000 137 99 125
-0.717450 0.691518 2.469000 140 89 128
-0.712219 0.690767 2.451000 138 92 132
-0.707279 0.690236 2.434000 136 98 126
-0.702339 0.689646 2.417000 136 102 120
-0.697399 0.688997 2.400000 135 98 125
-0.692750 0.688577 2.384000 133 99 131
-0.692750 0.692750 2.384000 131 99 134
-0.683161 0.687276 2.351000 130 102 137
-0.678512 0.686686 2.335000 130 106 131
-0.674153 0.686336 2.320000 134 105 126
-0.669503 0.685636 2.304000 139 105 132
-0.665145 0.685179 2.289000 136 106 138
-0.660786 0.684670 2.274000 134 107 136
-0.656427 0.684108 2.259000 133 108 134
-0.643641 0.674660 2.215000 132 107 131
-0.639573 0.674249 2.201000 130 108 128
-0.631728 0.669783 2.174000 128 109 121
-0.631728 0.673589 2.174000 132 105 114
-0.627659 0.673032 2.160000 136 105 122
-0.627659 0.676813 2.160000 140 106 130
-0.623882 0.676498 2.147000 145 105 129
-0.619814 0.675821 2.133000 143 104 129
-0.616036 0.675413 2.120000 141 103 130
-0.612258 0.674960 2.107000 140 105 132
-0.608772 0.674783 2.095000 139 109 131
-0.601216 0.670030 2.069000 140 108 130
-0.597729 0.669745 2.057000 141 108 131
-0.597729 0.673346 2.057000 143 109 133
-0.594242 0.672997 2.045000 145 111 128
-0.590755 0.672607 2.033000 140 109 123
-0.587268 0.672175 2.021000 136 106 127
-0.583781 0.671700 2.009000 138 106 132
-0.580585 0.671520 1.998000 141 106 134
-0.573902 0.667247 1.975000 141 107 137
-0.570705 0.666969 1.964000 142 109 131
-0.567218 0.666310 1.952000 142 112 125
-0.567218 0.669727 1.952000 143 111 130
-0.567218 0.673144 1.952000 142 111 136
-0.564022 0.672749 1.941000 142 110 137
-0.557920 0.668831 1.920000 140 110 139
-0.554723 0.668341 1.909000 138 111 137
-0.551817 0.668164 1.899000 143 115 136
-0.539903 0.656991 1.858000 148 117 139
-0.542809 0.663797 1.868000 148 111 142
-0.536997 0.659925 1.848000 149 107 148
-0.531186 0.655982 1.828000 148 109 155
-0.528571 0.655937 1.819000 148 111 152
-0.523049 0.652236 1.800000 147 116 149
-0.523049 0.655387 1.800000 147 115 140
-0.523049 0.658538 1.800000 146 112 131
-0.517528 0.654705 1.781000 146 112 138
-0.517528 0.657822 1.781000 146 116 146
-0.514913 0.657600 1.772000 146 118 143
-0.512298 0.657346 1.763000 143 116 141
-0.512298 0.660432 1.763000 139 115 141
-0.507067 0.656744 1.745000 142 116 141
-0.507067 0.659799 1.745000 146 117 143
-0.504452 0.659435 1.736000 145 117 145
-0.499512 0.655986 1.719000 144 118 147
-0.497188 0.655928 1.711000 150 116 150
-0.494572 0.655457 1.702000 156 115 150
-0.494572 0.658437 1.702000 150 116 151
-0.492248 0.658307 1.694000 144 118 149
-1.135112 0.749862 3.930000 115 76 81
-1.135112 0.756741 3.930000 117 78 79
-1.122114 0.754877 3.885000 115 78 77
-1.109694 0.753247 3.842000 113 78 80
-1.097564 0.751665 3.800000 112 79 84
-1.085721 0.750135 3.759000 111 77 93
-1.085721 0.756715 3.759000 113 77 102
-1.073879 0.754970 3.718000 116 78 97
-1.051350 0.745503 3.640000 112 79 92
-1.019001 0.728740 3.528000 109 79 96
-1.008892 0.727625 3.493000 119 78 99
-1.008892 0.733740 3.493000 129 79 104
-1.008892 0.739854 3.493000 126 79 110
-0.998783 0.738494 3.458000 124 79 101
-0.998783 0.744547 3.458000 122 80 93
-0.969611 0.728677 3.357000 121 82 101
-0.960079 0.727333 3.324000 121 80 110
-0.951126 0.726314 3.293000 121 83 100
-0.942172 0.725187 3.262000 123 85 91
-0.933218 0.723951 3.231000 125 82 100
-0.924553 0.722832 3.201000 124 81 109
-0.924553 0.728436 3.201000 124 84 106
-0.916177 0.727389 3.172000 123 85 104
-0.916177 0.732942 3.172000 123 84 104
-0.907801 0.731743 3.143000 124 82 103
-0.891626 0.724108 3.087000 126 84 109
-0.868231 0.710371 3.006000 125 86 115
-0.860721 0.709443 2.980000 125 86 108
-0.853500 0.708664 2.955000 128 85 101
-0.853500 0.713836 2.955000 132 86 103
-0.846279 0.712926 2.930000 130 87 105
-0.839058 0.711928 2.905000 128 86 106
-0.832126 0.711090 2.881000 131 86 107
-0.825194 0.710167 2.857000 134 86 105
-0.818551 0.709411 2.834000 126 87 102
-0.818551 0.714372 2.834000 119 89 110
-0.805265 0.707657 2.788000 123 88 119
-0.792268 0.701037 2.743000 127 87 112
-0.786202 0.700435 2.722000 129 87 105
-0.774071 0.694319 2.680000 132 89 108
-0.774071 0.699010 2.680000 131 90 111
-0.768006 0.698187 2.659000 131 92 112
-0.762229 0.697555 2.639000 131 95 113
-0.762229 0.702175 2.639000 132 94 113
-0.756452 0.701438 2.619000 134 96 114
-0.750676 0.700631 2.599000 137 95 113
-0.745188 0.700025 2.580000 129 95 112
-0.739411 0.699080 2.560000 121 96 115
-0.734212 0.698614 2.542000 128 101 118
-0.728724 0.697809 2.523000 135 99 121
-0.718327 0.692206 2.487000 139 96 123
-0.713128 0.691518 2.469000 144 93 126
-0.707929 0.690767 2.451000 140 92 130
-0.703018 0.690236 2.434000 137 98 126
-0.703018 0.694497 2.434000 135 101 122
-0.693198 0.688997 2.400000 133 101 125
-0.688577 0.688577 2.384000 130 104 129
-0.683667 0.687810 2.367000 128 103 130
-0.679045 0.687276 2.351000 129 104 132
-0.674424 0.686686 2.335000 131 103 127
-0.670092 0.686336 2.320000 137 103 123
-0.665470 0.685636 2.304000 143 104 128
-0.661138 0.685179 2.289000 139 106 134
-0.656805 0.684670 2.274000 136 108 134
-0.652473 0.684108 2.259000 134 109 134
-0.644096 0.679229 2.230000 132 108 132
-0.639764 0.678538 2.215000 128 110 130
-0.627922 0.669783 2.174000 125 107 126
-0.627922 0.673589 2.174000 130 101 123
-0.623878 0.673032 2.160000 136 103 129
-0.623878 0.676813 2.160000 143 103 136
-0.620123 0.676498 2.147000 150 104 134
-0.616080 0.675821 2.133000 146 106 132
-0.612325 0.675413 2.120000 143 105 133
-0.608570 0.674960 2.107000 141 106 134
-0.608570 0.678648 2.107000 140 106 133
-0.601349 0.674240 2.082000 141 105 133
-0.597594 0.673652 2.069000 142 107 134
-0.594128 0.673346 2.057000 142 109 135
-0.590662 0.672997 2.045000 142 110 134
-0.587196 0.672607 2.033000 137 109 132
-0.583731 0.672175 2.021000 132 107 134
-0.580265 0.671700 2.009000 136 106 137
-0.577087 0.671520 1.998000 140 106 139
-0.570444 0.667247 1.975000 141 107 141
-0.567267 0.666969 1.964000 142 109 137
-0.563801 0.666310 1.952000 142 117 134
-0.563801 0.669727 1.952000 142 113 136
-0.560624 0.669351 1.941000 142 112 139
-0.557736 0.669283 1.931000 143 110 140
-0.554558 0.668831 1.920000 139 109 141
-0.551381 0.668341 1.909000 135 113 140
-0.545316 0.664294 1.888000 139 116 139
-0.539539 0.660527 1.868000 144 116 140
-0.539539 0.663797 1.868000 146 114 142
-0.533763 0.659925 1.848000 149 111 142
-0.530874 0.659571 1.838000 148 111 143
-0.525386 0.655937 1.819000 147 114 144
-0.522498 0.655498 1.809000 146 120 145
-0.522498 0.658664 1.809000 145 117 140
-0.519899 0.658538 1.800000 145 112 136
-0.517010 0.658013 1.790000 146 112 141
-0.511811 0.654498 1.772000 148 121 146
-0.511811 0.657600 1.772000 150 117 143
-0.509212 0.657346 1.763000 144 114 141
-0.506612 0.657061 1.754000 139 113 141
-0.504013 0.656744 1.745000 142 115 141
-0.504013 0.659799 1.745000 145 115 144
-0.501413 0.659435 1.736000 143 116 147
-0.496503 0.655986 1.719000 141 116 148
-0.494192 0.655928 1.711000 152 117 150
-0.491593 0.655457 1.702000 164 115 152
-0.491593 0.658437 1.702000 157 115 155
-0.489282 0.658307 1.694000 151 116 151
-1.115314 0.741276 3.885000 117 75 83
-1.115314 0.748076 3.885000 117 81 81
-1.115314 0.754877 3.885000 117 80 80
-1.102969 0.753247 3.842000 117 79 82
-1.090912 0.751665 3.800000 115 77 84
-1.079141 0.750135 3.759000 114 76 90
-1.067371 0.748461 3.718000 115 77 97
-1.056175 0.747051 3.679000 117 79 97
-1.044979 0.745503 3.640000 115 78 98
-1.023447 0.736383 3.565000 113 79 100
-1.002778 0.727625 3.493000 119 79 102
-1.012825 0.741092 3.528000 126 80 110
-1.012825 0.747268 3.528000 125 79 118
-0.992730 0.738494 3.458000 124 78 102
-0.982682 0.737011 3.423000 124 80 87
-0.963734 0.728677 3.357000 124 83 104
-0.954261 0.727333 3.324000 123 84 121
-0.945361 0.726314 3.293000 122 84 104
-0.936462 0.725187 3.262000 125 84 87
-0.936462 0.730897 3.262000 129 80 101
-0.918950 0.722832 3.201000 126 80 115
-0.918950 0.728436 3.201000 124 82 112
-0.910624 0.727389 3.172000 124 83 109
-0.910624 0.732942 3.172000 125 84 108
-0.902299 0.731743 3.143000 126 83 107
-0.886222 0.724108 3.087000 127 86 117
-0.862969 0.710371 3.006000 126 87 127
-0.855505 0.709443 2.980000 126 86 119
-0.848328 0.708664 2.955000 127 85 111
-0.841150 0.707797 2.930000 129 86 110
-0.841150 0.712926 2.930000 127 87 109
-0.833973 0.711928 2.905000 126 86 109
-0.827083 0.711090 2.881000 128 87 109
-0.820193 0.710167 2.857000 131 86 104
-0.813591 0.709411 2.834000 127 87 100
-0.813591 0.714372 2.834000 123 90 113
-0.800385 0.707657 2.788000 128 88 126
-0.793782 0.706660 2.765000 133 86 119
-0.787466 0.705838 2.743000 132 88 113
-0.769380 0.694319 2.680000 131 90 114
-0.769380 0.699010 2.680000 128 90 116
-0.763351 0.698187 2.659000 126 92 115
-0.757610 0.697555 2.639000 128 93 115
-0.751868 0.696853 2.619000 131 93 115
-0.746126 0.696081 2.599000 133 94 115
-0.740672 0.695509 2.580000 135 95 111
-0.740672 0.700025 2.580000 131 96 107
-0.729763 0.694164 2.542000 126 98 112
-0.729763 0.698614 2.542000 130 99 118
-0.724308 0.697809 2.523000 135 100 120
-0.719141 0.697216 2.505000 138 96 122
-0.708806 0.691518 2.469000 141 95 125
-0.703638 0.690767 2.451000 137 97 128
-0.698758 0.690236 2.434000 133 102 126
-0.693877 0.689646 2.417000 133 101 125
-0.688997 0.688997 2.400000 133 103 126
-0.684404 0.688577 2.384000 131 103 127
-0.679523 0.687810 2.367000 129 105 127
-0.670337 0.682599 2.335000 130 103 128
-0.666030 0.682275 2.320000 132 101 124
-0.666030 0.686336 2.320000 136 102 120
-0.661437 0.685636 2.304000 141 103 125
-0.657131 0.685179 2.289000 138 107 131
-0.652825 0.684670 2.274000 136 110 132
-0.648518 0.684108 2.259000 137 108 134
-0.640193 0.679229 2.230000 139 108 133
-0.635887 0.678538 2.215000 135 109 132
-0.631868 0.678102 2.201000 131 108 132
-0.624116 0.673589 2.174000 134 105 133
-0.620097 0.673032 2.160000 138 105 137
-0.620097 0.676813 2.160000 142 104 142
-0.616365 0.676498 2.147000 146 104 138
-0.612346 0.675821 2.133000 143 105 135
-0.612346 0.679555 2.133000 140 106 136
-0.608614 0.679124 2.120000 141 105 137
-0.604882 0.678648 2.107000 142 105 136
-0.597705 0.674240 2.082000 142 107 136
-0.593973 0.673652 2.069000 143 108 137
-0.590528 0.673346 2.057000 143 108 138
-0.587083 0.672997 2.045000 143 111 140
-0.583638 0.672607 2.033000 140 108 142
-0.580193 0.672175 2.021000 138 108 142
-0.576748 0.671700 2.009000 139 107 142
-0.573590 0.671520 1.998000 140 106 144
-0.563829 0.663531 1.964000 137 105 146
-0.563829 0.666969 1.964000 134 106 144
-0.560384 0.666310 1.952000 138 109 143
-0.560384 0.669727 1.952000 142 112 142
-0.557226 0.669351 1.941000 143 111 142
-0.551198 0.665470 1.920000 144 109 142
-0.548040 0.664999 1.909000 141 112 143
-0.545169 0.664840 1.899000 138 117 142
-0.542011 0.664294 1.888000 141 116 142
-0.536269 0.660527 1.868000 144 117 142
-0.536269 0.663797 1.868000 145 114 142
-0.536269 0.667067 1.868000 147 112 136
-0.533398 0.666748 1.858000 147 111 131
-0.524786 0.659182 1.828000 146 114 136
-0.519331 0.655498 1.809000 145 118 142
-0.519331 0.658664 1.809000 144 121 141
-0.516748 0.658538 1.800000 143 112 141
-0.513877 0.658013 1.790000 142 104 144
-0.508709 0.654498 1.772000 145 114 147
-0.506126 0.654260 1.763000 148 117 144
-0.506126 0.657346 1.763000 145 113 141
-0.503542 0.657061 1.754000 143 111 141
-0.500958 0.656744 1.745000 145 113 142
-0.500958 0.659799 1.745000 148 114 145
-0.496078 0.656396 1.728000 146 114 149
-0.493494 0.655986 1.719000 145 116 149
-0.491197 0.655928 1.711000 151 115 150
-0.488614 0.655457 1.702000 158 113 154
-0.486317 0.655342 1.694000 155 114 159
-0.484020 0.655198 1.686000 152 116 153
-1.134193 0.751490 3.975000 119 69 84
-1.134193 0.758448 3.975000 118 77 77
-1.108513 0.748076 3.885000 118 80 79
-1.096244 0.746522 3.842000 119 82 81
-1.096244 0.753247 3.842000 121 79 84
-1.084260 0.751665 3.800000 119 77 88
-1.060863 0.741953 3.718000 118 78 92
-1.049735 0.740610 3.679000 118 79 97
-1.038607 0.739131 3.640000 118 78 97
-1.027764 0.737720 3.602000 118 78 97
-1.017207 0.736383 3.565000 118 79 99
-1.017207 0.742624 3.565000 120 80 102
-1.017207 0.748864 3.565000 123 81 106
-1.017207 0.755105 3.565000 124 80 111
-0.996663 0.745969 3.493000 125 79 101
-0.976690 0.737011 3.423000 126 80 91
-0.957858 0.728677 3.357000 127 84 100
-0.948442 0.727333 3.324000 125 90 110
-0.939597 0.726314 3.293000 123 88 101
-0.930751 0.725187 3.262000 128 87 92
-0.930751 0.730897 3.262000 133 83 100
-0.913346 0.722832 3.201000 129 80 109
-0.913346 0.728436 3.201000 125 82 109
-0.905072 0.727389 3.172000 126 84 108
-0.896797 0.726241 3.143000 127 83 105
-0.896797 0.731743 3.143000 127 83 103
-0.880818 0.724108 3.087000 128 86 105
-0.865411 0.716751 3.033000 127 90 108
-0.857707 0.715633 3.006000 127 87 109
-0.850288 0.714659 2.980000 126 86 110
-0.843155 0.713836 2.955000 126 87 109
-0.836021 0.712926 2.930000 125 90 109
-0.828888 0.711928 2.905000 124 90 111
-0.822040 0.711090 2.881000 126 90 113
-0.815192 0.710167 2.857000 129 88 107
-0.808629 0.709411 2.834000 128 88 102
-0.808629 0.714372 2.834000 128 89 110
-0.801782 0.713241 2.810000 133 89 117
-0.788942 0.706660 2.765000 139 87 112
-0.782664 0.705838 2.743000 134 90 107
-0.770680 0.699759 2.701000 130 90 110
-0.764688 0.699010 2.680000 125 91 113
-0.758696 0.698187 2.659000 121 92 115
-0.752990 0.697555 2.639000 126 92 117
-0.747283 0.696853 2.619000 131 93 116
-0.741577 0.696081 2.599000 132 94 116
-0.736155 0.695509 2.580000 134 95 114
-0.730449 0.694599 2.560000 133 97 113
-0.725313 0.694164 2.542000 132 97 116
-0.725313 0.698614 2.542000 133 98 119
-0.714755 0.692831 2.505000 135 96 121
-0.709619 0.692206 2.487000 136 93 124
-0.704484 0.691518 2.469000 138 96 125
-0.699348 0.690767 2.451000 134 101 127
-0.694497 0.690236 2.434000 130 100 126
-0.694497 0.694497 2.434000 131 100 124
-0.684796 0.688997 2.400000 133 101 122
-0.680230 0.688577 2.384000 131 100 121
-0.670814 0.683161 2.351000 130 101 124
-0.666249 0.682599 2.335000 132 102 127
-0.666249 0.686686 2.335000 134 101 125
-0.661969 0.686336 2.320000 136 103 123
-0.657404 0.685636 2.304000 139 105 128
-0.653124 0.685179 2.289000 138 109 134
-0.644564 0.680153 2.259000 137 107 136
-0.640284 0.679565 2.244000 141 105 138
-0.636289 0.679229 2.230000 146 108 139
-0.632009 0.678538 2.215000 142 110 141
-0.628015 0.678102 2.201000 138 107 138
-0.620311 0.673589 2.174000 139 107 134
-0.616316 0.673032 2.160000 140 107 134
-0.616316 0.676813 2.160000 141 106 134
-0.612607 0.676498 2.147000 142 104 135
-0.608612 0.675821 2.133000 139 106 137
-0.608612 0.679555 2.133000 137 105 137
-0.604903 0.679124 2.120000 140 103 137
-0.601193 0.678648 2.107000 144 107 139
-0.597769 0.678450 2.095000 144 112 141
-0.590351 0.673652 2.069000 144 109 139
-0.586927 0.673346 2.057000 144 107 137
-0.583503 0.672997 2.045000 145 108 141
-0.580079 0.672607 2.033000 144 107 144
-0.576655 0.672175 2.021000 144 107 144
-0.576655 0.675712 2.021000 142 108 145
-0.570092 0.671520 1.998000 141 106 146
-0.563530 0.667247 1.975000 134 102 147
-0.560391 0.666969 1.964000 127 103 145
-0.553828 0.662556 1.941000 135 102 143
-0.553828 0.665953 1.941000 143 109 142
-0.553828 0.669351 1.941000 144 111 142
-0.547836 0.665470 1.920000 145 111 142
-0.544698 0.664999 1.909000 143 114 142
-0.544698 0.668341 1.909000 142 115 143
-0.541844 0.668164 1.899000 143 117 144
-0.532999 0.660527 1.868000 144 116 143
-0.532999 0.663797 1.868000 145 114 143
-0.530146 0.663496 1.858000 146 112 140
-0.527293 0.663160 1.848000 146 109 137
-0.521586 0.659182 1.828000 146 113 139
-0.516165 0.655498 1.809000 145 120 142
-0.516165 0.658664 1.809000 144 117 143
-0.516165 0.661831 1.809000 141 112 144
-0.510743 0.658013 1.790000 139 111 145
-0.505607 0.654498 1.772000 142 116 146
-0.503039 0.654260 1.763000 146 114 144
-0.503039 0.657346 1.763000 147 113 142
-0.500471 0.657061 1.754000 148 112 142
-0.497903 0.656744 1.745000 149 113 142
-0.497903 0.659799 1.745000 151 112 145
-0.493053 0.656396 1.728000 150 110 148
-0.490485 0.655986 1.719000 149 114 149
-0.488202 0.655928 1.711000 150 117 150
-0.485634 0.655457 1.702000 152 115 151
-0.483352 0.655342 1.694000 152 112 153
-0.481069 0.655198 1.686000 153 113 146
-1.127235 0.758448 3.975000 116 74 71
-1.114473 0.756741 3.930000 112 80 77
-1.101712 0.754877 3.885000 115 80 83
-1.077608 0.745013 3.800000 119 79 87
-1.065981 0.743555 3.759000 116 78 92
-1.054354 0.741953 3.718000 114 82 94
-1.032235 0.732759 3.640000 116 80 97
-1.032235 0.739131 3.640000 118 78 97
-1.021459 0.737720 3.602000 118 79 97
-1.010966 0.736383 3.565000 118 80 99
-1.010966 0.742624 3.565000 120 82 102
-1.010966 0.748864 3.565000 122 84 103
-1.000474 0.747268 3.528000 123 81 104
-0.990549 0.745969 3.493000 124 80 99
-0.980623 0.744547 3.458000 124 81 95
-0.951982 0.728677 3.357000 124 84 97
-0.942623 0.727333 3.324000 122 89 99
-0.933832 0.726314 3.293000 120 93 98
-0.925041 0.725187 3.262000 124 88 97
-0.925041 0.730897 3.262000 129 85 100
-0.907743 0.722832 3.201000 125 82 104
-0.907743 0.728436 3.201000 122 83 106
-0.899519 0.727389 3.172000 127 84 108
-0.899519 0.732942 3.172000 132 83 103
-0.891295 0.731743 3.143000 130 83 99
-0.875415 0.724108 3.087000 128 85 94
-0.860101 0.716751 3.033000 127 88 90
-0.852445 0.715633 3.006000 126 89 100
-0.837982 0.708664 2.955000 123 87 110
-0.830892 0.707797 2.930000 120 87 109
-0.830892 0.712926 2.930000 122 91 109
-0.830892 0.718055 2.930000 125 96 113
-0.823803 0.717014 2.905000 126 91 117
-0.810191 0.710167 2.857000 128 89 111
-0.803669 0.709411 2.834000 128 89 105
-0.803669 0.714372 2.834000 129 91 107
-0.790624 0.707657 2.788000 131 89 109
-0.784102 0.706660 2.765000 134 86 105
-0.777863 0.705838 2.743000 132 89 102
-0.765952 0.699759 2.701000 130 92 106
-0.759997 0.699010 2.680000 128 92 111
-0.759997 0.703701 2.680000 126 93 115
-0.754042 0.702842 2.659000 129 94 119
-0.742699 0.696853 2.619000 133 95 118
-0.737027 0.696081 2.599000 133 96 118
-0.725968 0.690117 2.560000 134 97 118
-0.725968 0.694599 2.560000 133 97 119
-0.720863 0.694164 2.542000 133 98 119
-0.720863 0.698614 2.542000 133 97 120
-0.715475 0.697809 2.523000 134 96 123
-0.710370 0.697216 2.505000 135 95 126
