ply
format ascii 1.0
element vertex 1289
property float x
property float y
property float z
property uchar red
property uchar green
property uchar blue
end_header
0.904970 0.041135 3.357000 98 47 31
0.904970 0.047012 3.357000 97 49 35
0.904970 0.052888 3.357000 96 46 40
0.904970 0.058764 3.357000 95 45 33
0.904970 0.064641 3.357000 97 47 26
0.904970 0.070517 3.357000 99 48 21
0.904970 0.076394 3.357000 96 46 17
0.904970 0.082270 3.357000 93 44 21
0.904970 0.088146 3.357000 92 42 26
0.913866 0.094947 3.390000 90 42 27
0.913866 0.100881 3.390000 87 38 28
0.913866 0.106816 3.390000 84 39 26
0.913866 0.112750 3.390000 87 41 24
0.913866 0.118684 3.390000 90 41 20
0.913866 0.124618 3.390000 91 39 17
0.913866 0.130552 3.390000 92 38 17
0.913866 0.136487 3.390000 93 37 17
0.913866 0.142421 3.390000 93 37 17
0.922762 0.149799 3.423000 92 36 18
0.922762 0.155791 3.423000 90 34 24
0.922762 0.161783 3.423000 93 45 30
0.922762 0.167775 3.423000 95 62 40
0.922762 0.173767 3.423000 98 66 50
0.922762 0.179759 3.423000 100 71 69
0.922762 0.185751 3.423000 99 70 89
0.932197 0.193704 3.458000 97 69 83
0.951068 0.203800 3.528000 96 68 78
0.971016 0.214380 3.602000 95 66 77
0.981260 0.223014 3.640000 95 62 76
0.981260 0.229386 3.640000 96 62 74
0.981260 0.235757 3.640000 93 62 72
0.971016 0.239602 3.602000 90 65 71
0.971016 0.245907 3.602000 88 63 70
0.981260 0.254873 3.640000 86 60 64
0.981260 0.261245 3.640000 87 61 59
0.981260 0.267617 3.640000 87 62 64
0.981260 0.273988 3.640000 88 64 70
0.981260 0.280360 3.640000 90 66 73
0.981260 0.286732 3.640000 90 62 76
0.991774 0.296244 3.679000 91 61 75
0.991774 0.302684 3.679000 89 62 74
0.981260 0.305847 3.640000 87 60 74
0.981260 0.312219 3.640000 87 61 74
0.991774 0.322005 3.679000 87 64 75
0.991774 0.328445 3.679000 87 63 76
0.981260 0.331335 3.640000 88 63 76
0.981260 0.337707 3.640000 86 62 77
0.981260 0.344078 3.640000 85 62 76
0.981260 0.350450 3.640000 84 61 76
0.981260 0.356822 3.640000 83 58 73
0.981260 0.363194 3.640000 82 61 70
0.971016 0.365707 3.602000 82 63 70
0.971016 0.372013 3.602000 83 58 71
0.981260 0.382309 3.640000 84 56 70
0.981260 0.388681 3.640000 85 58 69
0.981260 0.395053 3.640000 85 59 71
0.981260 0.401425 3.640000 86 60 73
0.981260 0.407797 3.640000 86 63 75
0.981260 0.414168 3.640000 89 59 77
0.981260 0.420540 3.640000 91 56 75
0.981260 0.426912 3.640000 85 56 74
0.981260 0.433284 3.640000 79 57 74
0.981260 0.439656 3.640000 83 58 74
0.991774 0.450806 3.679000 87 58 70
0.991774 0.457246 3.679000 88 58 66
0.981260 0.458771 3.640000 89 59 65
0.981260 0.465143 3.640000 86 56 65
0.981260 0.471515 3.640000 82 57 68
0.981260 0.477887 3.640000 77 52 72
0.971016 0.479203 3.602000 73 53 69
0.971016 0.485508 3.602000 78 53 67
0.971016 0.491814 3.602000 84 53 61
0.971016 0.498119 3.602000 78 51 56
0.971016 0.504424 3.602000 73 50 50
0.961042 0.505483 3.565000 77 52 45
0.971016 0.517035 3.602000 81 55 51
0.971016 0.523340 3.602000 80 54 58
0.971016 0.529645 3.602000 80 53 62
0.971016 0.535951 3.602000 79 52 66
0.961042 0.536686 3.565000 79 50 62
0.961042 0.542926 3.565000 80 51 59
0.961042 0.549167 3.565000 82 52 62
0.961042 0.555408 3.565000 78 49 65
0.961042 0.561648 3.565000 75 49 61
0.961042 0.567889 3.565000 75 49 58
0.961042 0.574129 3.565000 76 49 56
0.971016 0.586393 3.602000 79 47 54
0.971016 0.592699 3.602000 82 46 53
0.971016 0.599004 3.602000 79 48 52
0.971016 0.605309 3.602000 76 49 50
0.961042 0.605332 3.565000 72 49 48
0.961042 0.611572 3.565000 68 49 50
0.961042 0.617813 3.565000 69 44 53
0.961042 0.624053 3.565000 70 43 50
0.961042 0.630294 3.565000 73 42 47
0.961042 0.636534 3.565000 76 42 46
0.961042 0.642775 3.565000 68 41 46
0.961042 0.649015 3.565000 60 41 46
0.971016 0.662057 3.602000 62 38 46
0.971016 0.668362 3.602000 63 35 49
0.971016 0.674667 3.602000 59 35 52
0.971016 0.680973 3.602000 56 32 46
0.971016 0.687278 3.602000 54 31 40
0.971016 0.693583 3.602000 52 30 33
0.961042 0.692699 3.565000 48 25 27
0.971016 0.706194 3.602000 44 20 17
0.971016 0.712499 3.602000 49 20 7
0.961042 0.711421 3.565000 55 18 16
0.961042 0.717661 3.565000 45 17 26
0.961042 0.723902 3.565000 35 19 20
0.961042 0.730142 3.565000 30 13 15
0.971016 0.744026 3.602000 26 10 13
0.971016 0.750331 3.602000 25 9 11
0.961042 0.748864 3.565000 25 9 14
0.961042 0.755105 3.565000 30 11 18
0.961042 0.761345 3.565000 35 12 21
0.961042 0.767586 3.565000 29 12 25
0.961042 0.773826 3.565000 24 14 26
0.947833 0.769345 3.516000 31 13 28
0.716805 0.716805 2.659000 116 51 51
0.700631 0.705180 2.599000 135 107 102
0.695509 0.704541 2.580000 155 123 126
0.695509 0.709058 2.580000 154 124 151
0.695509 0.713574 2.580000 154 117 147
0.690117 0.712524 2.560000 155 122 143
0.680143 0.706642 2.523000 156 125 143
0.675290 0.705986 2.505000 160 127 144
0.675290 0.710371 2.505000 163 131 152
0.665586 0.704484 2.469000 164 133 161
0.660733 0.703638 2.451000 165 129 161
0.660733 0.707929 2.451000 167 137 162
0.660733 0.712219 2.451000 170 142 168
0.656150 0.711540 2.434000 174 140 174
0.651568 0.710801 2.417000 178 140 178
0.642672 0.705270 2.384000 178 142 183
0.638089 0.704384 2.367000 179 147 186
0.638089 0.708527 2.367000 181 146 189
0.629462 0.703036 2.335000 183 143 191
0.625419 0.702581 2.320000 185 146 193
0.625419 0.706642 2.320000 186 147 194
0.621105 0.705802 2.304000 189 152 196
0.621105 0.709835 2.304000 192 156 197
0.617062 0.709220 2.289000 192 155 199
0.617062 0.713227 2.289000 193 150 201
0.608974 0.707834 2.259000 195 156 203
0.604931 0.707062 2.244000 197 156 205
0.597113 0.701802 2.215000 198 161 208
0.593339 0.701219 2.201000 200 164 211
0.589565 0.700587 2.187000 202 162 215
0.589565 0.704415 2.187000 204 162 216
0.589565 0.708244 2.187000 204 165 218
0.586060 0.707839 2.174000 205 159 217
0.575008 0.698224 2.133000 208 170 217
0.571503 0.697679 2.120000 211 177 215
0.567999 0.697090 2.107000 209 171 214
0.561259 0.692463 2.082000 208 161 217
0.561259 0.696108 2.082000 208 172 220
0.557755 0.695383 2.069000 207 178 215
0.554520 0.694950 2.057000 206 175 211
0.551285 0.694476 2.045000 204 175 211
0.551285 0.698056 2.045000 204 170 212
0.541580 0.689284 2.009000 204 159 214
0.538615 0.689007 1.998000 207 172 216
0.535380 0.688346 1.986000 211 180 217
0.532415 0.687990 1.975000 209 179 218
0.532415 0.691448 1.975000 208 178 220
0.529449 0.691035 1.964000 210 174 222
0.526214 0.690229 1.952000 212 170 221
0.523249 0.689737 1.941000 212 178 220
0.517588 0.685636 1.920000 213 183 221
0.514622 0.685049 1.909000 213 181 223
0.511927 0.684785 1.899000 213 182 226
0.508961 0.684124 1.888000 213 184 230
0.506266 0.683788 1.878000 214 186 230
0.503570 0.683416 1.868000 215 187 230
0.500874 0.683010 1.858000 217 188 228
0.498178 0.682569 1.848000 218 186 227
0.495483 0.682093 1.838000 219 184 230
0.492787 0.681582 1.828000 220 188 233
0.490361 0.681410 1.819000 222 179 234
0.487665 0.680831 1.809000 225 186 235
0.485239 0.680595 1.800000 228 186 233
0.482543 0.679947 1.790000 226 193 232
0.480117 0.679646 1.781000 225 197 228
0.477690 0.679313 1.772000 223 193 225
0.475264 0.678949 1.763000 222 188 232
0.472838 0.678553 1.754000 222 192 239
0.470412 0.678126 1.745000 223 190 238
0.906234 -0.181247 3.340000 95 21 8
0.910847 -0.176293 3.357000 104 30 26
0.901893 -0.168741 3.324000 141 53 44
0.910847 -0.164540 3.357000 178 112 104
0.910847 -0.158664 3.357000 216 177 163
0.910847 -0.152787 3.357000 254 234 208
0.910847 -0.146911 3.357000 253 254 254
0.910847 -0.141034 3.357000 253 246 239
0.907862 0.023429 3.346000 102 42 21
0.901893 0.029093 3.324000 101 47 36
0.901893 0.034912 3.324000 100 47 33
0.910847 0.041135 3.357000 98 45 30
0.901893 0.046549 3.324000 96 46 28
0.910847 0.052888 3.357000 94 46 27
0.910847 0.058764 3.357000 93 45 26
0.910847 0.064641 3.357000 94 46 26
0.910847 0.070517 3.357000 96 46 19
0.910847 0.076394 3.357000 94 43 13
0.910847 0.082270 3.357000 92 44 18
0.901893 0.087280 3.324000 90 44 23
0.910847 0.094023 3.357000 89 41 25
0.910847 0.099899 3.357000 87 39 26
0.910847 0.105776 3.357000 86 40 30
0.910847 0.111652 3.357000 88 42 34
0.910847 0.117529 3.357000 91 40 27
0.919800 0.124618 3.390000 91 39 21
0.919800 0.130552 3.390000 92 36 22
0.919800 0.136487 3.390000 93 34 24
0.919800 0.142421 3.390000 94 35 21
0.919800 0.148355 3.390000 92 39 19
0.919800 0.154289 3.390000 91 35 22
0.919800 0.160223 3.390000 92 36 25
0.928754 0.167775 3.423000 94 51 37
0.928754 0.173767 3.423000 97 62 48
0.928754 0.179759 3.423000 100 65 64
0.928754 0.185751 3.423000 101 67 80
0.938251 0.193704 3.458000 103 67 79
0.947747 0.201778 3.493000 99 69 78
0.957243 0.209976 3.528000 95 64 76
0.967283 0.218419 3.565000 98 60 74
0.977322 0.226991 3.602000 101 61 71
0.977322 0.233296 3.602000 96 58 69
0.977322 0.239602 3.602000 92 61 71
0.977322 0.245907 3.602000 89 63 73
0.977322 0.252212 3.602000 87 63 69
0.977322 0.258517 3.602000 87 64 66
0.977322 0.264823 3.602000 87 63 70
0.977322 0.271128 3.602000 88 66 74
0.977322 0.277433 3.602000 90 63 75
0.977322 0.283739 3.602000 89 60 77
0.987632 0.293104 3.640000 89 61 73
0.987632 0.299476 3.640000 88 64 70
0.987632 0.305847 3.640000 88 62 71
0.977322 0.308960 3.602000 88 64 73
0.987632 0.318591 3.640000 88 63 76
0.987632 0.324963 3.640000 87 63 79
0.987632 0.331335 3.640000 86 61 81
0.977322 0.334181 3.602000 85 61 83
0.977322 0.340486 3.602000 85 61 80
0.977322 0.346792 3.602000 85 62 77
0.977322 0.353097 3.602000 85 61 74
0.967283 0.355710 3.565000 86 67 72
0.967283 0.361951 3.565000 87 62 73
0.967283 0.368192 3.565000 88 58 75
0.967283 0.374432 3.565000 89 57 72
0.987632 0.388681 3.640000 92 58 70
0.987632 0.395053 3.640000 95 58 70
0.987632 0.401425 3.640000 91 59 70
0.987632 0.407797 3.640000 88 61 70
0.987632 0.414168 3.640000 94 62 70
0.987632 0.420540 3.640000 100 58 71
0.987632 0.426912 3.640000 94 56 72
0.987632 0.433284 3.640000 88 58 72
0.987632 0.439656 3.640000 88 58 72
0.987632 0.446028 3.640000 88 57 70
0.987632 0.452399 3.640000 87 56 69
0.977322 0.453982 3.602000 87 57 71
0.977322 0.460287 3.602000 84 56 73
0.977322 0.466592 3.602000 82 55 74
0.977322 0.472898 3.602000 73 51 75
0.977322 0.479203 3.602000 65 52 75
0.967283 0.480521 3.565000 76 55 75
0.967283 0.486762 3.565000 88 54 68
0.967283 0.493002 3.565000 84 51 61
0.967283 0.499243 3.565000 81 51 55
0.967283 0.505483 3.565000 83 51 49
0.967283 0.511724 3.565000 86 52 54
0.967283 0.517964 3.565000 84 52 60
0.967283 0.524205 3.565000 82 53 65
0.967283 0.530445 3.565000 81 54 71
0.967283 0.536686 3.565000 80 50 66
0.967283 0.542926 3.565000 83 49 60
0.967283 0.549167 3.565000 87 49 62
0.967283 0.555408 3.565000 84 48 64
0.967283 0.561648 3.565000 82 47 60
0.967283 0.567889 3.565000 79 47 57
0.967283 0.574129 3.565000 76 46 52
0.967283 0.580370 3.565000 78 47 47
0.967283 0.586610 3.565000 80 47 50
0.967283 0.592851 3.565000 77 47 53
0.967283 0.599091 3.565000 75 47 54
0.967283 0.605332 3.565000 73 45 55
0.967283 0.611572 3.565000 71 44 54
0.967283 0.617813 3.565000 71 41 53
0.967283 0.624053 3.565000 71 41 49
0.967283 0.630294 3.565000 70 42 45
0.967283 0.636534 3.565000 70 42 45
0.967283 0.642775 3.565000 64 42 45
0.967283 0.649015 3.565000 59 41 46
0.967283 0.655256 3.565000 59 39 48
0.967283 0.661497 3.565000 60 38 47
0.967283 0.667737 3.565000 58 40 46
0.967283 0.673978 3.565000 56 37 44
0.967283 0.680218 3.565000 53 36 41
0.967283 0.686459 3.565000 51 32 37
0.967283 0.692699 3.565000 45 27 33
0.967283 0.698940 3.565000 40 24 26
0.967283 0.705180 3.565000 52 20 19
0.967283 0.711421 3.565000 64 17 27
0.967283 0.717661 3.565000 51 17 36
0.967283 0.723902 3.565000 39 18 30
0.957243 0.722565 3.528000 33 14 23
0.967283 0.736383 3.565000 28 12 19
0.967283 0.742624 3.565000 27 10 15
0.957243 0.741092 3.528000 26 9 14
0.957243 0.747268 3.528000 32 7 14
0.957243 0.753443 3.528000 39 8 18
0.957243 0.759619 3.528000 28 10 23
0.957243 0.765795 3.528000 17 11 29
0.950732 0.766719 3.504000 30 12 36
0.705180 0.705180 2.599000 117 113 61
0.700025 0.704541 2.580000 158 110 97
0.700025 0.709058 2.580000 155 144 133
0.700025 0.713574 2.580000 153 123 137
0.694598 0.712524 2.560000 154 117 142
0.689715 0.711963 2.542000 155 120 141
0.679675 0.705986 2.505000 158 123 141
0.679675 0.710371 2.505000 161 130 154
0.674792 0.709620 2.487000 161 144 167
0.665024 0.703638 2.451000 162 133 165
0.665024 0.707929 2.451000 165 135 163
0.665024 0.712219 2.451000 168 137 166
0.660411 0.711540 2.434000 172 138 170
0.655799 0.710801 2.417000 177 139 176
0.651186 0.710003 2.400000 177 140 183
0.642232 0.704384 2.367000 177 143 185
0.642232 0.708527 2.367000 179 151 188
0.633550 0.703036 2.335000 182 146 189
0.629480 0.702581 2.320000 183 144 190
0.629480 0.706642 2.320000 184 147 191
0.625139 0.705802 2.304000 187 158 192
0.625139 0.709835 2.304000 191 153 194
0.621069 0.709220 2.289000 191 155 196
0.616999 0.708554 2.274000 192 154 198
0.612929 0.707834 2.259000 194 159 201
0.608859 0.707062 2.244000 196 158 203
0.597192 0.697366 2.201000 197 158 206
0.597192 0.701219 2.201000 198 161 213
0.593393 0.700587 2.187000 200 161 219
0.589866 0.700228 2.174000 202 161 217
0.589866 0.704034 2.174000 204 160 215
0.586067 0.703281 2.160000 206 162 215
0.582540 0.702807 2.147000 206 166 214
0.578742 0.701958 2.133000 207 171 214
0.571687 0.697090 2.107000 207 174 214
0.568431 0.696787 2.095000 208 171 216
0.564904 0.696108 2.082000 208 174 218
0.564904 0.699752 2.082000 208 172 215
0.561377 0.699005 2.069000 208 177 213
0.558121 0.698551 2.057000 209 175 217
0.554865 0.698056 2.045000 207 174 221
0.545097 0.689284 2.009000 205 169 216
0.542112 0.689007 1.998000 204 171 211
0.538856 0.688346 1.986000 203 175 214
0.535872 0.687990 1.975000 204 181 217
0.535872 0.691448 1.975000 206 177 218
0.532887 0.691035 1.964000 208 174 219
0.529631 0.690229 1.952000 210 176 218
0.526647 0.689737 1.941000 211 182 218
0.520949 0.685636 1.920000 213 182 220
0.517964 0.685049 1.909000 213 181 222
0.515251 0.684785 1.899000 213 183 226
0.512266 0.684124 1.888000 213 185 230
0.509553 0.683788 1.878000 214 184 231
0.506840 0.683416 1.868000 215 190 231
0.504126 0.683010 1.858000 217 188 232
0.501413 0.682569 1.848000 217 186 234
0.498700 0.682093 1.838000 218 189 232
0.495987 0.681582 1.828000 220 193 231
0.493545 0.681410 1.819000 222 187 232
0.490831 0.680831 1.809000 227 187 234
0.488389 0.680595 1.800000 233 188 234
0.485676 0.679947 1.790000 229 194 233
0.483234 0.679646 1.781000 225 192 231
0.480792 0.679313 1.772000 224 196 229
0.478350 0.678949 1.763000 223 189 235
0.475908 0.678553 1.754000 222 188 241
0.474552 0.679681 1.749000 222 190 238
0.907711 -0.180378 3.324000 96 31 15
0.907711 -0.174560 3.324000 104 42 37
0.907711 -0.168741 3.324000 147 76 59
0.907711 -0.162922 3.324000 190 126 119
0.907711 -0.157104 3.324000 222 186 179
0.916723 -0.152787 3.357000 254 254 216
0.907711 -0.145467 3.324000 249 246 254
0.907711 0.023275 3.324000 102 50 27
0.907711 0.029093 3.324000 101 49 42
0.907711 0.034912 3.324000 100 51 36
0.907711 0.040731 3.324000 98 46 30
0.907711 0.046549 3.324000 96 44 22
0.907711 0.052368 3.324000 95 46 14
0.907711 0.058187 3.324000 94 46 20
0.907711 0.064005 3.324000 95 45 26
0.907711 0.069824 3.324000 95 47 17
0.907711 0.075643 3.324000 94 46 9
0.907711 0.081461 3.324000 93 46 15
0.907711 0.087280 3.324000 91 42 21
0.907711 0.093099 3.324000 89 39 23
0.907711 0.098917 3.324000 88 39 25
0.916723 0.105776 3.357000 88 41 35
0.907711 0.110555 3.324000 89 40 45
0.916723 0.117529 3.357000 90 39 35
0.916723 0.123405 3.357000 91 38 25
0.916723 0.129281 3.357000 92 36 28
0.916723 0.135158 3.357000 94 32 31
0.916723 0.141034 3.357000 97 31 26
0.916723 0.146911 3.357000 93 35 21
0.925735 0.154289 3.390000 89 32 21
0.925735 0.160223 3.390000 91 38 21
0.925735 0.166157 3.390000 93 44 34
0.925735 0.172092 3.390000 94 54 47
0.925735 0.178026 3.390000 95 62 59
0.934746 0.185751 3.423000 96 64 72
0.934746 0.191743 3.423000 97 65 75
0.944304 0.199757 3.458000 94 65 78
0.944304 0.205810 3.458000 90 64 75
0.973523 0.218419 3.565000 93 62 72
0.973523 0.224659 3.565000 96 64 69
0.973523 0.230900 3.565000 93 60 67
0.973523 0.237140 3.565000 90 58 71
0.973523 0.243381 3.565000 86 63 76
0.973523 0.249621 3.565000 83 67 75
0.973523 0.255862 3.565000 85 64 74
0.973523 0.262102 3.565000 87 62 76
0.973523 0.268343 3.565000 87 62 78
0.973523 0.274584 3.565000 88 63 78
0.973523 0.280824 3.565000 88 59 78
0.983627 0.290044 3.602000 88 59 72
0.983627 0.296349 3.602000 86 61 66
0.983627 0.302655 3.602000 85 63 69
0.973523 0.305786 3.565000 88 63 73
0.983627 0.315265 3.602000 90 62 77
0.983627 0.321571 3.602000 89 60 82
0.983627 0.327876 3.602000 87 60 85
0.973523 0.330748 3.565000 86 58 89
0.973523 0.336989 3.565000 86 59 84
0.983627 0.346792 3.602000 86 59 79
0.983627 0.353097 3.602000 87 60 76
0.983627 0.359402 3.602000 90 61 74
0.973523 0.361951 3.565000 93 60 76
0.973523 0.368192 3.565000 91 60 79
0.973523 0.374432 3.565000 90 58 75
0.983627 0.384623 3.602000 90 57 71
0.983627 0.390929 3.602000 91 56 69
0.983627 0.397234 3.602000 87 59 68
0.983627 0.403539 3.602000 83 62 65
0.983627 0.409845 3.602000 89 62 63
0.994004 0.420540 3.640000 94 61 66
0.994004 0.426912 3.640000 92 60 70
0.994004 0.433284 3.640000 89 63 70
0.994004 0.439656 3.640000 89 60 70
0.994004 0.446028 3.640000 89 59 71
0.994004 0.452399 3.640000 88 58 73
0.983627 0.453982 3.602000 87 60 77
0.983627 0.460287 3.602000 86 57 82
0.973523 0.461800 3.565000 85 56 80
0.973523 0.468040 3.565000 79 53 79
0.973523 0.474281 3.565000 74 52 81
0.973523 0.480521 3.565000 79 55 83
0.973523 0.486762 3.565000 85 57 75
0.973523 0.493002 3.565000 82 55 67
0.973523 0.499243 3.565000 79 53 60
0.973523 0.505483 3.565000 78 51 54
0.973523 0.511724 3.565000 77 50 58
0.963419 0.512589 3.528000 79 52 62
0.973523 0.524205 3.565000 81 55 69
0.963419 0.524940 3.528000 80 52 77
0.963419 0.531116 3.528000 80 50 69
0.963419 0.537292 3.528000 82 49 62
0.963419 0.543467 3.528000 85 50 62
0.963419 0.549643 3.528000 83 46 63
0.963419 0.555819 3.528000 81 45 59
0.963419 0.561995 3.528000 79 45 56
0.963419 0.568170 3.528000 77 44 48
0.963419 0.574346 3.528000 77 45 41
0.973523 0.586610 3.565000 78 48 48
0.963419 0.586698 3.528000 76 48 55
0.973523 0.599091 3.565000 73 49 58
0.963419 0.599049 3.528000 71 46 62
0.963419 0.605225 3.528000 70 43 57
0.963419 0.611401 3.528000 71 41 53
0.963419 0.617577 3.528000 72 38 48
0.963419 0.623752 3.528000 70 41 44
0.973523 0.636534 3.565000 68 42 44
0.973523 0.642775 3.565000 62 42 45
0.973523 0.649015 3.565000 56 42 47
0.973523 0.655256 3.565000 58 39 50
0.973523 0.661497 3.565000 60 39 45
0.973523 0.667737 3.565000 59 39 41
0.973523 0.673978 3.565000 58 41 42
0.973523 0.680218 3.565000 55 37 43
0.973523 0.686459 3.565000 53 36 41
0.963419 0.685510 3.528000 49 30 40
0.973523 0.698940 3.565000 44 30 35
0.973523 0.705180 3.565000 50 22 31
0.963419 0.704037 3.528000 56 16 39
0.963419 0.710213 3.528000 48 19 47
0.963419 0.716389 3.528000 39 23 39
0.963419 0.722565 3.528000 35 18 32
0.963419 0.728740 3.528000 32 15 25
0.963419 0.734916 3.528000 28 12 19
0.963419 0.741092 3.528000 25 11 14
0.963419 0.747268 3.528000 29 6 10
0.963419 0.753443 3.528000 34 5 15
0.963419 0.759619 3.528000 29 7 21
0.963419 0.765795 3.528000 24 9 32
0.953862 0.764312 3.493000 31 11 44
0.944304 0.762707 3.458000 38 10 34
0.944304 0.768760 3.458000 36 11 25
0.709730 0.705180 2.599000 95 45 21
0.704541 0.704541 2.580000 134 62 68
0.704541 0.709058 2.580000 144 113 115
0.704541 0.713574 2.580000 153 115 128
0.699080 0.712524 2.560000 153 122 142
0.694164 0.711963 2.542000 152 118 140
0.688976 0.711058 2.523000 156 122 138
0.688976 0.715475 2.523000 159 125 156
0.688976 0.719892 2.523000 160 130 174
0.684060 0.719141 2.505000 162 126 169
0.684060 0.723526 2.505000 165 131 164
0.669314 0.712219 2.451000 168 135 165
0.664672 0.711540 2.434000 171 137 167
0.655387 0.705802 2.400000 175 139 175
0.655387 0.710003 2.400000 175 138 183
0.646376 0.704384 2.367000 175 135 185
0.646376 0.708527 2.367000 178 142 187
0.642006 0.707853 2.351000 181 148 187
0.637637 0.707123 2.335000 182 145 188
0.633541 0.706642 2.320000 184 142 188
0.629172 0.705802 2.304000 187 147 189
0.629172 0.709835 2.304000 190 143 191
0.625076 0.709220 2.289000 190 148 194
0.620979 0.708554 2.274000 191 152 196
0.616883 0.707834 2.259000 192 157 199
0.612787 0.707062 2.244000 193 161 202
0.608964 0.706554 2.230000 195 162 205
0.601045 0.701219 2.201000 197 164 214
0.597222 0.700587 2.187000 199 162 224
0.597222 0.704415 2.187000 200 161 218
0.593672 0.704034 2.174000 202 163 213
0.589849 0.703281 2.160000 204 166 212
0.586299 0.702807 2.147000 205 165 212
0.582475 0.701958 2.133000 205 168 213
0.575375 0.697090 2.107000 206 170 214
0.572098 0.696787 2.095000 206 175 215
0.572098 0.700454 2.095000 207 171 216
0.568548 0.699752 2.082000 207 162 216
0.564998 0.699005 2.069000 207 172 216
0.564998 0.702626 2.069000 208 176 223
0.561722 0.702152 2.057000 206 173 230
0.548614 0.689284 2.009000 204 174 218
0.545610 0.689007 1.998000 204 170 206
0.542333 0.688346 1.986000 205 169 211
0.542333 0.691822 1.986000 205 174 216
0.539329 0.691448 1.975000 206 178 216
0.539329 0.694905 1.975000 207 179 217
0.536325 0.694473 1.964000 208 180 216
0.530044 0.689737 1.941000 209 181 216
0.524310 0.685636 1.920000 210 182 219
0.521306 0.685049 1.909000 210 182 222
0.518575 0.684785 1.899000 211 185 226
0.515571 0.684124 1.888000 212 182 231
0.512841 0.683788 1.878000 213 177 232
0.510110 0.683416 1.868000 213 185 233
0.507379 0.683010 1.858000 214 189 237
0.504648 0.682569 1.848000 216 190 241
0.501917 0.682093 1.838000 217 194 235
0.499187 0.681582 1.828000 218 191 229
0.496729 0.681410 1.819000 220 190 231
0.493998 0.680831 1.809000 223 188 234
0.491540 0.680595 1.800000 227 187 234
0.488810 0.679947 1.790000 225 186 235
0.486352 0.679646 1.781000 223 182 234
0.483894 0.679313 1.772000 222 186 234
0.481437 0.678949 1.763000 221 185 238
0.478979 0.678553 1.754000 222 189 243
0.478979 0.681624 1.754000 222 193 239
0.905010 -0.184461 3.293000 93 21 4
0.905010 -0.178696 3.293000 98 34 8
0.905010 -0.172932 3.293000 104 65 52
0.905010 -0.167167 3.293000 153 86 97
0.905010 -0.161403 3.293000 202 154 149
0.913530 -0.157104 3.324000 228 189 201
0.913530 -0.151285 3.324000 254 237 226
0.913530 -0.145467 3.324000 246 254 251
0.913530 0.011637 3.324000 71 10 34
0.913530 0.017456 3.324000 86 38 14
0.913530 0.023275 3.324000 102 46 19
0.913530 0.029093 3.324000 101 49 24
0.913530 0.034912 3.324000 100 49 25
0.905010 0.040351 3.293000 98 46 26
0.905010 0.046115 3.293000 97 46 23
0.905010 0.051880 3.293000 96 49 20
0.905010 0.057644 3.293000 96 46 22
0.905010 0.063408 3.293000 95 44 23
0.905010 0.069173 3.293000 95 45 14
0.905010 0.074937 3.293000 95 49 6
0.905010 0.080702 3.293000 95 45 11
0.905010 0.086466 3.293000 92 42 17
0.905010 0.092230 3.293000 89 40 19
0.905010 0.097995 3.293000 90 40 21
0.913530 0.104736 3.324000 91 40 25
0.913530 0.110555 3.324000 90 40 30
0.913530 0.116373 3.324000 90 40 26
0.913530 0.122192 3.324000 91 40 23
0.922599 0.129281 3.357000 92 35 20
0.922599 0.135158 3.357000 96 30 18
0.922599 0.141034 3.357000 100 33 17
0.922599 0.146911 3.357000 94 38 16
0.922599 0.152787 3.357000 88 38 19
0.922599 0.158664 3.357000 90 41 22
0.931669 0.166157 3.390000 93 45 35
0.931669 0.172092 3.390000 92 51 48
0.931669 0.178026 3.390000 91 59 59
0.931669 0.183960 3.390000 91 65 70
0.940738 0.191743 3.423000 92 65 73
0.940738 0.197735 3.423000 89 64 77
0.950357 0.205810 3.458000 86 62 74
0.969595 0.216152 3.528000 89 62 72
0.979764 0.224659 3.565000 92 63 66
0.979764 0.230900 3.565000 90 63 61
0.979764 0.237140 3.565000 89 61 67
0.979764 0.243381 3.565000 84 64 74
0.979764 0.249621 3.565000 79 65 75
0.979764 0.255862 3.565000 83 63 76
0.969595 0.259382 3.528000 87 61 78
0.969595 0.265558 3.528000 87 60 81
0.969595 0.271734 3.528000 87 60 79
0.969595 0.277910 3.528000 87 57 78
0.969595 0.284085 3.528000 87 58 72
0.969595 0.290261 3.528000 85 60 67
0.969595 0.296437 3.528000 83 63 69
0.969595 0.302613 3.528000 88 63 72
0.979764 0.312027 3.565000 93 61 74
0.979764 0.318267 3.565000 91 58 77
0.979764 0.324508 3.565000 89 58 79
0.979764 0.330748 3.565000 88 55 82
0.979764 0.336989 3.565000 87 56 80
0.979764 0.343229 3.565000 88 58 78
0.979764 0.349470 3.565000 90 57 74
0.979764 0.355710 3.565000 95 57 71
0.969595 0.358194 3.528000 100 60 73
0.969595 0.364370 3.528000 95 64 76
0.979764 0.374432 3.565000 91 60 72
0.979764 0.380673 3.565000 89 58 69
0.979764 0.386913 3.565000 87 59 68
0.979764 0.393154 3.565000 83 62 66
0.979764 0.399394 3.565000 79 63 62
0.979764 0.405635 3.565000 84 64 58
0.979764 0.411875 3.565000 89 61 66
0.979764 0.418116 3.565000 90 63 74
0.989932 0.428761 3.602000 91 62 73
0.989932 0.435066 3.602000 91 62 71
0.989932 0.441371 3.602000 91 59 72
0.989932 0.447676 3.602000 89 58 73
0.979764 0.449318 3.565000 87 58 75
0.979764 0.455559 3.565000 87 57 77
0.979764 0.461800 3.565000 88 56 76
0.979764 0.468040 3.565000 85 55 75
0.979764 0.474281 3.565000 83 56 76
0.979764 0.480521 3.565000 83 59 77
0.979764 0.486762 3.565000 83 59 71
0.979764 0.493002 3.565000 80 59 65
0.969595 0.494061 3.528000 78 55 62
0.969595 0.500237 3.528000 73 50 59
0.969595 0.506413 3.528000 68 50 59
0.969595 0.512589 3.528000 74 52 60
0.969595 0.518764 3.528000 80 51 64
0.969595 0.524940 3.528000 80 50 69
0.969595 0.531116 3.528000 80 49 65
0.969595 0.537292 3.528000 81 49 62
0.969595 0.543467 3.528000 83 47 65
0.969595 0.549643 3.528000 82 42 68
0.969595 0.555819 3.528000 81 45 62
0.969595 0.561995 3.528000 79 47 57
0.969595 0.568170 3.528000 78 45 52
0.969595 0.574346 3.528000 77 43 47
0.969595 0.580522 3.528000 77 46 51
0.969595 0.586698 3.528000 74 50 56
0.969595 0.592874 3.528000 72 48 56
0.969595 0.599049 3.528000 70 47 56
0.969595 0.605225 3.528000 69 44 56
0.969595 0.611401 3.528000 71 44 56
0.969595 0.617577 3.528000 73 41 51
0.969595 0.623752 3.528000 70 42 46
0.969595 0.629928 3.528000 67 43 46
0.969595 0.636104 3.528000 60 43 46
0.979764 0.649015 3.565000 53 41 51
0.979764 0.655256 3.565000 56 38 56
0.969595 0.654631 3.528000 60 38 43
0.969595 0.660807 3.528000 60 37 31
0.969595 0.666983 3.528000 60 39 34
0.969595 0.673158 3.528000 58 38 38
0.969595 0.679334 3.528000 56 35 41
0.969595 0.685510 3.528000 52 30 44
0.969595 0.691686 3.528000 49 27 37
0.969595 0.697861 3.528000 49 25 31
0.969595 0.704037 3.528000 49 22 34
0.969595 0.710213 3.528000 44 21 38
0.969595 0.716389 3.528000 40 23 32
0.959976 0.715396 3.493000 38 21 27
0.969595 0.728740 3.528000 36 16 23
0.959976 0.727625 3.493000 30 14 19
0.959976 0.733740 3.493000 24 10 16
0.959976 0.739854 3.493000 26 4 14
0.959976 0.745969 3.493000 29 5 16
0.959976 0.752083 3.493000 30 7 19
0.959976 0.758198 3.493000 31 9 26
0.950357 0.756654 3.458000 31 14 32
0.950357 0.762707 3.458000 32 12 28
0.950357 0.768760 3.458000 33 11 23
0.703561 0.712524 2.560000 152 140 141
0.698614 0.711963 2.542000 150 124 138
0.693392 0.711058 2.523000 154 124 135
0.693392 0.715475 2.523000 158 124 152
0.693392 0.719892 2.523000 160 125 169
0.688445 0.719141 2.505000 162 127 166
0.688445 0.723526 2.505000 165 128 164
0.673605 0.712219 2.451000 168 132 165
0.668932 0.711540 2.434000 171 137 167
0.659588 0.705802 2.400000 174 138 173
0.659588 0.710003 2.400000 173 140 180
0.650519 0.704384 2.367000 173 136 182
0.650519 0.708527 2.367000 176 136 184
0.646122 0.707853 2.351000 180 145 184
0.646122 0.711969 2.351000 182 146 184
0.641725 0.711211 2.335000 185 144 182
0.637602 0.710703 2.320000 187 145 180
0.633205 0.709835 2.304000 190 144 185
0.629082 0.709220 2.289000 190 144 190
0.620838 0.703880 2.259000 190 149 194
0.616715 0.703134 2.244000 190 156 198
0.616715 0.707062 2.244000 191 158 200
0.612868 0.706554 2.230000 194 166 203
0.604898 0.701219 2.201000 197 162 209
0.604898 0.705072 2.201000 198 164 216
0.601050 0.704415 2.187000 199 162 214
0.601050 0.708244 2.187000 201 167 211
0.597477 0.707839 2.174000 203 162 211
0.590057 0.702807 2.147000 203 161 210
0.586209 0.701958 2.133000 204 165 212
0.579064 0.697090 2.107000 204 164 215
0.575766 0.696787 2.095000 205 168 214
0.572193 0.696108 2.082000 206 175 214
0.572193 0.699752 2.082000 207 169 214
0.568620 0.699005 2.069000 207 175 214
0.565322 0.698551 2.057000 207 172 219
0.562024 0.698056 2.045000 205 170 224
0.552130 0.689284 2.009000 203 171 218
0.549107 0.689007 1.998000 205 169 212
0.545809 0.688346 1.986000 207 169 214
0.545809 0.691822 1.986000 207 170 215
0.545809 0.695299 1.986000 207 176 212
0.542786 0.694905 1.975000 207 185 209
0.539763 0.694473 1.964000 207 179 212
0.533442 0.689737 1.941000 207 183 216
0.530694 0.689564 1.931000 207 181 219
0.527671 0.688997 1.920000 208 182 222
0.524648 0.688391 1.909000 209 183 225
0.518876 0.684124 1.888000 210 181 228
0.516128 0.683788 1.878000 212 181 229
0.513380 0.683416 1.868000 212 184 230
0.513380 0.686686 1.868000 212 185 233
0.507883 0.682569 1.848000 214 192 236
0.507883 0.685804 1.848000 217 189 231
0.505135 0.685310 1.838000 217 189 227
0.499913 0.681410 1.819000 218 188 229
0.497165 0.680831 1.809000 219 188 231
0.494691 0.680595 1.800000 221 184 232
0.491943 0.679947 1.790000 221 182 234
0.489470 0.679646 1.781000 222 182 233
0.486996 0.679313 1.772000 221 183 232
0.484523 0.678949 1.763000 220 187 235
0.482049 0.678553 1.754000 221 192 238
0.482049 0.681624 1.754000 223 192 236
0.910775 -0.190225 3.293000 93 7 1
0.910775 -0.184461 3.293000 95 21 1
0.902201 -0.177014 3.262000 110 45 1
0.910775 -0.172932 3.293000 125 100 68
0.910775 -0.167167 3.293000 175 136 135
0.910775 -0.161403 3.293000 225 216 179
0.910775 -0.155639 3.293000 239 228 224
0.910775 -0.149874 3.293000 254 254 236
0.919349 -0.145467 3.324000 249 242 248
0.919349 0.011637 3.324000 79 1 14
0.910775 0.017293 3.293000 89 32 15
0.910775 0.023058 3.293000 100 50 11
0.910775 0.028822 3.293000 99 49 7
0.910775 0.034587 3.293000 99 51 15
0.910775 0.040351 3.293000 97 48 23
0.910775 0.046115 3.293000 96 47 25
0.910775 0.051880 3.293000 96 47 27
0.910775 0.057644 3.293000 95 46 24
0.910775 0.063408 3.293000 94 43 21
0.910775 0.069173 3.293000 93 40 12
0.910775 0.074937 3.293000 95 45 3
0.910775 0.080702 3.293000 98 45 8
0.910775 0.086466 3.293000 94 41 14
0.910775 0.092230 3.293000 90 40 16
0.910775 0.097995 3.293000 90 40 18
0.910775 0.103759 3.293000 91 42 16
0.910775 0.109524 3.293000 89 42 15
0.910775 0.115288 3.293000 88 43 18
0.910775 0.121052 3.293000 89 39 21
0.919349 0.128011 3.324000 91 36 13
0.919349 0.133829 3.324000 93 34 6
0.919349 0.139648 3.324000 95 34 9
0.919349 0.145467 3.324000 93 38 12
0.919349 0.151285 3.324000 90 43 17
0.919349 0.157104 3.324000 93 43 23
0.928476 0.164540 3.357000 96 44 36
0.928476 0.170417 3.357000 94 52 49
0.937603 0.178026 3.390000 92 60 58
0.937603 0.183960 3.390000 92 66 68
0.946730 0.191743 3.423000 92 69 72
0.956410 0.199757 3.458000 90 64 77
0.966091 0.207893 3.493000 88 59 74
0.966091 0.214007 3.493000 91 60 72
0.975771 0.222328 3.528000 94 63 64
0.975771 0.228503 3.528000 94 62 56
0.975771 0.234679 3.528000 95 61 64
0.986004 0.243381 3.565000 90 63 72
0.975771 0.247031 3.528000 85 66 75
0.975771 0.253206 3.528000 87 63 78
0.975771 0.259382 3.528000 89 62 81
0.975771 0.265558 3.528000 88 61 85
0.975771 0.271734 3.528000 87 61 81
0.975771 0.277910 3.528000 89 58 78
0.975771 0.284085 3.528000 92 57 73
0.975771 0.290261 3.528000 88 60 68
0.975771 0.296437 3.528000 85 66 69
0.975771 0.302613 3.528000 88 62 71
0.975771 0.308788 3.528000 91 62 71
0.975771 0.314964 3.528000 90 60 72
0.975771 0.321140 3.528000 88 60 74
0.975771 0.327316 3.528000 87 57 76
0.986004 0.336989 3.565000 85 55 76
0.986004 0.343229 3.565000 87 55 77
0.986004 0.349470 3.565000 90 56 72
0.975771 0.352019 3.528000 92 58 68
0.975771 0.358194 3.528000 95 62 70
0.975771 0.364370 3.528000 92 63 73
0.975771 0.370546 3.528000 90 60 70
0.975771 0.376722 3.528000 90 59 68
0.975771 0.382898 3.528000 90 62 66
0.975771 0.389073 3.528000 87 62 65
0.975771 0.395249 3.528000 85 64 59
0.975771 0.401425 3.528000 89 61 54
0.986004 0.411875 3.565000 93 59 66
0.986004 0.418116 3.565000 92 60 79
0.986004 0.424356 3.565000 91 60 76
0.986004 0.430597 3.565000 91 59 73
0.986004 0.436837 3.565000 92 60 73
0.986004 0.443078 3.565000 90 59 73
0.986004 0.449318 3.565000 89 58 73
0.986004 0.455559 3.565000 90 56 73
0.986004 0.461800 3.565000 91 56 72
0.986004 0.468040 3.565000 88 57 72
0.975771 0.469358 3.528000 86 60 71
0.975771 0.475534 3.528000 88 60 71
0.975771 0.481710 3.528000 90 64 67
0.975771 0.487886 3.528000 85 59 64
0.975771 0.494061 3.528000 80 59 64
0.975771 0.500237 3.528000 76 54 64
0.975771 0.506413 3.528000 73 51 61
0.975771 0.512589 3.528000 77 48 58
0.975771 0.518764 3.528000 80 47 60
0.975771 0.524940 3.528000 82 49 62
0.975771 0.531116 3.528000 83 50 62
0.975771 0.537292 3.528000 82 49 62
0.975771 0.543467 3.528000 82 47 67
0.975771 0.549643 3.528000 78 46 73
0.975771 0.555819 3.528000 74 47 65
0.966091 0.556419 3.493000 78 46 58
0.966091 0.562534 3.493000 82 46 56
0.966091 0.568648 3.493000 79 45 54
0.966091 0.574763 3.493000 77 46 55
0.966091 0.580877 3.493000 72 47 57
0.975771 0.592874 3.528000 67 49 53
0.975771 0.599049 3.528000 68 46 50
0.975771 0.605225 3.528000 69 44 54
0.975771 0.611401 3.528000 70 42 59
0.975771 0.617577 3.528000 70 42 54
0.975771 0.623752 3.528000 69 43 49
0.975771 0.629928 3.528000 67 47 48
0.975771 0.636104 3.528000 63 44 47
0.975771 0.642280 3.528000 58 42 55
0.975771 0.648455 3.528000 60 41 63
0.975771 0.654631 3.528000 63 39 42
0.975771 0.660807 3.528000 62 39 21
0.975771 0.666983 3.528000 61 42 27
0.975771 0.673158 3.528000 58 37 34
0.975771 0.679334 3.528000 55 36 41
0.966091 0.678709 3.493000 53 31 49
0.966091 0.684824 3.493000 51 26 40
0.975771 0.697861 3.528000 49 25 31
0.966091 0.697053 3.493000 47 29 30
0.966091 0.703167 3.493000 47 26 30
0.966091 0.709282 3.493000 46 27 26
0.966091 0.715396 3.493000 47 21 22
0.966091 0.721511 3.493000 48 15 20
0.966091 0.727625 3.493000 38 14 19
0.966091 0.733740 3.493000 29 12 18
0.966091 0.739854 3.493000 25 8 18
0.966091 0.745969 3.493000 21 7 18
0.966091 0.752083 3.493000 25 6 18
0.966091 0.758198 3.493000 29 9 19
0.956410 0.756654 3.458000 30 13 21
0.956410 0.762707 3.458000 31 15 21
0.956410 0.768760 3.458000 36 15 22
0.846055 0.738960 3.059000 25 15 14
0.838864 0.737988 3.033000 25 14 10
0.710808 0.715307 2.570000 146 120 140
0.703064 0.711963 2.542000 153 114 136
0.697809 0.711058 2.523000 155 120 133
0.697809 0.715475 2.523000 156 125 148
0.697809 0.719892 2.523000 159 126 164
0.697809 0.724308 2.523000 161 129 164
0.692830 0.723526 2.505000 163 127 164
0.677895 0.712219 2.451000 165 128 166
0.673193 0.711540 2.434000 168 134 168
0.663790 0.705802 2.400000 171 138 172
0.663790 0.710003 2.400000 172 138 177
0.659364 0.709443 2.384000 174 136 179
0.654662 0.708527 2.367000 176 139 181
0.650237 0.707853 2.351000 178 151 181
0.650237 0.711969 2.351000 180 147 181
0.645812 0.711211 2.335000 183 145 176
0.637238 0.705802 2.304000 184 144 171
0.637238 0.709835 2.304000 186 146 178
0.633089 0.709220 2.289000 186 146 186
0.624792 0.703880 2.259000 186 147 191
0.620643 0.703134 2.244000 187 150 197
0.620643 0.707062 2.244000 188 152 199
0.616771 0.706554 2.230000 191 157 201
0.608750 0.701219 2.201000 194 156 205
0.604878 0.700587 2.187000 196 161 209
0.604878 0.704415 2.187000 198 159 209
0.601283 0.704034 2.174000 199 161 210
0.593815 0.699048 2.147000 201 157 209
0.589943 0.698224 2.133000 202 164 209
0.586348 0.697679 2.120000 203 167 212
0.582752 0.697090 2.107000 204 162 216
0.579433 0.696787 2.095000 204 159 214
0.579433 0.700454 2.095000 205 168 213
0.575837 0.699752 2.082000 207 165 212
0.575837 0.703397 2.082000 207 168 212
0.568923 0.698551 2.057000 208 169 215
0.565604 0.698056 2.045000 209 173 219
0.555647 0.689284 2.009000 211 174 219
0.552605 0.689007 1.998000 210 170 219
0.549286 0.688346 1.986000 209 171 217
0.549286 0.691822 1.986000 208 171 215
0.546244 0.691448 1.975000 208 173 208
0.543201 0.691035 1.964000 208 174 202
0.539882 0.690229 1.952000 208 170 209
0.536840 0.689737 1.941000 206 175 216
0.534074 0.689564 1.931000 205 178 219
0.531032 0.688997 1.920000 206 181 222
0.527989 0.688391 1.909000 208 184 224
0.525224 0.688109 1.899000 209 181 226
0.519415 0.683788 1.878000 210 182 227
0.516650 0.683416 1.868000 212 181 228
0.516650 0.686686 1.868000 213 178 230
0.511118 0.682569 1.848000 215 183 232
0.511118 0.685804 1.848000 216 183 228
0.508352 0.685310 1.838000 217 185 225
0.503097 0.681410 1.819000 218 188 226
0.503097 0.684594 1.819000 218 185 228
0.497842 0.680595 1.800000 219 179 231
0.495076 0.679947 1.790000 218 184 234
0.495076 0.683080 1.790000 218 182 232
0.492587 0.682763 1.781000 218 184 230
0.490098 0.682415 1.772000 218 189 232
0.487609 0.682035 1.763000 219 189 234
0.485120 0.681624 1.754000 220 189 233
0.907911 -0.188434 3.262000 77 4 1
0.907911 -0.182724 3.262000 97 21 6
0.907911 -0.177014 3.262000 121 26 11
0.907911 -0.171304 3.262000 146 98 73
0.907911 -0.165594 3.262000 197 145 135
0.907911 -0.159884 3.262000 249 184 165
0.907911 -0.154173 3.262000 251 254 195
0.916539 -0.149874 3.293000 254 190 189
0.907911 -0.142753 3.262000 253 254 184
0.907911 -0.137043 3.262000 253 228 184
0.907911 -0.131333 3.262000 253 254 185
0.907911 -0.125623 3.262000 254 254 219
0.907911 -0.119913 3.262000 254 254 254
0.907911 -0.000000 3.262000 187 128 124
0.916539 0.005764 3.293000 137 1 7
0.916539 0.011529 3.293000 88 16 17
0.916539 0.017293 3.293000 93 42 27
0.916539 0.023058 3.293000 98 47 22
0.916539 0.028822 3.293000 98 47 18
0.916539 0.034587 3.293000 98 48 22
0.916539 0.040351 3.293000 97 49 25
0.916539 0.046115 3.293000 96 47 25
0.907911 0.051391 3.262000 95 47 25
0.907911 0.057101 3.262000 95 46 25
0.907911 0.062811 3.262000 93 42 25
0.907911 0.068522 3.262000 91 42 21
0.907911 0.074232 3.262000 96 47 17
0.907911 0.079942 3.262000 102 44 15
0.916539 0.086466 3.293000 97 39 14
0.916539 0.092230 3.293000 92 40 21
0.916539 0.097995 3.293000 91 40 28
0.916539 0.103759 3.293000 91 42 19
0.916539 0.109524 3.293000 88 45 10
0.916539 0.115288 3.293000 86 42 16
0.916539 0.121052 3.293000 88 37 22
0.916539 0.126817 3.293000 90 38 20
0.916539 0.132581 3.293000 90 39 18
0.916539 0.138346 3.293000 91 38 16
0.916539 0.144110 3.293000 92 39 14
0.916539 0.149874 3.293000 93 40 19
0.925167 0.157104 3.324000 96 47 25
0.925167 0.162923 3.324000 100 48 38
0.934352 0.170417 3.357000 96 55 51
0.934352 0.176293 3.357000 93 63 61
0.943537 0.183960 3.390000 92 71 72
0.952722 0.191743 3.423000 92 70 75
0.962463 0.199757 3.458000 91 67 79
0.962463 0.205810 3.458000 91 61 78
0.972205 0.214007 3.493000 94 57 78
0.972205 0.220122 3.493000 97 61 73
0.981947 0.228503 3.528000 99 62 67
0.981947 0.234679 3.528000 101 60 72
0.981947 0.240855 3.528000 96 64 76
0.981947 0.247031 3.528000 91 64 75
0.981947 0.253206 3.528000 91 63 75
0.981947 0.259382 3.528000 92 62 75
0.981947 0.265558 3.528000 90 64 75
0.981947 0.271734 3.528000 88 59 71
0.981947 0.277910 3.528000 92 59 68
0.981947 0.284085 3.528000 97 58 68
0.981947 0.290261 3.528000 92 60 67
0.981947 0.296437 3.528000 88 60 69
0.981947 0.302613 3.528000 89 59 70
0.981947 0.308788 3.528000 90 60 71
0.981947 0.314964 3.528000 89 62 72
0.981947 0.321140 3.528000 88 60 72
0.981947 0.327316 3.528000 86 61 71
0.981947 0.333491 3.528000 84 57 70
0.981947 0.339667 3.528000 87 54 69
0.981947 0.345843 3.528000 90 56 63
0.981947 0.352019 3.528000 90 60 57
0.981947 0.358194 3.528000 90 63 62
0.981947 0.364370 3.528000 90 67 67
0.981947 0.370546 3.528000 90 62 64
0.981947 0.376722 3.528000 91 59 62
0.972205 0.379099 3.493000 93 60 66
0.981947 0.389073 3.528000 92 60 71
0.981947 0.395249 3.528000 91 60 64
0.981947 0.401425 3.528000 94 60 58
0.981947 0.407601 3.528000 98 58 66
0.981947 0.413776 3.528000 94 59 74
0.981947 0.419952 3.528000 91 58 72
0.981947 0.426128 3.528000 92 55 71
0.981947 0.432304 3.528000 93 58 70
0.981947 0.438479 3.528000 92 60 70
0.981947 0.444655 3.528000 91 57 70
0.981947 0.450831 3.528000 92 55 71
0.981947 0.457007 3.528000 94 56 73
0.981947 0.463183 3.528000 91 57 75
0.981947 0.469358 3.528000 89 57 72
0.981947 0.475534 3.528000 93 58 69
0.981947 0.481710 3.528000 97 58 70
0.981947 0.487886 3.528000 89 57 71
0.981947 0.494061 3.528000 82 59 67
0.981947 0.500237 3.528000 80 58 63
0.981947 0.506413 3.528000 79 52 57
0.972205 0.507503 3.493000 80 45 52
0.972205 0.513618 3.493000 81 48 55
0.972205 0.519732 3.493000 84 51 58
0.972205 0.525847 3.493000 87 50 59
0.972205 0.531961 3.493000 84 50 60
0.972205 0.538076 3.493000 81 49 64
0.972205 0.544190 3.493000 74 48 67
0.972205 0.550305 3.493000 68 48 63
0.972205 0.556419 3.493000 77 47 58
0.972205 0.562534 3.493000 87 46 56
0.972205 0.568648 3.493000 82 46 54
0.962463 0.569004 3.458000 77 45 57
0.972205 0.580877 3.493000 70 43 60
0.972205 0.586992 3.493000 63 45 55
0.972205 0.593106 3.493000 66 44 50
0.972205 0.599221 3.493000 70 42 56
0.972205 0.605335 3.493000 69 41 63
0.972205 0.611450 3.493000 68 41 54
0.972205 0.617564 3.493000 68 41 45
0.972205 0.623679 3.493000 68 44 46
0.972205 0.629793 3.493000 66 46 47
0.972205 0.635908 3.493000 64 42 51
0.972205 0.642022 3.493000 65 45 56
0.972205 0.648137 3.493000 66 41 44
0.972205 0.654251 3.493000 64 41 33
0.972205 0.660366 3.493000 62 39 34
0.981947 0.673158 3.528000 58 35 36
0.972205 0.672595 3.493000 55 35 40
0.972205 0.678709 3.493000 54 34 43
0.972205 0.684824 3.493000 54 28 37
0.972205 0.690938 3.493000 50 22 32
0.962463 0.690068 3.458000 46 26 28
0.972205 0.703167 3.493000 49 29 25
0.962463 0.702175 3.458000 53 26 22
0.962463 0.708228 3.458000 56 23 18
0.962463 0.714281 3.458000 60 18 16
0.962463 0.720334 3.458000 47 16 15
0.972205 0.733740 3.493000 34 12 15
0.972205 0.739854 3.493000 24 9 15
0.972205 0.745969 3.493000 14 7 14
0.972205 0.752083 3.493000 20 4 13
0.972205 0.758198 3.493000 27 8 12
0.962463 0.756654 3.458000 28 14 11
0.962463 0.762707 3.458000 30 15 15
0.962463 0.768760 3.458000 38 17 19
0.962463 0.774813 3.458000 47 16 23
0.859203 0.740320 3.087000 23 16 24
0.851410 0.738960 3.059000 23 14 17
0.844173 0.737988 3.033000 26 14 11
0.844173 0.743297 3.033000 29 15 10
0.718090 0.718090 2.580000 141 134 98
0.712524 0.717005 2.560000 157 116 118
0.707514 0.716413 2.542000 156 119 138
0.702225 0.715475 2.523000 155 122 146
0.702225 0.719892 2.523000 158 125 155
0.702225 0.724308 2.523000 161 126 157
0.682186 0.707929 2.451000 162 126 160
0.682186 0.712219 2.451000 163 128 162
0.677454 0.711540 2.434000 165 136 164
0.667991 0.705802 2.400000 168 136 169
0.667991 0.710003 2.400000 171 138 174
0.663538 0.709443 2.384000 175 135 175
0.658806 0.708527 2.367000 176 134 177
0.658806 0.712671 2.367000 177 142 179
0.654353 0.711969 2.351000 179 146 181
0.645725 0.706642 2.320000 181 144 178
0.641271 0.705802 2.304000 182 143 175
0.637096 0.705214 2.289000 183 144 180
0.632921 0.704573 2.274000 183 149 186
0.628746 0.703880 2.259000 183 147 191
0.628746 0.707834 2.259000 184 147 195
0.624572 0.707062 2.244000 186 150 196
0.620675 0.706554 2.230000 188 156 197
0.612603 0.701219 2.201000 191 158 200
0.608707 0.700587 2.187000 194 165 204
0.605088 0.700228 2.174000 197 162 205
0.601192 0.699500 2.160000 198 161 206
0.597573 0.699048 2.147000 200 162 208
0.593677 0.698224 2.133000 201 171 210
0.593677 0.701958 2.133000 203 165 216
0.586440 0.697090 2.107000 203 161 222
0.583100 0.696787 2.095000 204 163 218
0.583100 0.700454 2.095000 205 173 214
0.579482 0.699752 2.082000 207 166 214
0.575864 0.699005 2.069000 208 165 214
0.572524 0.698551 2.057000 209 170 216
0.565844 0.693960 2.033000 214 179 218
0.556102 0.685510 1.998000 220 173 219
0.556102 0.689007 1.998000 215 169 221
0.552762 0.688346 1.986000 211 170 222
0.552762 0.691822 1.986000 210 172 223
0.552762 0.695299 1.986000 209 171 216
0.546639 0.691035 1.964000 209 170 209
0.543299 0.690229 1.952000 209 170 211
0.540238 0.689737 1.941000 206 171 213
0.537454 0.689564 1.931000 203 175 221
0.534393 0.688997 1.920000 205 182 229
0.531331 0.688391 1.909000 208 181 226
0.528548 0.688109 1.899000 208 180 224
0.525486 0.687429 1.888000 209 182 225
0.522703 0.687075 1.878000 212 183 226
0.519920 0.686686 1.868000 215 181 230
0.517136 0.686263 1.858000 215 180 235
0.514353 0.685804 1.848000 216 181 231
0.511570 0.685310 1.838000 217 183 227
0.508786 0.684782 1.828000 218 185 227
0.506281 0.684594 1.819000 217 187 227
0.500993 0.680595 1.800000 217 187 228
0.498210 0.679947 1.790000 215 193 229
0.495705 0.679646 1.781000 214 185 228
0.495705 0.682763 1.781000 215 185 228
0.493200 0.682415 1.772000 216 186 229
0.490695 0.682035 1.763000 216 188 231
0.488190 0.681624 1.754000 217 190 232
0.904939 -0.186643 3.231000 75 15 1
0.904939 -0.180988 3.231000 88 36 11
0.904939 -0.175332 3.231000 126 60 21
0.904939 -0.169676 3.231000 165 122 78
0.913621 -0.165594 3.262000 182 135 135
0.913621 -0.159884 3.262000 200 123 150
0.913621 -0.154173 3.262000 188 114 166
0.904939 -0.147052 3.231000 176 1 143
0.904939 -0.141397 3.231000 214 157 120
0.913621 -0.137043 3.262000 252 199 149
0.913621 -0.131333 3.262000 253 240 179
0.913621 -0.125623 3.262000 254 254 216
0.913621 -0.119913 3.262000 254 254 254
0.913621 -0.114203 3.262000 254 254 254
0.913621 -0.108492 3.262000 254 254 254
0.913621 -0.102782 3.262000 254 254 254
0.904939 -0.096150 3.231000 254 254 254
0.913621 -0.091362 3.262000 254 254 254
0.913621 -0.085652 3.262000 254 254 254
0.913621 -0.079942 3.262000 254 254 254
0.913621 -0.074232 3.262000 254 254 254
0.922303 -0.069173 3.293000 254 254 254
0.913621 -0.022840 3.262000 254 254 251
0.913621 -0.017130 3.262000 254 254 250
0.904939 -0.011312 3.231000 254 254 244
0.913621 -0.005710 3.262000 210 215 239
0.904939 -0.000000 3.231000 166 100 120
0.913621 0.005710 3.262000 129 30 1
0.913621 0.011420 3.262000 92 21 20
0.913621 0.017130 3.262000 94 39 39
0.913621 0.022841 3.262000 97 49 34
0.913621 0.028551 3.262000 97 48 30
0.913621 0.034261 3.262000 97 48 29
0.913621 0.039971 3.262000 94 46 28
0.913621 0.045681 3.262000 92 47 25
0.913621 0.051391 3.262000 93 49 23
0.904939 0.056559 3.231000 94 51 26
0.904939 0.062215 3.231000 93 44 30
0.896536 0.067240 3.201000 92 41 31
0.904939 0.073526 3.231000 95 44 32
0.904939 0.079182 3.231000 98 46 23
0.904939 0.084838 3.231000 95 42 14
0.904939 0.090494 3.231000 91 42 26
0.904939 0.096150 3.231000 91 42 39
0.904939 0.101806 3.231000 92 42 22
0.904939 0.107462 3.231000 90 41 6
0.904939 0.113117 3.231000 88 46 14
0.904939 0.118773 3.231000 89 41 23
0.904939 0.124429 3.231000 91 41 27
0.913621 0.131333 3.262000 91 40 31
0.913621 0.137043 3.262000 91 41 24
0.913621 0.142753 3.262000 91 38 17
0.913621 0.148463 3.262000 91 34 22
0.922303 0.155639 3.293000 92 42 27
0.922303 0.161403 3.293000 92 47 40
0.922303 0.167168 3.293000 93 57 53
0.930986 0.174560 3.324000 94 69 64
0.930986 0.180379 3.324000 95 71 76
0.949471 0.189894 3.390000 96 76 78
0.958714 0.197735 3.423000 96 68 81
0.968517 0.205810 3.458000 96 63 83
0.968517 0.211863 3.458000 95 62 85
0.978320 0.220122 3.493000 95 64 82
0.978320 0.226236 3.493000 96 60 79
0.988122 0.234679 3.528000 97 56 80
0.988122 0.240855 3.528000 92 62 81
0.988122 0.247031 3.528000 88 65 76
0.988122 0.253206 3.528000 91 63 72
0.988122 0.259382 3.528000 94 62 68
0.988122 0.265558 3.528000 90 59 65
0.988122 0.271734 3.528000 87 54 62
0.988122 0.277910 3.528000 90 56 59
0.978320 0.281267 3.493000 92 59 63
0.988122 0.290261 3.528000 90 59 67
0.978320 0.293496 3.493000 88 58 68
0.978320 0.299611 3.493000 86 57 70
0.988122 0.308788 3.528000 85 58 71
0.978320 0.311840 3.493000 86 60 73
0.978320 0.317954 3.493000 87 60 70
0.978320 0.324068 3.493000 86 59 67
0.988122 0.333491 3.528000 85 58 64
0.988122 0.339667 3.528000 87 56 62
0.988122 0.345843 3.528000 90 56 54
0.978320 0.348526 3.493000 87 59 47
0.988122 0.358194 3.528000 85 63 54
0.988122 0.364370 3.528000 86 63 61
0.988122 0.370546 3.528000 88 63 58
0.988122 0.376722 3.528000 88 60 56
0.978320 0.379099 3.493000 88 60 67
0.978320 0.385213 3.493000 88 60 78
0.978320 0.391328 3.493000 88 59 70
0.978320 0.397442 3.493000 90 58 62
0.978320 0.403557 3.493000 92 56 65
0.978320 0.409671 3.493000 89 57 69
0.978320 0.415786 3.493000 86 60 69
