ply
format ascii 1.0
element vertex 1260
property float x
property float y
property float z
property uchar red
property uchar green
property uchar blue
end_header
-1.640201 0.503372 3.231000 92 45 41
-1.655938 0.513912 3.262000 92 46 40
-1.655938 0.519622 3.262000 90 49 39
-1.655938 0.525332 3.262000 87 51 31
-1.655938 0.531042 3.262000 88 49 24
-1.655938 0.536752 3.262000 89 49 19
-1.655938 0.542463 3.262000 93 48 15
-1.655938 0.548173 3.262000 98 47 19
-1.655938 0.553883 3.262000 94 45 24
-1.655938 0.559593 3.262000 90 44 29
-1.640201 0.559931 3.231000 92 39 35
-1.640201 0.565587 3.231000 95 35 26
-1.655938 0.576723 3.262000 91 44 17
-1.655938 0.582434 3.262000 88 48 24
-1.640201 0.582554 3.231000 86 47 32
-1.640201 0.588210 3.231000 84 47 48
-1.640201 0.593866 3.231000 76 33 65
-1.640201 0.599522 3.231000 69 24 44
-1.640201 0.605178 3.231000 44 17 23
-1.624972 0.605162 3.201000 20 14 20
-1.309724 0.668411 2.580000 73 54 40
-1.299571 0.667711 2.560000 74 52 49
-1.299571 0.672192 2.560000 76 51 62
-1.290434 0.671916 2.542000 76 46 75
-1.271651 0.666521 2.505000 76 44 62
-1.262513 0.666085 2.487000 74 48 49
-1.253376 0.665586 2.469000 72 51 53
-1.253376 0.669908 2.469000 72 50 58
-1.244238 0.669314 2.451000 72 48 64
-1.244238 0.673605 2.451000 75 47 71
-1.235608 0.673193 2.434000 79 44 68
-1.218348 0.667991 2.400000 81 45 66
-1.210226 0.667711 2.384000 83 46 64
-1.201596 0.667093 2.367000 83 49 63
-1.193474 0.666699 2.351000 84 50 60
-1.185351 0.666249 2.335000 81 46 58
-1.177737 0.666030 2.320000 79 44 61
-1.169614 0.665470 2.304000 78 48 65
-1.154385 0.660786 2.274000 78 54 66
-1.146770 0.660382 2.259000 77 54 68
-1.139156 0.659925 2.244000 77 55 69
-1.132048 0.659711 2.230000 79 54 70
-1.124434 0.659151 2.215000 81 53 69
-1.117327 0.658838 2.201000 78 56 69
-1.110220 0.658475 2.187000 76 59 76
-1.103620 0.658367 2.174000 79 58 84
-1.096513 0.657908 2.160000 81 59 80
-1.096513 0.661689 2.160000 83 58 77
-1.089914 0.661465 2.147000 85 61 80
-1.076208 0.656858 2.120000 87 59 83
-1.063516 0.652779 2.095000 90 60 83
-1.063516 0.656446 2.095000 87 56 84
-1.044226 0.648140 2.057000 85 55 83
-1.038134 0.647939 2.045000 86 58 83
-1.025951 0.643873 2.021000 87 63 81
-1.025951 0.647410 2.021000 84 64 80
-1.019859 0.647083 2.009000 82 66 82
-1.014275 0.647037 1.998000 83 63 84
-1.014275 0.650535 1.998000 85 60 90
-1.002599 0.646504 1.975000 84 62 96
-0.997015 0.646341 1.964000 83 63 91
-0.990923 0.645809 1.952000 87 62 87
-0.985339 0.645567 1.941000 92 64 82
-0.980263 0.645621 1.931000 89 65 77
-0.974678 0.645304 1.920000 87 68 82
-0.969094 0.644949 1.909000 87 65 88
-0.969094 0.648291 1.909000 87 63 90
-0.964018 0.648219 1.899000 87 62 92
-0.964018 0.651543 1.899000 88 63 90
-0.948281 0.644177 1.868000 88 60 89
-0.943204 0.643981 1.858000 89 55 89
-0.933052 0.640266 1.838000 89 61 89
-0.927975 0.639983 1.828000 89 68 88
-0.923406 0.640016 1.819000 89 66 87
-0.913761 0.636482 1.800000 89 62 85
-0.913761 0.639633 1.800000 88 64 84
-0.913761 0.642784 1.800000 87 68 93
-0.908685 0.642346 1.790000 87 68 103
-0.904116 0.642234 1.781000 88 71 98
-0.899547 0.642090 1.772000 87 70 93
-0.890409 0.638639 1.754000 86 72 89
-0.885841 0.638416 1.745000 83 67 86
-0.877211 0.635222 1.728000 81 66 81
-0.872642 0.634922 1.719000 70 50 77
-0.872642 0.637931 1.719000 60 44 77
-0.868581 0.637958 1.711000 71 54 78
-0.864012 0.637581 1.702000 83 63 85
-0.859951 0.637550 1.694000 86 64 93
-0.851321 0.634087 1.677000 90 63 94
-0.847260 0.633984 1.669000 92 65 96
-0.847260 0.636906 1.669000 95 65 100
-0.843198 0.636760 1.661000 93 66 105
-0.835076 0.633506 1.645000 91 66 89
-0.831523 0.633678 1.638000 89 71 74
-0.827461 0.633436 1.630000 86 75 85
-0.823400 0.633166 1.622000 85 72 96
-0.819847 0.633261 1.615000 85 65 99
-1.590027 -1.232408 3.143000 98 42 30
-1.590027 -1.226906 3.143000 92 43 49
-1.604698 -1.232674 3.172000 87 40 39
-1.604698 -1.227122 3.172000 87 39 29
-1.604698 -1.221569 3.172000 88 41 24
-1.604698 -1.216016 3.172000 91 42 20
-1.604698 -1.210464 3.172000 95 41 23
-1.604698 -1.204911 3.172000 93 42 27
-1.604698 -1.199359 3.172000 91 41 24
-1.604698 -1.193806 3.172000 95 39 20
-1.590027 -1.177390 3.143000 99 37 26
-1.590027 -1.171888 3.143000 93 50 32
-1.590027 -1.166386 3.143000 87 41 23
-1.604698 -1.171596 3.172000 86 42 14
-1.619369 -1.176704 3.201000 86 40 23
-1.619369 -1.171100 3.201000 84 42 33
-1.619369 -1.165497 3.201000 83 41 39
-1.634545 -1.170764 3.231000 83 39 46
-1.634545 -1.165108 3.231000 84 38 32
-1.634545 -1.159452 3.231000 85 44 17
-1.634545 -1.153797 3.231000 87 42 12
-1.634545 -1.148141 3.231000 86 42 8
-1.619369 -1.131877 3.201000 86 42 11
-1.619369 -1.126274 3.201000 85 46 15
-1.619369 -1.120670 3.201000 85 42 21
-1.619369 -1.115067 3.201000 86 44 27
-1.604698 -1.099412 3.172000 87 42 25
-1.604698 -1.093860 3.172000 87 44 24
-1.634545 -1.108550 3.231000 88 42 21
-1.634545 -1.102894 3.231000 86 47 18
-1.634545 -1.097238 3.231000 85 43 21
-1.634545 -1.091582 3.231000 85 42 23
-1.634545 -1.085926 3.231000 86 44 22
-1.634545 -1.080270 3.231000 87 48 21
-1.619369 -1.064637 3.201000 88 43 29
-1.634545 -1.068959 3.231000 85 39 38
-1.619369 -1.053430 3.201000 82 41 33
-1.619369 -1.047827 3.201000 83 41 28
-1.634545 -1.051991 3.231000 84 41 29
-1.634545 -1.046335 3.231000 79 45 30
-1.619369 -1.031017 3.201000 74 44 32
-1.634545 -1.035023 3.231000 80 41 34
-1.619369 -1.019810 3.201000 86 42 25
-1.619369 -1.014207 3.201000 79 39 16
-1.619369 -1.008603 3.201000 72 41 22
-1.619369 -1.003000 3.201000 79 44 28
-1.634545 -1.006744 3.231000 87 42 30
-1.634545 -1.001088 3.231000 84 37 33
-1.634545 -0.995432 3.231000 82 38 28
-1.634545 -0.989776 3.231000 68 34 24
-1.634545 -0.984121 3.231000 54 39 19
-1.634545 -0.978465 3.231000 68 41 14
-1.650228 -0.982143 3.262000 83 40 22
-1.650228 -0.976433 3.262000 81 36 30
-1.650228 -0.970722 3.262000 80 34 22
-1.634545 -0.955841 3.231000 83 38 15
-1.634545 -0.950186 3.231000 87 42 18
-1.634545 -0.944530 3.231000 88 40 22
-1.634545 -0.938874 3.231000 89 38 17
-1.634545 -0.933218 3.231000 82 31 12
-1.619369 -0.918949 3.201000 76 39 18
-1.619369 -0.913346 3.201000 82 41 25
-1.619369 -0.907743 3.201000 88 40 21
-1.634545 -0.910594 3.231000 87 42 17
-1.619369 -0.896536 3.201000 87 45 20
-1.619369 -0.890933 3.201000 85 46 22
-1.619369 -0.885329 3.201000 83 45 17
-1.619369 -0.879726 3.201000 77 44 12
-1.619369 -0.874123 3.201000 71 47 20
-1.634545 -0.876659 3.231000 76 49 29
-1.634545 -0.871003 3.231000 82 47 31
-1.634545 -0.865348 3.231000 73 41 33
-1.634545 -0.859692 3.231000 65 38 32
-1.650228 -0.862230 3.262000 75 38 30
-1.650228 -0.856520 3.262000 85 41 28
-1.650228 -0.850810 3.262000 81 40 27
-1.650228 -0.845099 3.262000 78 39 19
-1.650228 -0.839389 3.262000 84 41 12
-1.650228 -0.833679 3.262000 90 42 26
-1.650228 -0.827969 3.262000 87 37 41
-1.650228 -0.822259 3.262000 84 37 33
-1.650228 -0.816549 3.262000 86 36 26
-1.650228 -0.810839 3.262000 88 41 36
-1.650228 -0.805129 3.262000 85 45 45
-1.634545 -0.791821 3.231000 82 41 36
-1.634545 -0.786165 3.231000 85 29 28
-1.634545 -0.780510 3.231000 89 42 32
-1.634545 -0.774854 3.231000 91 48 36
-1.634545 -0.769198 3.231000 93 45 27
-1.634545 -0.763542 3.231000 93 34 18
-1.650228 -0.765158 3.262000 93 43 30
-1.665911 -0.766665 3.293000 101 50 43
-1.665911 -0.760900 3.293000 110 43 28
-1.650228 -0.748027 3.262000 104 38 13
-1.650228 -0.742317 3.262000 99 41 23
-1.650228 -0.736607 3.262000 97 45 34
-1.650228 -0.730897 3.262000 96 44 24
-1.634545 -0.718295 3.231000 95 46 14
-1.634545 -0.712639 3.231000 95 48 16
-1.634545 -0.706983 3.231000 96 53 18
-1.634545 -0.701327 3.231000 97 49 23
-1.619369 -0.689212 3.201000 103 46 28
-1.619369 -0.683609 3.201000 109 46 25
-1.619369 -0.678005 3.201000 106 50 22
-1.619369 -0.672402 3.201000 103 49 33
-1.634545 -0.673048 3.231000 106 50 45
-1.634545 -0.667392 3.231000 110 47 40
-1.634545 -0.661736 3.231000 104 49 36
-1.634545 -0.656080 3.231000 98 51 34
-1.634545 -0.650425 3.231000 104 53 33
-1.650228 -0.650955 3.262000 110 51 33
-1.650228 -0.645245 3.262000 103 52 33
-1.634545 -0.633457 3.231000 97 62 23
-1.634545 -0.627801 3.231000 96 74 14
-1.650228 -0.628114 3.262000 95 65 27
-1.650228 -0.622404 3.262000 97 60 40
-1.634545 -0.610834 3.231000 100 56 49
-1.650228 -0.610984 3.262000 100 54 59
-1.650228 -0.605274 3.262000 100 53 48
-1.650228 -0.599564 3.262000 100 57 38
-1.634545 -0.588210 3.231000 100 58 36
-1.634545 -0.582554 3.231000 109 62 34
-1.634545 -0.576898 3.231000 119 58 35
-1.634545 -0.571242 3.231000 112 58 36
-1.634545 -0.565587 3.231000 105 55 47
-1.634545 -0.559931 3.231000 103 55 59
-1.634545 -0.554275 3.231000 101 53 49
-1.650228 -0.553883 3.262000 104 56 39
-1.650228 -0.548173 3.262000 107 61 35
-1.650228 -0.542462 3.262000 103 64 31
-1.650228 -0.536752 3.262000 99 64 36
-1.650228 -0.531042 3.262000 102 63 41
-1.650228 -0.525332 3.262000 105 64 45
-1.650228 -0.519622 3.262000 114 69 48
-1.634545 -0.509028 3.231000 123 67 45
-1.650228 -0.508202 3.262000 119 66 42
-1.650228 -0.502492 3.262000 116 64 53
-1.650228 -0.496781 3.262000 112 67 65
-1.650228 -0.491071 3.262000 109 62 56
-1.650228 -0.485361 3.262000 109 62 48
-1.650228 -0.479651 3.262000 110 63 46
-1.650228 -0.473941 3.262000 109 69 44
-1.650228 -0.468231 3.262000 109 70 43
-1.650228 -0.462521 3.262000 109 74 42
-1.634545 -0.452469 3.231000 110 68 46
-1.634545 -0.446813 3.231000 115 66 50
-1.634545 -0.441158 3.231000 120 65 60
-1.634545 -0.435502 3.231000 116 69 69
-1.634545 -0.429846 3.231000 112 66 61
-1.634545 -0.424190 3.231000 112 62 54
-1.634545 -0.418534 3.231000 113 62 61
-1.634545 -0.412878 3.231000 111 64 69
-1.650228 -0.411129 3.262000 109 69 61
-1.634545 -0.401566 3.231000 109 74 54
-1.634545 -0.395911 3.231000 109 73 54
-1.634545 -0.390255 3.231000 109 70 55
-1.634545 -0.384599 3.231000 109 69 56
-1.634545 -0.378943 3.231000 111 70 58
-1.634545 -0.373287 3.231000 114 68 51
-1.634545 -0.367631 3.231000 114 68 44
-1.634545 -0.361975 3.231000 115 68 46
-1.619369 -0.353011 3.201000 115 66 48
-1.634545 -0.350664 3.231000 116 68 53
-1.634545 -0.345008 3.231000 113 71 59
-1.650228 -0.342608 3.262000 111 71 48
-1.650228 -0.336898 3.262000 113 73 37
-1.650228 -0.331188 3.262000 115 70 46
-1.650228 -0.325477 3.262000 113 68 55
-1.650228 -0.319767 3.262000 111 71 58
-1.650228 -0.314057 3.262000 112 70 60
-1.634545 -0.305417 3.231000 113 70 56
-1.634545 -0.299761 3.231000 113 68 53
-1.650228 -0.296927 3.262000 114 68 57
-1.650228 -0.291217 3.262000 114 68 62
-1.650228 -0.285507 3.262000 115 72 54
-1.650228 -0.279796 3.262000 121 77 46
-1.650228 -0.274086 3.262000 127 76 49
-1.650228 -0.268376 3.262000 123 75 52
-1.634545 -0.260170 3.231000 119 73 55
-1.634545 -0.254514 3.231000 120 68 59
-1.634545 -0.248858 3.231000 121 64 55
-1.634545 -0.243202 3.231000 119 64 52
-1.634545 -0.237546 3.231000 117 65 44
-1.634545 -0.231890 3.231000 117 65 35
-1.634545 -0.226235 3.231000 117 65 43
-1.634545 -0.220579 3.231000 116 69 52
-1.634545 -0.214923 3.231000 116 70 54
-1.634545 -0.209267 3.231000 118 72 57
-1.634545 -0.203611 3.231000 120 73 56
-1.650228 -0.199855 3.262000 116 72 56
-1.650228 -0.194144 3.262000 112 74 55
-1.650228 -0.188434 3.262000 114 77 54
-1.650228 -0.182724 3.262000 117 72 61
-1.650228 -0.177014 3.262000 122 64 68
-1.650228 -0.171304 3.262000 127 65 61
-1.650228 -0.165594 3.262000 123 66 54
-1.650228 -0.159884 3.262000 120 67 51
-1.650228 -0.154173 3.262000 115 68 49
-1.665911 -0.149874 3.293000 111 70 51
-1.665911 -0.144110 3.293000 111 71 54
-1.650228 -0.137043 3.262000 112 70 60
-1.650228 -0.131333 3.262000 113 67 66
-1.665911 -0.126817 3.293000 115 68 51
-1.650228 -0.119913 3.262000 114 70 37
-1.650228 -0.114203 3.262000 114 69 45
-1.650228 -0.108492 3.262000 115 69 53
-1.650228 -0.102782 3.262000 116 69 48
-1.650228 -0.097072 3.262000 115 71 43
-1.650228 -0.091362 3.262000 114 72 44
-1.634545 -0.084838 3.231000 115 71 44
-1.650228 -0.079942 3.262000 117 67 47
-1.650228 -0.074232 3.262000 114 66 50
-1.634545 -0.067870 3.231000 112 69 52
-1.634545 -0.062214 3.231000 113 72 54
-1.634545 -0.056559 3.231000 115 72 49
-1.650228 -0.051391 3.262000 115 73 44
-1.650228 -0.045681 3.262000 115 70 44
-1.650228 -0.039971 3.262000 113 69 44
-1.650228 -0.034261 3.262000 111 68 46
-1.650228 -0.028551 3.262000 111 67 48
-1.634545 -0.022623 3.231000 111 66 48
-1.634545 -0.016968 3.231000 112 61 48
-1.634545 -0.011312 3.231000 113 65 51
-1.634545 -0.005656 3.231000 119 67 54
-1.634545 -0.000000 3.231000 126 64 51
-1.650228 0.005710 3.262000 115 61 48
-1.650228 0.011420 3.262000 105 62 52
-1.650228 0.017130 3.262000 107 62 56
-1.650228 0.022841 3.262000 109 66 57
-1.650228 0.028551 3.262000 108 67 58
-1.650228 0.034261 3.262000 108 66 54
-1.650228 0.039971 3.262000 109 64 51
-1.634545 0.045247 3.231000 110 71 57
-1.634545 0.050903 3.231000 106 74 63
-1.634545 0.056559 3.231000 102 69 58
-1.634545 0.062215 3.231000 98 63 53
-1.634545 0.067870 3.231000 94 65 52
-1.650228 0.074232 3.262000 109 68 52
-1.650228 0.079942 3.262000 124 63 49
-1.650228 0.085652 3.262000 115 60 46
-1.650228 0.091362 3.262000 107 63 48
-1.650228 0.097072 3.262000 109 65 50
-1.650228 0.102782 3.262000 111 62 47
-1.650228 0.108493 3.262000 111 59 45
-1.650228 0.114203 3.262000 111 62 45
-1.650228 0.119913 3.262000 114 62 45
-1.650228 0.125623 3.262000 117 60 43
-1.650228 0.131333 3.262000 112 61 41
-1.650228 0.137043 3.262000 107 64 48
-1.650228 0.142753 3.262000 106 68 56
-1.650228 0.148463 3.262000 105 67 48
-1.650228 0.154174 3.262000 104 71 40
-1.665911 0.161403 3.293000 103 69 44
-1.665911 0.167168 3.293000 109 69 49
-1.665911 0.172932 3.293000 116 64 49
-1.665911 0.178696 3.293000 110 56 49
-1.665911 0.184461 3.293000 104 58 47
-1.650228 0.188434 3.262000 105 58 46
-1.650228 0.194145 3.262000 106 56 38
-1.650228 0.199855 3.262000 107 56 29
-1.650228 0.205565 3.262000 108 60 39
-1.634545 0.209267 3.231000 106 61 48
-1.634545 0.214923 3.231000 105 60 52
-1.634545 0.220579 3.231000 103 64 57
-1.634545 0.226235 3.231000 101 61 50
-1.634545 0.231891 3.231000 100 60 43
-1.634545 0.237546 3.231000 99 60 35
-1.634545 0.243202 3.231000 98 60 27
-1.634545 0.248858 3.231000 98 59 33
-1.634545 0.254514 3.231000 102 65 39
-1.634545 0.260170 3.231000 107 62 44
-1.619369 0.263358 3.201000 104 58 49
-1.634545 0.271482 3.231000 101 53 47
-1.634545 0.277138 3.231000 99 49 45
-1.634545 0.282793 3.231000 98 54 41
-1.634545 0.288449 3.231000 97 58 36
-1.634545 0.294105 3.231000 97 55 44
-1.650228 0.302637 3.262000 98 55 51
-1.650228 0.308347 3.262000 100 55 49
-1.650228 0.314057 3.262000 98 56 47
-1.634545 0.316729 3.231000 97 56 39
-1.634545 0.322384 3.231000 103 55 31
-1.634545 0.328040 3.231000 110 53 29
-1.650228 0.336898 3.262000 103 52 27
-1.650228 0.342608 3.262000 96 51 28
-1.650228 0.348318 3.262000 97 51 30
-1.650228 0.354028 3.262000 99 51 38
-1.650228 0.359738 3.262000 99 49 47
-1.650228 0.365449 3.262000 100 50 46
-1.650228 0.371159 3.262000 97 49 46
-1.650228 0.376869 3.262000 95 52 41
-1.650228 0.382579 3.262000 95 55 36
-1.650228 0.388289 3.262000 96 54 34
-1.634545 0.390255 3.231000 96 53 32
-1.634545 0.395911 3.231000 96 53 35
-1.634545 0.401567 3.231000 95 53 38
-1.634545 0.407222 3.231000 95 54 36
-1.634545 0.412878 3.231000 96 57 35
-1.634545 0.418534 3.231000 97 56 36
-1.634545 0.424190 3.231000 96 55 38
-1.634545 0.429846 3.231000 95 52 37
-1.650228 0.439680 3.262000 95 46 37
-1.650228 0.445390 3.262000 96 49 40
-1.650228 0.451101 3.262000 101 50 44
-1.650228 0.456811 3.262000 106 48 48
-1.650228 0.462521 3.262000 99 45 53
-1.650228 0.468231 3.262000 93 48 48
-1.634545 0.469437 3.231000 88 51 44
-1.634545 0.475093 3.231000 83 51 33
-1.634545 0.480749 3.231000 86 54 23
-1.634545 0.486405 3.231000 90 50 31
-1.634545 0.492060 3.231000 90 46 39
-1.634545 0.497716 3.231000 90 48 34
-1.650228 0.508202 3.262000 90 49 30
-1.650228 0.513912 3.262000 91 47 32
-1.650228 0.519622 3.262000 88 46 35
-1.650228 0.525332 3.262000 86 48 29
-1.650228 0.531042 3.262000 87 50 24
-1.650228 0.536752 3.262000 89 50 17
-1.650228 0.542463 3.262000 96 51 9
-1.650228 0.548173 3.262000 104 48 22
-1.650228 0.553883 3.262000 98 46 35
-1.650228 0.559593 3.262000 93 42 35
-1.634545 0.559931 3.231000 96 36 36
-1.650228 0.571013 3.262000 99 39 28
-1.650228 0.576723 3.262000 93 44 21
-1.650228 0.582434 3.262000 88 45 26
-1.650228 0.588144 3.262000 85 49 31
-1.650228 0.593854 3.262000 83 42 38
-1.650228 0.599564 3.262000 69 28 45
-1.650228 0.605274 3.262000 56 20 34
-1.650228 0.610984 3.262000 41 13 24
-1.634545 0.610834 3.231000 26 12 21
-1.305208 0.668411 2.580000 72 52 44
-1.295090 0.667711 2.560000 74 51 50
-1.295090 0.672192 2.560000 77 49 58
-1.285984 0.671916 2.542000 74 49 67
-1.267266 0.666521 2.505000 72 48 59
-1.267266 0.670905 2.505000 74 51 52
-1.258160 0.670438 2.487000 76 51 55
-1.258160 0.674792 2.487000 78 50 58
-1.249054 0.674230 2.469000 80 48 66
-1.249054 0.678552 2.469000 80 47 73
-1.239948 0.677895 2.451000 81 46 70
-1.231347 0.677454 2.434000 83 46 66
-1.214147 0.672192 2.400000 85 48 65
-1.206053 0.671884 2.384000 87 50 64
-1.197452 0.671236 2.367000 89 48 62
-1.181264 0.666249 2.335000 84 47 61
-1.173676 0.666030 2.320000 80 51 62
-1.165581 0.665470 2.304000 79 60 63
-1.150404 0.660786 2.274000 79 54 64
-1.142816 0.660382 2.259000 78 52 64
-1.135227 0.659925 2.244000 78 54 67
-1.120556 0.655274 2.215000 80 56 71
-1.113474 0.654985 2.201000 82 54 70
-1.106391 0.654647 2.187000 81 53 70
-1.106391 0.658475 2.187000 81 57 74
-1.099815 0.658367 2.174000 81 58 78
-1.092732 0.657908 2.160000 82 57 76
-1.092732 0.661689 2.160000 84 56 74
-1.086156 0.661465 2.147000 86 58 77
-1.079073 0.660886 2.133000 87 59 81
-1.072496 0.660569 2.120000 88 58 81
-1.065920 0.660206 2.107000 88 56 82
-1.046696 0.651921 2.069000 88 55 83
-1.034554 0.647939 2.045000 88 56 84
-1.028484 0.647696 2.033000 89 59 86
-1.022413 0.647410 2.021000 84 63 89
-1.016342 0.647083 2.009000 79 64 86
-1.016342 0.650600 2.009000 82 60 84
-1.016342 0.654116 2.009000 85 61 87
-1.004707 0.650104 1.986000 82 64 90
-1.010777 0.657530 1.998000 80 62 88
-0.993577 0.649779 1.964000 88 62 86
-0.987506 0.649226 1.952000 96 63 83
-0.976882 0.645621 1.931000 92 66 79
-0.971318 0.645304 1.920000 89 67 84
-0.965753 0.644949 1.909000 88 66 88
-0.965753 0.648291 1.909000 87 62 89
-0.960694 0.648219 1.899000 88 57 90
-0.960694 0.651543 1.899000 89 61 89
-0.950070 0.647626 1.878000 89 65 89
-0.945011 0.647447 1.868000 90 61 93
-0.934893 0.643750 1.848000 90 60 97
-0.924775 0.639983 1.828000 90 63 91
-0.920222 0.640016 1.819000 89 67 86
-0.910610 0.636482 1.800000 89 65 82
-0.910610 0.639633 1.800000 86 65 79
-0.910610 0.642784 1.800000 84 67 88
-0.905551 0.642346 1.790000 86 66 98
-0.900998 0.642234 1.781000 88 66 96
-0.896445 0.642090 1.772000 86 69 94
-0.891892 0.641916 1.763000 85 70 90
-0.882786 0.638416 1.745000 83 67 86
-0.874186 0.635222 1.728000 81 61 80
-0.869633 0.634922 1.719000 65 49 74
-0.865586 0.634962 1.711000 49 49 76
-0.865586 0.637958 1.711000 64 56 78
-0.856985 0.634584 1.694000 80 62 85
-0.856985 0.637550 1.694000 86 65 92
-0.852938 0.637490 1.686000 92 65 93
-0.848385 0.637023 1.677000 97 65 94
-0.844338 0.636906 1.669000 102 66 96
-0.844338 0.639827 1.669000 97 70 99
-0.832197 0.633506 1.645000 92 69 91
-0.824608 0.630583 1.630000 89 71 84
-0.824608 0.633436 1.630000 87 75 92
-0.820561 0.633166 1.622000 88 77 101
-0.817020 0.633261 1.615000 90 71 101
-1.599145 -1.243779 3.172000 90 40 36
-1.599145 -1.238227 3.172000 84 41 66
-1.599145 -1.232674 3.172000 79 45 47
-1.599145 -1.227122 3.172000 82 40 28
-1.599145 -1.221569 3.172000 85 41 29
-1.599145 -1.216016 3.172000 86 37 31
-1.599145 -1.210464 3.172000 87 36 26
-1.599145 -1.204911 3.172000 88 38 21
-1.599145 -1.199359 3.172000 88 37 18
-1.599145 -1.193806 3.172000 90 31 15
-1.599145 -1.188254 3.172000 92 14 17
-1.599145 -1.182701 3.172000 82 30 19
-1.613765 -1.187910 3.201000 72 27 10
-1.628889 -1.193388 3.231000 77 33 1
-1.628889 -1.187732 3.231000 81 33 15
-1.628889 -1.182076 3.231000 75 35 29
-1.628889 -1.176420 3.231000 69 34 28
-1.628889 -1.170764 3.231000 74 33 27
-1.644518 -1.176287 3.262000 79 30 18
-1.644518 -1.170577 3.262000 76 36 9
-1.644518 -1.164867 3.262000 73 38 5
-1.628889 -1.148141 3.231000 78 37 1
-1.628889 -1.142485 3.231000 82 39 5
-1.628889 -1.136829 3.231000 77 40 9
-1.644518 -1.142026 3.262000 72 35 21
-1.628889 -1.125517 3.231000 77 39 33
-1.644518 -1.130606 3.262000 82 38 26
-1.644518 -1.124896 3.262000 81 37 20
-1.644518 -1.119186 3.262000 81 30 14
-1.628889 -1.102894 3.231000 82 36 9
-1.644518 -1.107766 3.262000 83 39 13
-1.628889 -1.091582 3.231000 84 39 17
-1.628889 -1.085926 3.231000 85 37 10
-1.628889 -1.080270 3.231000 86 41 3
-1.628889 -1.074615 3.231000 87 42 18
-1.628889 -1.068959 3.231000 85 41 34
-1.628889 -1.063303 3.231000 83 40 28
-1.628889 -1.057647 3.231000 84 40 22
-1.644518 -1.062084 3.262000 86 38 28
-1.644518 -1.056374 3.262000 84 42 34
-1.644518 -1.050664 3.262000 82 42 30
-1.644518 -1.044954 3.262000 85 42 27
-1.644518 -1.039244 3.262000 87 42 17
-1.644518 -1.033534 3.262000 85 41 7
-1.644518 -1.027824 3.262000 82 34 17
-1.644518 -1.022113 3.262000 86 40 27
-1.628889 -1.006744 3.231000 91 39 29
-1.628889 -1.001088 3.231000 89 40 32
-1.628889 -0.995432 3.231000 87 41 27
-1.628889 -0.989776 3.231000 83 39 22
-1.644518 -0.993563 3.262000 79 39 12
-1.644518 -0.987853 3.262000 84 43 2
-1.644518 -0.982143 3.262000 89 45 23
-1.644518 -0.976433 3.262000 87 44 44
-1.644518 -0.970722 3.262000 86 47 35
-1.644518 -0.965012 3.262000 88 45 27
-1.628889 -0.950186 3.231000 90 47 27
-1.628889 -0.944530 3.231000 91 45 27
-1.628889 -0.938874 3.231000 92 44 25
-1.628889 -0.933218 3.231000 88 41 23
-1.628889 -0.927562 3.231000 84 46 26
-1.628889 -0.921906 3.231000 87 46 30
-1.613765 -0.907743 3.201000 91 46 22
-1.628889 -0.910594 3.231000 93 48 14
-1.628889 -0.904939 3.231000 95 53 20
-1.613765 -0.890933 3.201000 91 50 26
-1.613765 -0.885329 3.201000 88 49 24
-1.628889 -0.887971 3.231000 87 49 23
-1.628889 -0.882315 3.231000 86 54 30
-1.628889 -0.876659 3.231000 87 51 38
-1.644518 -0.879360 3.262000 88 51 51
-1.644518 -0.873650 3.262000 88 45 65
-1.644518 -0.867940 3.262000 88 42 52
-1.644518 -0.862230 3.262000 89 43 39
-1.644518 -0.856520 3.262000 90 47 32
-1.644518 -0.850810 3.262000 88 44 26
-1.644518 -0.845099 3.262000 86 46 23
-1.644518 -0.839389 3.262000 89 47 21
-1.644518 -0.833679 3.262000 92 53 38
-1.644518 -0.827969 3.262000 91 46 55
-1.644518 -0.822259 3.262000 90 45 47
-1.644518 -0.816549 3.262000 91 44 39
-1.644518 -0.810839 3.262000 92 49 46
-1.644518 -0.805129 3.262000 90 50 53
-1.644518 -0.799418 3.262000 88 53 42
-1.628889 -0.786165 3.231000 89 48 31
-1.628889 -0.780510 3.231000 91 58 37
-1.628889 -0.774854 3.231000 92 55 44
-1.628889 -0.769198 3.231000 94 64 34
-1.644518 -0.770868 3.262000 94 51 24
-1.644518 -0.765158 3.262000 95 55 40
-1.644518 -0.759447 3.262000 100 52 56
-1.644518 -0.753737 3.262000 105 56 39
-1.644518 -0.748027 3.262000 101 48 23
-1.644518 -0.742317 3.262000 97 49 34
-1.644518 -0.736607 3.262000 97 49 46
-1.644518 -0.730897 3.262000 96 51 36
-1.644518 -0.725187 3.262000 96 50 27
-1.644518 -0.719477 3.262000 96 55 23
-1.644518 -0.713766 3.262000 97 52 19
-1.644518 -0.708056 3.262000 98 52 26
-1.628889 -0.695672 3.231000 99 49 34
-1.628889 -0.690016 3.231000 101 47 38
-1.628889 -0.684360 3.231000 100 51 43
-1.628889 -0.678704 3.231000 100 53 54
-1.628889 -0.673048 3.231000 103 50 65
-1.628889 -0.667392 3.231000 106 46 53
-1.628889 -0.661736 3.231000 102 49 42
-1.628889 -0.656080 3.231000 99 53 38
-1.644518 -0.656665 3.262000 102 55 34
-1.644518 -0.650955 3.262000 106 60 33
-1.644518 -0.645245 3.262000 103 59 32
-1.644518 -0.639535 3.262000 99 66 29
-1.644518 -0.633825 3.262000 98 68 26
-1.644518 -0.628114 3.262000 97 65 34
-1.644518 -0.622404 3.262000 100 59 42
-1.644518 -0.616694 3.262000 103 55 44
-1.644518 -0.610984 3.262000 104 54 47
-1.644518 -0.605274 3.262000 104 53 44
-1.644518 -0.599564 3.262000 103 55 42
-1.644518 -0.593854 3.262000 102 58 40
-1.644518 -0.588143 3.262000 106 58 38
-1.644518 -0.582433 3.262000 111 53 39
-1.644518 -0.576723 3.262000 109 53 41
-1.644518 -0.571013 3.262000 106 51 41
-1.644518 -0.565303 3.262000 103 51 42
-1.644518 -0.559593 3.262000 101 52 39
-1.644518 -0.553883 3.262000 103 56 37
-1.644518 -0.548173 3.262000 105 61 32
-1.644518 -0.542462 3.262000 103 65 28
-1.644518 -0.536752 3.262000 102 68 37
-1.644518 -0.531042 3.262000 103 64 47
-1.644518 -0.525332 3.262000 105 63 55
-1.644518 -0.519622 3.262000 110 66 63
-1.644518 -0.513912 3.262000 115 68 54
-1.644518 -0.508202 3.262000 113 64 46
-1.644518 -0.502492 3.262000 111 60 51
-1.644518 -0.496781 3.262000 108 61 57
-1.644518 -0.491071 3.262000 106 59 55
-1.644518 -0.485361 3.262000 110 60 53
-1.644518 -0.479651 3.262000 114 62 51
-1.644518 -0.473941 3.262000 112 67 49
-1.644518 -0.468231 3.262000 110 69 46
-1.644518 -0.462521 3.262000 110 69 44
-1.644518 -0.456810 3.262000 111 67 47
-1.644518 -0.451100 3.262000 113 65 51
-1.644518 -0.445390 3.262000 115 64 55
-1.644518 -0.439680 3.262000 113 67 60
-1.644518 -0.433970 3.262000 111 69 56
-1.644518 -0.428260 3.262000 113 67 52
-1.644518 -0.422550 3.262000 116 67 55
-1.628889 -0.412878 3.231000 113 69 59
-1.644518 -0.411129 3.262000 111 71 56
-1.644518 -0.405419 3.262000 114 73 53
-1.644518 -0.399709 3.262000 117 77 53
-1.628889 -0.390255 3.231000 115 76 54
-1.628889 -0.384599 3.231000 113 74 43
-1.628889 -0.378943 3.231000 116 71 33
-1.628889 -0.373287 3.231000 119 69 37
-1.628889 -0.367631 3.231000 117 69 42
-1.628889 -0.361975 3.231000 116 69 45
-1.628889 -0.356320 3.231000 116 67 49
-1.628889 -0.350664 3.231000 116 65 48
-1.644518 -0.348318 3.262000 112 68 48
-1.644518 -0.342608 3.262000 108 69 37
-1.644518 -0.336898 3.262000 113 68 27
-1.644518 -0.331188 3.262000 118 66 43
-1.644518 -0.325477 3.262000 114 69 60
-1.644518 -0.319767 3.262000 111 72 65
-1.660146 -0.317042 3.293000 112 71 70
-1.660146 -0.311277 3.293000 113 72 61
-1.660146 -0.305513 3.293000 116 70 53
-1.660146 -0.299749 3.293000 118 72 53
-1.660146 -0.293984 3.293000 116 70 54
-1.660146 -0.288220 3.293000 115 73 51
-1.660146 -0.282455 3.293000 118 75 49
-1.660146 -0.276691 3.293000 122 76 51
-1.660146 -0.270927 3.293000 120 75 54
-1.644518 -0.262666 3.262000 118 73 63
-1.644518 -0.256956 3.262000 120 68 72
-1.644518 -0.251246 3.262000 122 62 64
-1.644518 -0.245536 3.262000 120 64 56
-1.644518 -0.239825 3.262000 118 65 53
-1.644518 -0.234115 3.262000 118 64 50
-1.644518 -0.228405 3.262000 119 64 53
-1.644518 -0.222695 3.262000 117 67 57
-1.644518 -0.216985 3.262000 115 72 59
-1.644518 -0.211275 3.262000 116 73 62
-1.644518 -0.205565 3.262000 118 78 58
-1.644518 -0.199855 3.262000 115 74 54
-1.644518 -0.194144 3.262000 113 74 55
-1.644518 -0.188434 3.262000 114 74 57
-1.628889 -0.180988 3.231000 115 76 66
-1.628889 -0.175332 3.231000 118 69 76
-1.644518 -0.171304 3.262000 122 67 64
-1.644518 -0.165594 3.262000 119 67 53
-1.644518 -0.159884 3.262000 117 69 46
-1.644518 -0.154173 3.262000 111 70 39
-1.660146 -0.149874 3.293000 106 74 42
-1.660146 -0.144110 3.293000 109 73 45
-1.644518 -0.137043 3.262000 113 74 52
-1.644518 -0.131333 3.262000 114 71 59
-1.660146 -0.126817 3.293000 116 71 54
-1.660146 -0.121052 3.293000 116 70 50
-1.644518 -0.114203 3.262000 116 69 53
-1.644518 -0.108492 3.262000 115 71 56
-1.644518 -0.102782 3.262000 115 74 53
-1.644518 -0.097072 3.262000 114 73 50
-1.644518 -0.091362 3.262000 113 72 48
-1.644518 -0.085652 3.262000 116 69 46
-1.644518 -0.079942 3.262000 120 65 48
-1.628889 -0.073526 3.231000 116 67 51
-1.628889 -0.067870 3.231000 113 71 53
-1.644518 -0.062811 3.262000 113 73 56
-1.644518 -0.057101 3.262000 114 74 49
-1.644518 -0.051391 3.262000 115 71 42
-1.644518 -0.045681 3.262000 116 72 45
-1.644518 -0.039971 3.262000 113 69 48
-1.644518 -0.034261 3.262000 110 69 48
-1.644518 -0.028551 3.262000 110 68 49
-1.644518 -0.022840 3.262000 110 69 46
-1.644518 -0.017130 3.262000 111 66 43
-1.628889 -0.011312 3.231000 112 68 45
-1.644518 -0.005710 3.262000 115 68 47
-1.644518 -0.000000 3.262000 119 68 46
-1.644518 0.005710 3.262000 113 65 46
-1.644518 0.011420 3.262000 107 64 49
-1.644518 0.017130 3.262000 108 67 53
-1.644518 0.022841 3.262000 109 74 50
-1.644518 0.028551 3.262000 108 69 48
-1.644518 0.034261 3.262000 108 69 47
-1.644518 0.039971 3.262000 108 70 47
-1.644518 0.045681 3.262000 109 73 49
-1.644518 0.051391 3.262000 107 71 51
-1.644518 0.057101 3.262000 104 69 51
-1.644518 0.062811 3.262000 102 66 52
-1.644518 0.068522 3.262000 99 68 52
-1.644518 0.074232 3.262000 108 64 53
-1.644518 0.079942 3.262000 116 60 48
-1.644518 0.085652 3.262000 110 62 43
-1.644518 0.091362 3.262000 104 65 49
-1.644518 0.097072 3.262000 106 64 56
-1.644518 0.102782 3.262000 108 64 51
-1.644518 0.108493 3.262000 108 64 47
-1.644518 0.114203 3.262000 108 65 44
-1.644518 0.119913 3.262000 110 62 42
-1.644518 0.125623 3.262000 111 59 38
-1.644518 0.131333 3.262000 108 61 34
-1.644518 0.137043 3.262000 106 64 39
-1.644518 0.142753 3.262000 105 65 44
-1.644518 0.148463 3.262000 105 65 44
-1.660146 0.155639 3.293000 104 67 44
-1.660146 0.161403 3.293000 102 70 49
-1.660146 0.167168 3.293000 103 68 54
-1.660146 0.172932 3.293000 105 70 51
-1.660146 0.178696 3.293000 103 62 49
-1.660146 0.184461 3.293000 102 62 44
-1.660146 0.190225 3.293000 103 60 39
-1.644518 0.194145 3.262000 105 59 26
-1.644518 0.199855 3.262000 109 59 14
-1.644518 0.205565 3.262000 112 61 29
-1.644518 0.211275 3.262000 108 58 44
-1.628889 0.214923 3.231000 104 55 45
-1.628889 0.220579 3.231000 102 59 47
-1.628889 0.226235 3.231000 101 60 47
-1.644518 0.234115 3.262000 99 60 47
-1.644518 0.239826 3.262000 97 61 32
-1.644518 0.245536 3.262000 97 61 17
-1.644518 0.251246 3.262000 98 61 25
-1.644518 0.256956 3.262000 101 62 34
-1.644518 0.262666 3.262000 105 67 36
-1.628889 0.265826 3.231000 102 60 38
-1.628889 0.271482 3.231000 100 56 40
-1.644518 0.279797 3.262000 99 54 42
-1.644518 0.285507 3.262000 97 56 33
-1.644518 0.291217 3.262000 96 54 24
-1.644518 0.296927 3.262000 94 51 38
-1.644518 0.302637 3.262000 97 54 53
-1.644518 0.308347 3.262000 99 57 48
-1.644518 0.314057 3.262000 98 58 44
-1.644518 0.319767 3.262000 96 57 37
-1.644518 0.325478 3.262000 99 54 30
-1.644518 0.331188 3.262000 103 54 28
-1.644518 0.336898 3.262000 98 53 26
-1.644518 0.342608 3.262000 93 53 26
-1.644518 0.348318 3.262000 98 51 27
-1.644518 0.354028 3.262000 103 49 30
-1.644518 0.359738 3.262000 101 49 34
-1.644518 0.365449 3.262000 99 51 40
-1.644518 0.371159 3.262000 96 51 47
-1.644518 0.376869 3.262000 94 56 39
-1.644518 0.382579 3.262000 95 55 31
-1.644518 0.388289 3.262000 96 56 27
-1.644518 0.393999 3.262000 96 52 23
-1.644518 0.399709 3.262000 97 51 28
-1.628889 0.401567 3.231000 96 52 34
-1.628889 0.407222 3.231000 96 52 25
-1.628889 0.412878 3.231000 96 53 17
-1.628889 0.418534 3.231000 97 59 24
-1.644518 0.428260 3.262000 97 56 31
-1.644518 0.433970 3.262000 98 56 32
-1.644518 0.439680 3.262000 96 52 34
-1.644518 0.445390 3.262000 95 52 39
-1.644518 0.451101 3.262000 98 50 44
-1.644518 0.456811 3.262000 101 47 45
-1.644518 0.462521 3.262000 97 48 47
-1.644518 0.468231 3.262000 93 49 44
-1.644518 0.473941 3.262000 90 49 41
-1.644518 0.479651 3.262000 87 49 27
-1.644518 0.485361 3.262000 89 51 13
-1.644518 0.491071 3.262000 90 51 19
-1.644518 0.496782 3.262000 87 49 26
-1.644518 0.502492 3.262000 85 51 23
-1.644518 0.508202 3.262000 87 49 20
-1.644518 0.513912 3.262000 90 49 25
-1.660146 0.524560 3.293000 88 47 31
-1.660146 0.530325 3.293000 87 48 28
-1.660146 0.536089 3.293000 87 50 25
-1.644518 0.536752 3.262000 86 53 14
-1.660146 0.547618 3.293000 90 49 4
-1.660146 0.553382 3.293000 95 49 25
-1.644518 0.553883 3.262000 93 46 47
-1.644518 0.559593 3.262000 91 44 42
-1.644518 0.565303 3.262000 92 41 37
-1.644518 0.571013 3.262000 93 43 31
-1.660146 0.582204 3.293000 90 42 26
-1.660146 0.587969 3.293000 87 39 28
-1.660146 0.593733 3.293000 84 43 30
-1.644518 0.593854 3.262000 81 46 27
-1.644518 0.599564 3.262000 66 32 25
-1.644518 0.605274 3.262000 51 17 25
-1.660146 0.616791 3.293000 39 13 26
-1.644518 0.616694 3.262000 26 11 23
-1.310270 0.668784 2.599000 69 51 47
-1.310270 0.673334 2.599000 73 56 49
-1.300692 0.672927 2.580000 79 49 52
-1.290609 0.672192 2.560000 84 46 55
-1.281534 0.671916 2.542000 78 47 59
-1.262881 0.666521 2.505000 73 48 57
-1.262881 0.670905 2.505000 72 52 55
-1.253806 0.670438 2.487000 71 54 57
-1.253806 0.674792 2.487000 78 51 59
-1.253806 0.679145 2.487000 85 48 67
-1.244732 0.678552 2.469000 83 47 76
-1.227087 0.673193 2.434000 81 48 71
-1.218516 0.672723 2.417000 82 49 67
-1.201879 0.667711 2.384000 82 51 66
-1.201879 0.671884 2.384000 84 48 65
-1.193309 0.671236 2.367000 86 47 64
-1.177176 0.666249 2.335000 83 49 64
-1.169614 0.666030 2.320000 80 54 63
-1.161548 0.665470 2.304000 79 54 62
-1.146424 0.660786 2.274000 79 53 61
-1.138861 0.660382 2.259000 78 52 61
-1.131299 0.659925 2.244000 77 55 66
-1.124241 0.659711 2.230000 79 56 72
-1.109621 0.654985 2.201000 82 55 72
-1.102563 0.654647 2.187000 81 58 72
-1.102563 0.658475 2.187000 81 60 72
-1.096009 0.658367 2.174000 82 58 73
-1.088951 0.657908 2.160000 83 58 72
-1.088951 0.661689 2.160000 84 57 72
-1.082397 0.661465 2.147000 86 59 75
-1.075339 0.660886 2.133000 87 60 79
-1.062231 0.656518 2.107000 88 59 80
-1.056182 0.656446 2.095000 87 56 81
-1.037024 0.648140 2.057000 86 53 83
-1.030975 0.647939 2.045000 86 55 86
-1.030975 0.651519 2.045000 87 57 92
-1.024925 0.651254 2.033000 84 62 98
-1.018875 0.650948 2.021000 82 67 91
-1.018875 0.654486 2.021000 84 64 84
-1.018875 0.658024 2.021000 86 62 84
-1.007280 0.654032 1.998000 85 60 85
-1.007280 0.657530 1.998000 84 62 85
-1.001230 0.657057 1.986000 88 62 86
-0.984089 0.649226 1.952000 93 63 84
-0.973502 0.645621 1.931000 90 66 82
-0.967956 0.645304 1.920000 88 69 85
-0.962411 0.644949 1.909000 87 67 89
-0.957370 0.644895 1.899000 87 65 89
-0.957370 0.648219 1.899000 88 62 89
-0.951824 0.647769 1.888000 90 62 89
-0.941741 0.644177 1.868000 90 63 89
-0.936700 0.643981 1.858000 91 64 97
-0.926617 0.640266 1.838000 92 59 106
-0.921575 0.639983 1.828000 94 58 95
-0.917038 0.640016 1.819000 92 64 85
-0.907459 0.636482 1.800000 90 67 79
-0.907459 0.639633 1.800000 88 65 74
-0.907459 0.642784 1.800000 87 69 84
-0.902418 0.642346 1.790000 89 64 94
-0.897880 0.642234 1.781000 92 61 95
-0.893343 0.642090 1.772000 89 67 96
-0.888806 0.641916 1.763000 86 72 91
-0.879731 0.638416 1.745000 84 70 86
-0.871161 0.635222 1.728000 83 62 79
-0.866624 0.634922 1.719000 71 52 72
-0.862590 0.634962 1.711000 60 47 75
-0.862590 0.637958 1.711000 72 56 79
-0.854020 0.634584 1.694000 83 67 85
-0.854020 0.637550 1.694000 87 68 91
-0.849987 0.637490 1.686000 91 69 91
-0.845450 0.637023 1.677000 93 66 92
-0.841416 0.636906 1.669000 95 67 92
-0.837383 0.636760 1.661000 90 71 93
-0.829317 0.633506 1.645000 85 72 93
-0.821755 0.630583 1.630000 87 73 94
-0.817722 0.630327 1.622000 89 78 100
-0.817722 0.633166 1.622000 90 76 106
-0.814193 0.633261 1.615000 91 75 102
-1.608162 -1.255151 3.201000 83 38 27
-1.608162 -1.249547 3.201000 77 39 46
-1.593592 -1.232674 3.172000 71 38 31
-1.593592 -1.227122 3.172000 77 36 17
-1.593592 -1.221569 3.172000 83 36 23
-1.593592 -1.216016 3.172000 81 32 28
-1.593592 -1.210464 3.172000 80 36 21
-1.593592 -1.204911 3.172000 83 37 14
-1.608162 -1.210324 3.201000 86 36 17
-1.593592 -1.193806 3.172000 85 34 20
-1.593592 -1.188254 3.172000 85 29 18
-1.608162 -1.193514 3.201000 71 30 16
-1.623234 -1.199044 3.231000 58 32 13
-1.623234 -1.193388 3.231000 67 31 10
-1.623234 -1.187732 3.231000 77 34 21
-1.623234 -1.182076 3.231000 66 34 31
-1.638808 -1.187707 3.262000 55 34 32
-1.638808 -1.181997 3.262000 65 29 33
-1.638808 -1.176287 3.262000 75 30 26
-1.638808 -1.170577 3.262000 67 34 19
-1.638808 -1.164867 3.262000 60 35 13
-1.638808 -1.159157 3.262000 69 31 7
-1.638808 -1.153447 3.262000 79 39 10
-1.638808 -1.147736 3.262000 69 41 14
-1.638808 -1.142026 3.262000 60 41 23
-1.638808 -1.136316 3.262000 68 42 33
-1.654382 -1.141351 3.293000 77 39 29
-1.654382 -1.135586 3.293000 76 36 25
-1.654382 -1.129822 3.293000 75 33 22
-1.638808 -1.113476 3.262000 78 28 19
-1.638808 -1.107766 3.262000 82 35 18
-1.638808 -1.102055 3.262000 83 39 18
-1.638808 -1.096345 3.262000 85 38 14
-1.638808 -1.090635 3.262000 85 37 11
-1.638808 -1.084925 3.262000 86 41 22
-1.638808 -1.079215 3.262000 85 44 33
-1.638808 -1.073505 3.262000 84 42 33
-1.638808 -1.067795 3.262000 86 43 32
-1.638808 -1.062084 3.262000 89 42 42
-1.638808 -1.056374 3.262000 90 46 51
-1.638808 -1.050664 3.262000 91 44 42
-1.638808 -1.044954 3.262000 90 44 33
-1.638808 -1.039244 3.262000 89 46 23
-1.638808 -1.033534 3.262000 91 49 13
-1.638808 -1.027824 3.262000 93 42 21
-1.638808 -1.022113 3.262000 94 44 28
-1.638808 -1.016403 3.262000 95 42 30
-1.638808 -1.010693 3.262000 94 45 32
-1.638808 -1.004983 3.262000 93 43 31
-1.638808 -0.999273 3.262000 99 43 30
-1.638808 -0.993563 3.262000 105 43 21
-1.638808 -0.987853 3.262000 100 49 12
-1.638808 -0.982143 3.262000 95 47 25
-1.638808 -0.976433 3.262000 94 49 39
-1.638808 -0.970722 3.262000 93 48 34
-1.638808 -0.965012 3.262000 93 51 30
-1.638808 -0.959302 3.262000 93 48 28
-1.638808 -0.953592 3.262000 94 50 27
-1.623234 -0.938874 3.231000 96 45 27
-1.623234 -0.933218 3.231000 94 44 26
-1.623234 -0.927562 3.231000 93 47 28
-1.608162 -0.913346 3.201000 93 52 30
-1.608162 -0.907743 3.201000 94 49 28
-1.623234 -0.910594 3.231000 98 53 26
-1.623234 -0.904939 3.231000 103 51 34
-1.623234 -0.899283 3.231000 98 52 42
-1.623234 -0.893627 3.231000 94 50 37
-1.623234 -0.887971 3.231000 98 51 32
-1.638808 -0.890781 3.262000 102 51 29
-1.638808 -0.885070 3.262000 98 50 25
-1.638808 -0.879360 3.262000 94 49 35
-1.638808 -0.873650 3.262000 102 47 45
-1.638808 -0.867940 3.262000 111 44 42
-1.638808 -0.862230 3.262000 103 47 39
-1.638808 -0.856520 3.262000 95 45 37
-1.638808 -0.850810 3.262000 94 45 35
-1.638808 -0.845099 3.262000 94 45 33
-1.638808 -0.839389 3.262000 94 48 31
-1.638808 -0.833679 3.262000 95 49 39
-1.638808 -0.827969 3.262000 95 49 47
-1.638808 -0.822259 3.262000 96 47 42
-1.638808 -0.816549 3.262000 96 49 37
-1.638808 -0.810839 3.262000 96 49 39
-1.638808 -0.805129 3.262000 95 56 42
-1.638808 -0.799418 3.262000 95 52 38
-1.638808 -0.793708 3.262000 94 52 34
-1.638808 -0.787998 3.262000 93 53 36
-1.638808 -0.782288 3.262000 94 52 39
-1.638808 -0.776578 3.262000 95 52 32
-1.638808 -0.770868 3.262000 96 51 26
-1.638808 -0.765158 3.262000 97 51 31
-1.638808 -0.759447 3.262000 98 49 37
-1.638808 -0.753737 3.262000 100 49 31
-1.654382 -0.755136 3.293000 98 50 25
-1.654382 -0.749372 3.293000 96 50 33
-1.654382 -0.743607 3.293000 96 53 41
-1.654382 -0.737843 3.293000 97 50 37
-1.638808 -0.725187 3.262000 97 51 33
-1.638808 -0.719477 3.262000 97 52 27
-1.638808 -0.713766 3.262000 98 51 22
-1.638808 -0.708056 3.262000 99 51 27
-1.638808 -0.702346 3.262000 96 53 32
-1.623234 -0.690016 3.231000 93 51 37
-1.623234 -0.684360 3.231000 95 54 43
-1.623234 -0.678704 3.231000 98 52 48
-1.638808 -0.679506 3.262000 100 51 53
-1.638808 -0.673795 3.262000 103 49 45
-1.638808 -0.668085 3.262000 101 48 37
-1.638808 -0.662375 3.262000 100 51 30
-1.638808 -0.656665 3.262000 101 55 24
-1.654382 -0.657141 3.293000 103 57 33
-1.638808 -0.645245 3.262000 102 59 43
-1.638808 -0.639535 3.262000 102 62 37
-1.638808 -0.633825 3.262000 101 69 32
-1.638808 -0.628114 3.262000 100 63 34
-1.638808 -0.622404 3.262000 103 58 36
-1.638808 -0.616694 3.262000 107 55 41
-1.638808 -0.610984 3.262000 108 54 46
-1.638808 -0.605274 3.262000 109 52 46
-1.638808 -0.599564 3.262000 106 54 46
-1.638808 -0.593854 3.262000 104 56 43
-1.638808 -0.588143 3.262000 104 59 41
-1.638808 -0.582433 3.262000 104 55 46
-1.638808 -0.576723 3.262000 106 52 51
-1.638808 -0.571013 3.262000 108 49 44
-1.638808 -0.565303 3.262000 104 48 36
-1.638808 -0.559593 3.262000 101 52 29
-1.638808 -0.553883 3.262000 102 58 22
-1.638808 -0.548173 3.262000 103 62 29
-1.638808 -0.542462 3.262000 104 70 37
-1.638808 -0.536752 3.262000 105 67 39
-1.654382 -0.536089 3.293000 105 65 41
-1.638808 -0.525332 3.262000 106 64 43
-1.638808 -0.519622 3.262000 107 65 44
-1.638808 -0.513912 3.262000 108 66 45
-1.638808 -0.508202 3.262000 107 63 46
-1.638808 -0.502492 3.262000 106 59 55
-1.654382 -0.501502 3.293000 104 60 64
-1.654382 -0.495738 3.293000 103 60 56
-1.654382 -0.489974 3.293000 111 57 48
-1.638808 -0.479651 3.262000 119 61 56
-1.638808 -0.473941 3.262000 115 68 64
-1.638808 -0.468231 3.262000 112 68 55
-1.638808 -0.462521 3.262000 112 68 47
-1.638808 -0.456810 3.262000 112 66 49
-1.654382 -0.455387 3.293000 111 66 52
-1.654382 -0.449623 3.293000 110 66 51
-1.654382 -0.443859 3.293000 110 67 51
-1.654382 -0.438094 3.293000 111 68 51
-1.654382 -0.432330 3.293000 115 70 50
-1.654382 -0.426565 3.293000 119 71 51
-1.654382 -0.420801 3.293000 116 74 53
-1.654382 -0.415036 3.293000 113 73 44
-1.638808 -0.405419 3.262000 119 73 36
-1.638808 -0.399709 3.262000 125 75 46
-1.623234 -0.390255 3.231000 121 83 57
-1.623234 -0.384599 3.231000 117 74 55
-1.638808 -0.382579 3.262000 120 71 53
-1.638808 -0.376869 3.262000 124 69 50
-1.638808 -0.371159 3.262000 121 72 48
-1.638808 -0.365448 3.262000 118 71 47
-1.638808 -0.359738 3.262000 117 69 46
-1.638808 -0.354028 3.262000 116 68 45
-1.638808 -0.348318 3.262000 110 68 45
-1.638808 -0.342608 3.262000 105 68 42
-1.638808 -0.336898 3.262000 113 66 39
-1.623234 -0.328040 3.231000 122 67 48
-1.638808 -0.325477 3.262000 116 70 57
-1.638808 -0.319767 3.262000 111 72 63
-1.654382 -0.317042 3.293000 112 73 69
-1.654382 -0.311277 3.293000 114 72 62
-1.654382 -0.305513 3.293000 118 69 56
-1.654382 -0.299749 3.293000 123 69 58
-1.654382 -0.293984 3.293000 119 69 61
-1.654382 -0.288220 3.293000 115 72 56
-1.669956 -0.285114 3.324000 116 76 51
-1.654382 -0.276691 3.293000 117 76 51
-1.654382 -0.270927 3.293000 117 76 51
-1.654382 -0.265162 3.293000 117 74 56
-1.654382 -0.259398 3.293000 120 71 60
-1.654382 -0.253633 3.293000 123 66 57
-1.638808 -0.245536 3.262000 121 65 54
-1.638808 -0.239825 3.262000 120 64 54
-1.638808 -0.234115 3.262000 120 64 55
-1.638808 -0.228405 3.262000 121 64 56
-1.638808 -0.222695 3.262000 117 66 57
-1.638808 -0.216985 3.262000 114 71 58
-1.638808 -0.211275 3.262000 115 73 58
-1.638808 -0.205565 3.262000 116 74 51
-1.638808 -0.199855 3.262000 115 72 43
-1.638808 -0.194144 3.262000 115 72 48
-1.638808 -0.188434 3.262000 114 71 54
-1.638808 -0.182724 3.262000 114 72 61
-1.638808 -0.177014 3.262000 115 71 69
-1.638808 -0.171304 3.262000 117 67 62
-1.654382 -0.167167 3.293000 115 68 55
-1.654382 -0.161403 3.293000 114 67 52
-1.654382 -0.155639 3.293000 108 69 49
-1.654382 -0.149874 3.293000 102 71 50
-1.654382 -0.144110 3.293000 108 74 51
-1.654382 -0.138345 3.293000 114 72 59
-1.654382 -0.132581 3.293000 116 72 67
-1.654382 -0.126817 3.293000 118 70 62
-1.654382 -0.121052 3.293000 118 73 58
-1.654382 -0.115288 3.293000 118 71 64
-1.654382 -0.109523 3.293000 116 74 71
-1.654382 -0.103759 3.293000 114 74 63
-1.654382 -0.097995 3.293000 113 78 56
-1.654382 -0.092230 3.293000 113 74 53
-1.638808 -0.085652 3.262000 118 71 50
-1.638808 -0.079942 3.262000 123 69 50
-1.654382 -0.074937 3.293000 118 68 50
-1.654382 -0.069173 3.293000 114 71 54
-1.654382 -0.063408 3.293000 114 76 59
-1.638808 -0.057101 3.262000 114 69 53
-1.638808 -0.051391 3.262000 115 65 47
-1.638808 -0.045681 3.262000 117 67 52
-1.638808 -0.039971 3.262000 113 69 58
-1.638808 -0.034261 3.262000 110 68 55
-1.638808 -0.028551 3.262000 110 68 53
-1.638808 -0.022840 3.262000 110 68 50
-1.638808 -0.017130 3.262000 111 67 48
-1.638808 -0.011420 3.262000 112 68 49
-1.638808 -0.005710 3.262000 112 69 51
-1.638808 -0.000000 3.262000 112 68 54
-1.638808 0.005710 3.262000 110 68 57
-1.654382 0.011529 3.293000 109 68 56
-1.654382 0.017293 3.293000 109 69 56
-1.654382 0.023058 3.293000 110 70 53
-1.654382 0.028822 3.293000 109 69 50
-1.654382 0.034587 3.293000 108 70 48
-1.654382 0.040351 3.293000 108 75 46
-1.638808 0.045681 3.262000 109 72 38
-1.638808 0.051391 3.262000 108 71 31
-1.638808 0.057101 3.262000 107 67 46
-1.638808 0.062811 3.262000 106 65 61
-1.638808 0.068522 3.262000 105 63 56
-1.638808 0.074232 3.262000 107 60 51
-1.638808 0.079942 3.262000 109 61 50
-1.638808 0.085652 3.262000 105 63 48
-1.638808 0.091362 3.262000 102 64 56
-1.638808 0.097072 3.262000 104 65 64
-1.638808 0.102782 3.262000 106 64 56
-1.638808 0.108493 3.262000 106 68 49
-1.638808 0.114203 3.262000 106 65 46
-1.638808 0.119913 3.262000 106 62 44
-1.638808 0.125623 3.262000 106 62 41
-1.638808 0.131333 3.262000 105 63 38
-1.638808 0.137043 3.262000 105 62 41
-1.638808 0.142753 3.262000 105 64 44
-1.638808 0.148463 3.262000 106 62 41
-1.638808 0.154174 3.262000 104 63 37
-1.638808 0.159884 3.262000 102 65 33
-1.638808 0.165594 3.262000 98 65 28
-1.638808 0.171304 3.262000 94 65 35
-1.638808 0.177014 3.262000 97 61 43
-1.654382 0.184461 3.293000 100 60 43
-1.638808 0.188434 3.262000 102 63 43
-1.638808 0.194145 3.262000 105 61 34
-1.638808 0.199855 3.262000 111 62 26
-1.638808 0.205565 3.262000 117 58 34
-1.638808 0.211275 3.262000 110 55 42
-1.638808 0.216985 3.262000 104 58 45
-1.638808 0.222695 3.262000 102 58 49
-1.638808 0.228405 3.262000 101 58 49
-1.638808 0.234115 3.262000 98 59 49
-1.638808 0.239826 3.262000 95 61 39
-1.638808 0.245536 3.262000 96 65 30
-1.638808 0.251246 3.262000 98 59 32
-1.638808 0.256956 3.262000 100 56 35
-1.638808 0.262666 3.262000 103 59 29
-1.638808 0.268376 3.262000 101 60 23
-1.638808 0.274086 3.262000 100 56 30
-1.638808 0.279797 3.262000 98 55 38
-1.638808 0.285507 3.262000 97 53 36
-1.638808 0.291217 3.262000 94 51 35
-1.638808 0.296927 3.262000 92 52 49
-1.638808 0.302637 3.262000 95 54 64
-1.654382 0.311277 3.293000 99 57 54
-1.638808 0.314057 3.262000 97 62 44
-1.638808 0.319767 3.262000 96 55 39
-1.638808 0.325478 3.262000 96 51 35
-1.638808 0.331188 3.262000 96 53 35
-1.638808 0.336898 3.262000 93 54 35
-1.638808 0.342608 3.262000 91 52 32
-1.638808 0.348318 3.262000 99 53 29
-1.638808 0.354028 3.262000 107 49 25
-1.638808 0.359738 3.262000 103 48 20
-1.638808 0.365449 3.262000 99 49 32
-1.638808 0.371159 3.262000 96 50 44
-1.638808 0.376869 3.262000 93 51 40
-1.638808 0.382579 3.262000 94 53 36
-1.638808 0.388289 3.262000 96 53 39
-1.638808 0.393999 3.262000 97 51 42
-1.638808 0.399709 3.262000 99 50 40
-1.638808 0.405419 3.262000 98 53 38
-1.638808 0.411130 3.262000 97 50 31
-1.623234 0.412878 3.231000 97 46 25
-1.623234 0.418534 3.231000 97 51 31
-1.638808 0.428260 3.262000 99 54 36
-1.638808 0.433970 3.262000 101 54 31
-1.638808 0.439680 3.262000 97 54 26
-1.638808 0.445390 3.262000 94 51 34
-1.638808 0.451101 3.262000 95 51 42
-1.638808 0.456811 3.262000 96 48 44
-1.638808 0.462521 3.262000 94 51 45
-1.654382 0.472681 3.293000 93 49 43
-1.638808 0.473941 3.262000 92 50 41
-1.638808 0.479651 3.262000 92 49 31
-1.638808 0.485361 3.262000 91 51 22
-1.654382 0.495738 3.293000 91 51 26
-1.638808 0.496782 3.262000 85 50 30
-1.638808 0.502492 3.262000 80 50 29
-1.638808 0.508202 3.262000 84 50 29
-1.638808 0.513912 3.262000 89 47 29
-1.654382 0.524560 3.293000 89 47 29
-1.654382 0.530325 3.293000 89 47 32
-1.654382 0.536089 3.293000 86 49 35
-1.638808 0.536752 3.262000 84 49 24
-1.654382 0.547618 3.293000 85 45 13
-1.654382 0.553382 3.293000 86 45 27
-1.654382 0.559147 3.293000 87 45 40
-1.654382 0.564911 3.293000 89 44 35
-1.654382 0.570675 3.293000 88 44 30
-1.654382 0.576440 3.293000 87 42 31
-1.654382 0.582204 3.293000 86 43 32
-1.654382 0.587969 3.293000 86 42 27
-1.654382 0.593733 3.293000 82 41 22
-1.638808 0.593854 3.262000 79 42 20
-1.638808 0.599564 3.262000 63 40 19
-1.638808 0.605274 3.262000 47 19 21
-1.638808 0.610984 3.262000 37 12 23
-1.638808 0.616694 3.262000 27 9 17
-1.305721 0.664234 2.599000 69 49 53
-1.305721 0.668784 2.599000 72 55 58
-1.305721 0.673334 2.599000 75 50 50
-1.296175 0.672927 2.580000 83 45 41
-1.286128 0.672192 2.560000 92 47 50
-1.267539 0.666893 2.523000 83 47 58
-1.267539 0.671310 2.523000 74 48 58
-1.258496 0.670905 2.505000 70 55 59
-1.258496 0.675291 2.505000 67 54 58
