ply
format ascii 1.0
element vertex 1167
property float x
property float y
property float z
property uchar red
property uchar green
property uchar blue
end_header
-0.195037 0.766698 3.842000 162 128 149
-0.192905 0.764969 3.800000 166 98 146
-0.190824 0.763295 3.759000 171 127 142
-0.190824 0.769875 3.759000 176 104 139
-0.188743 0.767987 3.718000 181 139 134
-0.186763 0.766371 3.679000 200 100 130
-0.182854 0.756636 3.602000 219 134 134
-0.180976 0.755105 3.565000 224 119 139
-0.179097 0.753443 3.528000 229 156 136
-0.177321 0.752083 3.493000 232 158 134
-0.175544 0.750601 3.458000 235 173 132
-0.175544 0.756654 3.458000 244 179 131
-0.175544 0.762707 3.458000 254 190 132
-0.173767 0.760979 3.423000 254 213 134
-0.168741 0.744789 3.324000 254 198 133
-0.167168 0.743607 3.293000 254 205 132
-0.165594 0.742317 3.262000 254 194 129
-0.165594 0.748027 3.262000 254 220 127
-0.165594 0.753737 3.262000 254 187 137
-0.164020 0.752230 3.231000 239 212 146
-0.159553 0.737244 3.143000 224 182 138
-0.158132 0.736129 3.115000 224 215 131
-0.156710 0.734916 3.087000 224 176 138
-0.155289 0.733605 3.059000 220 185 146
-0.152598 0.726157 3.006000 217 164 146
-0.152598 0.731419 3.006000 194 168 146
-0.151278 0.730309 2.980000 172 152 146
-0.150009 0.729355 2.955000 168 159 146
-0.150009 0.734527 2.955000 165 145 154
-0.148740 0.733442 2.930000 155 126 162
-0.147471 0.732269 2.905000 145 127 160
-0.146253 0.731263 2.881000 156 123 158
-0.145034 0.730172 2.857000 167 122 162
-0.142648 0.723079 2.810000 169 116 165
-0.142648 0.727998 2.810000 171 123 162
-0.141532 0.727179 2.788000 168 131 160
-0.140364 0.726020 2.765000 166 127 159
-0.139247 0.725045 2.743000 166 126 158
-0.137115 0.718672 2.701000 166 125 158
-0.136049 0.717775 2.680000 165 126 158
-0.134983 0.716805 2.659000 164 132 156
-0.133968 0.716033 2.639000 166 133 154
-0.132952 0.715191 2.619000 169 131 150
-0.131937 0.714279 2.599000 170 134 146
-0.130972 0.713574 2.580000 172 139 160
-0.129957 0.712524 2.560000 179 155 174
-0.129043 0.711963 2.542000 186 144 162
-0.128079 0.711058 2.523000 170 131 150
-0.127165 0.710371 2.505000 155 122 150
-0.126251 0.709620 2.487000 156 118 149
-0.125338 0.708806 2.469000 157 121 149
-0.124424 0.707929 2.451000 156 122 148
-0.123561 0.707279 2.434000 156 120 145
-0.122698 0.706570 2.417000 155 117 143
-0.121835 0.705802 2.400000 154 118 140
-0.121023 0.705270 2.384000 154 121 137
-0.120160 0.704384 2.367000 154 120 139
-0.119347 0.703738 2.351000 155 119 140
-0.118535 0.703036 2.335000 157 120 141
-0.117774 0.702581 2.320000 160 120 142
-0.117774 0.706642 2.320000 164 118 142
-0.116961 0.705802 2.304000 158 115 143
-0.116200 0.705214 2.289000 153 119 142
-0.113916 0.695278 2.244000 149 122 142
-0.113205 0.694844 2.230000 146 118 144
-0.113205 0.698747 2.230000 142 117 147
-0.112443 0.697925 2.215000 139 115 144
-0.111733 0.697366 2.201000 147 116 141
-0.111022 0.696759 2.187000 155 114 139
-0.110362 0.696423 2.174000 152 111 137
-0.109651 0.695719 2.160000 149 112 134
-0.108281 0.690756 2.133000 150 111 131
-0.107621 0.690257 2.120000 151 110 130
-0.106961 0.689713 2.107000 143 111 129
-0.105692 0.685174 2.082000 136 111 129
-0.105692 0.688818 2.082000 139 110 129
-0.104423 0.684148 2.057000 142 110 128
-0.104423 0.687749 2.057000 140 107 128
-0.103813 0.687316 2.045000 139 106 131
-0.103204 0.686842 2.033000 140 107 134
-0.102595 0.686326 2.021000 142 107 128
-0.101986 0.685767 2.009000 143 106 123
-0.101986 0.689284 2.009000 144 108 126
-0.101428 0.689007 1.998000 141 111 129
-0.100260 0.684533 1.975000 139 106 128
-0.099702 0.684159 1.964000 139 106 126
-0.099702 0.687596 1.964000 140 106 123
-0.099092 0.686812 1.952000 136 104 120
-0.098026 0.682804 1.931000 132 106 121
-0.098026 0.686184 1.931000 131 107 122
-0.097468 0.685636 1.920000 131 108 117
-0.095843 0.677514 1.888000 131 106 112
-0.094828 0.673607 1.868000 131 102 117
-0.094320 0.673253 1.858000 133 100 122
-0.093813 0.672864 1.848000 135 100 123
-0.093813 0.676099 1.848000 135 108 125
-0.093305 0.675658 1.838000 135 107 120
-0.092798 0.675182 1.828000 133 107 116
-0.092798 0.678382 1.828000 132 103 115
-0.091833 0.674497 1.809000 126 104 114
-0.091376 0.674293 1.800000 121 100 113
-0.090869 0.673680 1.790000 125 98 113
-0.090412 0.673410 1.781000 129 98 117
-0.089955 0.673109 1.772000 127 95 121
-0.089498 0.672777 1.763000 126 97 121
-0.089498 0.675863 1.763000 130 101 121
-0.088584 0.672017 1.745000 134 99 122
-0.088584 0.675072 1.745000 137 95 123
-0.190419 0.768478 3.885000 204 160 143
-0.190419 0.775279 3.885000 208 182 138
-0.188312 0.773424 3.842000 210 165 133
-0.186253 0.771621 3.800000 212 186 125
-0.184244 0.769875 3.759000 215 181 118
-0.182234 0.767987 3.718000 217 222 111
-0.180322 0.766371 3.679000 226 187 105
-0.178411 0.764619 3.640000 235 202 115
-0.174735 0.755105 3.565000 233 183 126
-0.172921 0.753443 3.528000 231 197 125
-0.171206 0.752083 3.493000 232 186 125
-0.169490 0.750601 3.458000 233 184 127
-0.169490 0.756654 3.458000 229 183 130
-0.169490 0.762707 3.458000 226 181 133
-0.167775 0.760979 3.423000 222 183 137
-0.164540 0.752183 3.357000 219 170 143
-0.162923 0.750607 3.324000 217 168 149
-0.161403 0.749372 3.293000 215 136 153
-0.159884 0.748027 3.262000 213 149 157
-0.158364 0.746574 3.231000 211 120 163
-0.155472 0.738494 3.172000 203 138 169
-0.154051 0.737244 3.143000 196 98 162
-0.152679 0.736129 3.115000 195 142 156
-0.151306 0.734916 3.087000 195 127 156
-0.149934 0.733605 3.059000 195 143 157
-0.147336 0.726157 3.006000 195 134 157
-0.147336 0.731419 3.006000 184 135 158
-0.146062 0.730309 2.980000 174 110 154
-0.144836 0.729355 2.955000 172 135 151
-0.144836 0.734527 2.955000 171 140 158
-0.143611 0.733442 2.930000 167 135 165
-0.142386 0.732269 2.905000 164 137 162
-0.141209 0.731263 2.881000 168 132 160
-0.140033 0.730172 2.857000 172 133 166
-0.138906 0.729255 2.834000 173 132 173
-0.137729 0.727998 2.810000 173 134 169
-0.136651 0.727179 2.788000 169 137 165
-0.134445 0.720243 2.743000 165 147 163
-0.133416 0.719494 2.722000 166 134 162
-0.131357 0.713084 2.680000 167 127 162
-0.130328 0.712151 2.659000 168 130 163
-0.130328 0.716805 2.659000 169 134 159
-0.129348 0.716033 2.639000 169 131 155
-0.128368 0.715191 2.619000 169 128 149
-0.127387 0.714279 2.599000 171 132 144
-0.126456 0.713574 2.580000 174 142 161
-0.125476 0.712524 2.560000 182 151 179
-0.124594 0.711963 2.542000 189 139 163
-0.123662 0.711058 2.523000 172 130 147
-0.122780 0.710371 2.505000 155 119 146
-0.121898 0.709620 2.487000 156 121 145
-0.120133 0.703638 2.451000 157 124 145
-0.118467 0.698108 2.417000 157 122 146
-0.119300 0.707279 2.434000 156 123 143
-0.118467 0.706570 2.417000 155 120 141
-0.117634 0.705802 2.400000 153 121 137
-0.116849 0.705270 2.384000 154 122 134
-0.116016 0.704384 2.367000 155 122 138
-0.115232 0.703738 2.351000 155 121 142
-0.115232 0.707853 2.351000 156 124 141
-0.114448 0.707123 2.335000 157 122 140
-0.113712 0.706642 2.320000 158 122 140
-0.112928 0.705802 2.304000 154 118 141
-0.110723 0.695971 2.259000 151 119 140
-0.109987 0.695278 2.244000 149 118 140
-0.109301 0.694844 2.230000 147 116 138
-0.108566 0.694047 2.215000 145 116 137
-0.107880 0.693513 2.201000 143 117 139
-0.107880 0.697366 2.201000 148 116 141
-0.107194 0.696759 2.187000 153 118 139
-0.105870 0.691938 2.160000 150 114 138
-0.105233 0.691532 2.147000 147 114 135
-0.104547 0.690756 2.133000 147 111 132
-0.103910 0.690257 2.120000 147 108 136
-0.103272 0.689713 2.107000 143 109 141
-0.102684 0.689452 2.095000 139 109 136
-0.102047 0.688818 2.082000 141 111 131
-0.100822 0.684148 2.057000 143 113 130
-0.100822 0.687749 2.057000 141 109 130
-0.100234 0.687316 2.045000 139 108 133
-0.099057 0.682788 2.021000 140 107 137
-0.099057 0.686326 2.021000 142 109 128
-0.098469 0.685767 2.009000 142 107 120
-0.097930 0.685510 1.998000 143 109 126
-0.097930 0.689007 1.998000 141 108 132
-0.096803 0.684533 1.975000 140 107 129
-0.096803 0.687990 1.975000 139 106 127
-0.096263 0.687596 1.964000 138 110 125
-0.095675 0.686812 1.952000 135 109 124
-0.095136 0.686340 1.941000 132 110 124
-0.094646 0.686184 1.931000 130 108 124
-0.094107 0.685636 1.920000 128 106 122
-0.092538 0.677514 1.888000 129 103 121
-0.091558 0.673607 1.868000 131 102 122
-0.091068 0.673253 1.858000 132 98 124
-0.090578 0.672864 1.848000 134 91 127
-0.090578 0.676099 1.848000 135 103 130
-0.090088 0.675658 1.838000 135 109 124
-0.090088 0.678876 1.838000 133 103 118
-0.089598 0.678382 1.828000 131 99 117
-0.089156 0.678226 1.819000 127 100 116
-0.088666 0.677664 1.809000 124 100 118
-0.088225 0.677444 1.800000 127 98 120
-0.087294 0.673410 1.781000 130 100 122
-0.086853 0.673109 1.772000 129 98 125
-0.086853 0.676211 1.772000 129 97 124
-0.086412 0.675863 1.763000 130 99 123
-0.085529 0.672017 1.745000 131 100 126
-0.085529 0.675072 1.745000 129 98 129
-0.185037 0.781266 3.915000 254 189 135
-0.179601 0.764969 3.800000 254 196 133
-0.179601 0.771621 3.800000 254 193 132
-0.177664 0.769875 3.759000 254 213 131
-0.175726 0.767987 3.718000 254 199 131
-0.173882 0.766371 3.679000 252 224 131
-0.172039 0.764619 3.640000 251 191 138
-0.170243 0.762942 3.602000 242 216 146
-0.166746 0.753443 3.528000 233 184 145
-0.165091 0.752083 3.493000 232 205 145
-0.163437 0.750601 3.458000 231 168 143
-0.163437 0.756654 3.458000 214 190 141
-0.163437 0.762707 3.458000 198 167 140
-0.161783 0.760979 3.423000 191 171 139
-0.158664 0.752183 3.357000 185 157 146
-0.157104 0.750607 3.324000 180 161 154
-0.155639 0.749372 3.293000 176 139 156
-0.154174 0.748027 3.262000 172 121 158
-0.151291 0.739642 3.201000 169 126 163
-0.148549 0.731743 3.143000 168 125 167
-0.147226 0.730676 3.115000 168 123 164
-0.147226 0.736129 3.115000 167 128 160
-0.145902 0.734916 3.087000 166 131 160
-0.144579 0.733605 3.059000 169 127 159
-0.143350 0.732679 3.033000 173 131 160
-0.142074 0.731419 3.006000 174 128 161
-0.140845 0.730309 2.980000 176 126 160
-0.139664 0.729355 2.955000 177 131 159
-0.139664 0.734527 2.955000 178 136 163
-0.138482 0.733442 2.930000 180 139 168
-0.137301 0.732269 2.905000 183 137 169
-0.136166 0.731263 2.881000 180 138 170
-0.136166 0.736306 2.881000 178 141 171
-0.135032 0.735173 2.857000 177 148 172
-0.133945 0.734216 2.834000 176 139 169
-0.131771 0.727179 2.788000 170 137 166
-0.130684 0.726020 2.765000 164 140 163
-0.128651 0.719494 2.722000 166 139 161
-0.126666 0.713084 2.680000 169 135 161
-0.125674 0.712151 2.659000 171 136 160
-0.125674 0.716805 2.659000 174 134 159
-0.124728 0.716033 2.639000 171 131 157
-0.123783 0.715191 2.619000 169 128 153
-0.122838 0.714279 2.599000 173 127 150
-0.122838 0.718829 2.599000 177 148 164
-0.121940 0.718090 2.580000 185 170 178
-0.120995 0.717005 2.560000 193 145 164
-0.119246 0.711058 2.523000 174 131 151
-0.119246 0.715475 2.523000 156 124 145
-0.118395 0.714756 2.505000 157 125 139
-0.116694 0.708806 2.469000 158 125 141
-0.114236 0.698108 2.417000 157 122 144
-0.114236 0.702339 2.417000 157 122 143
-0.114236 0.706570 2.417000 155 122 141
-0.113432 0.705802 2.400000 153 122 140
-0.112676 0.705270 2.384000 155 125 140
-0.111873 0.704384 2.367000 157 122 144
-0.111117 0.703738 2.351000 156 120 148
-0.111117 0.707853 2.351000 155 122 144
-0.110360 0.707123 2.335000 154 125 140
-0.109651 0.706642 2.320000 153 122 139
-0.108895 0.705802 2.304000 151 119 139
-0.107477 0.700592 2.274000 149 119 140
-0.106059 0.695278 2.244000 149 118 142
-0.105398 0.694844 2.230000 149 116 140
-0.104689 0.694047 2.215000 148 115 139
-0.104027 0.693513 2.201000 148 115 142
-0.103365 0.692930 2.187000 150 115 145
-0.102751 0.692617 2.174000 152 115 142
-0.102089 0.691938 2.160000 149 113 138
-0.101475 0.691532 2.147000 146 112 135
-0.100813 0.690756 2.133000 145 113 133
-0.100199 0.690257 2.120000 144 110 135
-0.099584 0.689713 2.107000 143 108 137
-0.099017 0.689452 2.095000 142 110 133
-0.098403 0.688818 2.082000 143 113 130
-0.097788 0.688139 2.069000 144 111 128
-0.097221 0.687749 2.057000 142 110 126
-0.096654 0.687316 2.045000 140 109 129
-0.095520 0.682788 2.021000 141 107 132
-0.095520 0.686326 2.021000 142 107 127
-0.094952 0.685767 2.009000 142 106 122
-0.094433 0.685510 1.998000 142 108 124
-0.094433 0.689007 1.998000 141 108 127
-0.093345 0.684533 1.975000 141 107 127
-0.093345 0.687990 1.975000 139 104 127
-0.092826 0.687596 1.964000 137 108 125
-0.092258 0.686812 1.952000 134 114 124
-0.091738 0.686340 1.941000 132 110 123
-0.090746 0.682275 1.920000 129 109 122
-0.089753 0.678137 1.899000 126 106 122
-0.089234 0.677514 1.888000 128 101 123
-0.088761 0.677213 1.878000 131 100 124
-0.088288 0.676876 1.868000 132 99 125
-0.087816 0.676505 1.858000 134 100 126
-0.087343 0.676099 1.848000 135 106 126
-0.087343 0.679334 1.848000 136 105 123
-0.086870 0.678876 1.838000 133 100 119
-0.085972 0.675042 1.819000 130 98 116
-0.085500 0.674497 1.809000 128 98 112
-0.085500 0.677664 1.809000 127 98 115
-0.085074 0.677444 1.800000 129 95 119
-0.084176 0.673410 1.781000 131 99 120
-0.083751 0.673109 1.772000 132 102 121
-0.083326 0.672777 1.763000 133 99 121
-0.082900 0.672413 1.754000 130 99 121
-0.082475 0.672017 1.745000 128 99 123
-0.082475 0.675072 1.745000 122 99 124
-0.179549 0.787252 3.945000 226 190 133
-0.174861 0.773424 3.842000 220 181 134
-0.172950 0.771621 3.800000 214 180 139
-0.169217 0.761478 3.718000 213 169 144
-0.167442 0.759931 3.679000 213 137 151
-0.165667 0.758247 3.640000 212 155 158
-0.165667 0.764619 3.640000 211 122 162
-0.163938 0.762942 3.602000 205 144 166
-0.160570 0.753443 3.528000 200 118 165
-0.158977 0.752083 3.493000 200 135 165
-0.157384 0.750601 3.458000 201 94 158
-0.157384 0.756654 3.458000 194 135 152
-0.157384 0.762707 3.458000 187 128 146
-0.155791 0.760979 3.423000 183 139 141
-0.154289 0.759577 3.390000 179 128 150
-0.152787 0.758059 3.357000 176 142 160
-0.151285 0.756426 3.324000 173 140 160
-0.149874 0.755136 3.293000 174 135 160
-0.145687 0.739642 3.201000 175 140 163
-0.143047 0.731743 3.143000 173 136 166
-0.141773 0.730676 3.115000 172 143 165
-0.141773 0.736129 3.115000 171 139 165
-0.140499 0.734916 3.087000 171 142 163
-0.139224 0.733605 3.059000 174 136 162
-0.138041 0.732679 3.033000 178 136 163
-0.136812 0.731419 3.006000 175 134 165
-0.135629 0.730309 2.980000 172 137 166
-0.134491 0.729355 2.955000 173 134 168
-0.134491 0.734527 2.955000 175 135 169
-0.133353 0.733442 2.930000 177 135 171
-0.132215 0.732269 2.905000 180 135 175
-0.131123 0.731263 2.881000 178 140 180
-0.131123 0.736306 2.881000 176 146 175
-0.128984 0.729255 2.834000 176 144 171
-0.128984 0.734216 2.834000 176 140 169
-0.126890 0.727179 2.788000 172 139 167
-0.124842 0.720243 2.743000 169 140 164
-0.123887 0.719494 2.722000 169 139 161
-0.121975 0.713084 2.680000 170 140 159
-0.121019 0.712151 2.659000 171 138 158
-0.120109 0.711414 2.639000 172 136 159
-0.120109 0.716033 2.639000 169 132 160
-0.119199 0.715191 2.619000 166 129 158
-0.118288 0.714279 2.599000 173 135 156
-0.118288 0.718829 2.599000 181 156 167
-0.116513 0.712524 2.560000 184 163 178
-0.115694 0.711963 2.542000 188 143 166
-0.114829 0.711058 2.523000 172 131 155
-0.114010 0.710371 2.505000 155 122 144
-0.113191 0.709620 2.487000 156 128 133
-0.112372 0.708806 2.469000 158 129 138
-0.110005 0.698108 2.417000 157 125 143
-0.110005 0.702339 2.417000 156 124 142
-0.109231 0.701601 2.400000 151 122 142
-0.109231 0.705802 2.400000 146 121 144
-0.108503 0.705270 2.384000 154 121 146
-0.107729 0.704384 2.367000 162 123 150
-0.107001 0.703738 2.351000 159 121 155
-0.106273 0.703036 2.335000 156 121 147
-0.106273 0.707123 2.335000 154 123 140
-0.105590 0.706642 2.320000 153 123 139
-0.104862 0.705802 2.304000 152 121 138
-0.103497 0.700592 2.274000 152 121 141
-0.102814 0.699925 2.259000 150 117 144
-0.101494 0.694844 2.230000 149 115 142
-0.100811 0.694047 2.215000 149 114 141
-0.100174 0.693513 2.201000 149 114 145
-0.099537 0.692930 2.187000 149 115 150
-0.098945 0.692617 2.174000 150 116 144
-0.098308 0.691938 2.160000 147 112 139
-0.097717 0.691532 2.147000 144 110 136
-0.097079 0.690756 2.133000 144 112 134
-0.096488 0.690257 2.120000 143 112 133
-0.095896 0.689713 2.107000 143 110 133
-0.095350 0.689452 2.095000 143 111 131
-0.095350 0.693119 2.095000 144 112 129
-0.094166 0.688139 2.069000 145 109 125
-0.093620 0.687749 2.057000 143 110 122
-0.093074 0.687316 2.045000 141 113 125
-0.091982 0.682788 2.021000 141 109 128
-0.091436 0.682250 2.009000 140 109 126
-0.091436 0.685767 2.009000 138 108 124
-0.090935 0.685510 1.998000 136 111 123
-0.090389 0.684869 1.986000 138 110 123
-0.089888 0.684533 1.975000 141 110 125
-0.089888 0.687990 1.975000 139 106 127
-0.089388 0.687596 1.964000 137 107 125
-0.088841 0.686812 1.952000 136 108 124
-0.088341 0.686340 1.941000 134 107 122
-0.086429 0.674813 1.899000 136 108 120
-0.085929 0.674209 1.888000 137 108 123
-0.085474 0.673925 1.878000 136 102 126
-0.085474 0.677213 1.878000 134 101 126
-0.085018 0.676876 1.868000 136 102 127
-0.084563 0.676505 1.858000 137 106 125
-0.084108 0.676099 1.848000 136 105 123
-0.084108 0.679334 1.848000 135 106 122
-0.083653 0.678876 1.838000 132 100 121
-0.083198 0.678382 1.828000 130 95 115
-0.082333 0.674497 1.809000 129 98 109
-0.082333 0.677664 1.809000 129 101 113
-0.081923 0.677444 1.800000 129 99 118
-0.081059 0.673410 1.781000 130 99 118
-0.081059 0.676528 1.781000 130 100 118
-0.080239 0.672777 1.763000 131 101 119
-0.080239 0.675863 1.763000 129 100 120
-0.079420 0.672017 1.745000 128 100 120
-0.079011 0.671590 1.736000 124 98 120
-0.173956 0.793239 3.975000 198 166 149
-0.168136 0.773424 3.842000 186 161 149
-0.166298 0.771621 3.800000 175 156 149
-0.162709 0.761478 3.718000 173 148 149
-0.161002 0.759931 3.679000 172 140 156
-0.159295 0.758247 3.640000 172 138 163
-0.159295 0.764619 3.640000 172 130 168
-0.157633 0.762942 3.602000 169 122 173
-0.154394 0.753443 3.528000 167 125 170
-0.152862 0.752083 3.493000 169 123 168
-0.151331 0.750601 3.458000 171 122 163
-0.151331 0.756654 3.458000 173 130 158
-0.149799 0.754987 3.423000 176 132 155
-0.149799 0.760979 3.423000 174 132 152
-0.148355 0.759577 3.390000 173 135 157
-0.146911 0.758059 3.357000 172 140 162
-0.145467 0.756426 3.324000 171 141 162
-0.144110 0.755136 3.293000 176 141 162
-0.140084 0.739642 3.201000 181 141 164
-0.137546 0.731743 3.143000 179 139 167
-0.136320 0.730676 3.115000 177 141 166
-0.136320 0.736129 3.115000 176 143 165
-0.135095 0.734916 3.087000 176 141 163
-0.135095 0.740320 3.087000 180 140 162
-0.132732 0.732679 3.033000 184 138 164
-0.131550 0.731419 3.006000 176 137 165
-0.130412 0.730309 2.980000 168 136 166
-0.129318 0.729355 2.955000 170 133 167
-0.129318 0.734527 2.955000 173 133 165
-0.128224 0.733442 2.930000 175 134 164
-0.127130 0.732269 2.905000 177 136 169
-0.126080 0.731263 2.881000 176 141 174
-0.126080 0.736306 2.881000 175 143 173
-0.125029 0.735173 2.857000 175 145 172
-0.124023 0.734216 2.834000 176 142 169
-0.122010 0.727179 2.788000 175 140 167
-0.120041 0.720243 2.743000 175 139 165
-0.119122 0.719494 2.722000 173 140 163
-0.117284 0.713084 2.680000 171 140 161
-0.116364 0.712151 2.659000 171 140 159
-0.116364 0.716805 2.659000 171 134 159
-0.115489 0.716033 2.639000 167 132 160
-0.114614 0.715191 2.619000 163 129 158
-0.114614 0.719776 2.619000 174 128 157
-0.113739 0.718829 2.599000 185 152 166
-0.112907 0.718090 2.580000 184 186 175
-0.111244 0.711963 2.542000 184 147 166
-0.110413 0.711058 2.523000 169 129 157
-0.109625 0.710371 2.505000 155 130 149
-0.108837 0.709620 2.487000 156 136 141
-0.108050 0.708806 2.469000 158 130 143
-0.107262 0.707929 2.451000 156 126 145
-0.105774 0.702339 2.417000 155 125 145
-0.105030 0.701601 2.400000 147 124 145
-0.105030 0.705802 2.400000 140 122 146
-0.104330 0.705270 2.384000 153 118 147
-0.103586 0.704384 2.367000 167 120 149
-0.102886 0.703738 2.351000 162 121 151
-0.102185 0.703036 2.335000 158 121 146
-0.102185 0.707123 2.335000 155 124 141
-0.101529 0.706642 2.320000 153 123 137
-0.100829 0.705802 2.304000 154 123 133
-0.099516 0.700592 2.274000 155 118 137
-0.098203 0.695278 2.244000 152 115 142
-0.097590 0.694844 2.230000 149 114 140
-0.096934 0.694047 2.215000 149 112 137
-0.096321 0.693513 2.201000 150 115 140
-0.095709 0.692930 2.187000 149 118 144
-0.095140 0.692617 2.174000 148 115 141
-0.094527 0.691938 2.160000 145 111 139
-0.093958 0.691532 2.147000 143 111 137
-0.093345 0.690756 2.133000 143 115 135
-0.092777 0.690257 2.120000 143 112 134
-0.092777 0.693968 2.120000 144 111 134
-0.092208 0.693401 2.107000 145 113 133
-0.091682 0.693119 2.095000 145 118 132
-0.090545 0.688139 2.069000 146 112 128
-0.090019 0.687749 2.057000 144 110 125
-0.089494 0.687316 2.045000 143 111 126
-0.089494 0.690896 2.045000 141 110 128
-0.088444 0.686326 2.021000 139 107 126
-0.087919 0.685767 2.009000 135 106 125
-0.087437 0.685510 1.998000 131 110 125
-0.086912 0.684869 1.986000 136 113 125
-0.086431 0.684533 1.975000 141 109 128
-0.086431 0.687990 1.975000 139 106 132
-0.085950 0.687596 1.964000 138 106 129
-0.085424 0.686812 1.952000 137 107 126
-0.084943 0.686340 1.941000 137 106 124
-0.084024 0.682275 1.920000 143 109 122
-0.082624 0.674209 1.888000 149 107 123
-0.082186 0.673925 1.878000 143 101 124
-0.081748 0.673607 1.868000 138 102 126
-0.081311 0.673253 1.858000 139 102 128
-0.081311 0.676505 1.858000 141 103 126
-0.080873 0.676099 1.848000 137 104 124
-0.080873 0.679334 1.848000 134 103 124
-0.080435 0.678876 1.838000 132 100 125
-0.079998 0.678382 1.828000 131 98 118
-0.079166 0.674497 1.809000 131 99 112
-0.079166 0.677664 1.809000 131 101 113
-0.078773 0.677444 1.800000 130 102 114
-0.077941 0.673410 1.781000 129 100 115
-0.077547 0.673109 1.772000 129 100 117
-0.077153 0.672777 1.763000 129 100 118
-0.076759 0.672413 1.754000 129 102 119
-0.076366 0.672017 1.745000 129 98 118
-0.075972 0.671590 1.736000 127 96 118
-0.166998 0.793239 3.975000 186 119 165
-0.161410 0.773424 3.842000 180 137 164
-0.159646 0.771621 3.800000 174 138 159
-0.156201 0.761478 3.718000 175 140 155
-0.154562 0.759931 3.679000 177 137 162
-0.152924 0.758247 3.640000 179 138 169
-0.152924 0.764619 3.640000 182 141 175
-0.151327 0.762942 3.602000 178 135 181
-0.149773 0.761345 3.565000 175 140 176
-0.146748 0.752083 3.493000 175 135 171
-0.146748 0.758198 3.493000 175 141 168
-0.145278 0.756654 3.458000 176 138 165
-0.145278 0.762707 3.458000 178 141 164
-0.145278 0.768760 3.458000 177 139 163
-0.143807 0.766971 3.423000 177 142 164
-0.141034 0.758059 3.357000 176 142 165
-0.139648 0.756426 3.324000 175 144 165
-0.138346 0.755136 3.293000 178 145 165
-0.132674 0.729707 3.158000 181 144 166
-0.130867 0.725224 3.115000 176 141 168
-0.130867 0.730676 3.115000 172 142 166
-0.130867 0.736129 3.115000 173 141 165
-0.129691 0.734916 3.087000 174 142 164
-0.129691 0.740320 3.087000 177 140 163
-0.128515 0.738960 3.059000 180 139 164
-0.126288 0.731419 3.006000 176 139 166
-0.125196 0.730309 2.980000 173 139 166
-0.124146 0.729355 2.955000 174 135 166
-0.124146 0.734527 2.955000 175 133 162
-0.123095 0.733442 2.930000 175 134 158
-0.122045 0.732269 2.905000 175 135 163
-0.121037 0.731263 2.881000 175 139 169
-0.121037 0.736306 2.881000 175 141 171
-0.120028 0.735173 2.857000 174 142 173
-0.119062 0.734216 2.834000 174 143 170
-0.117130 0.727179 2.788000 177 140 167
-0.115239 0.720243 2.743000 180 138 166
-0.114357 0.719494 2.722000 176 139 165
-0.112592 0.713084 2.680000 172 141 162
-0.112592 0.717775 2.680000 171 136 160
-0.111710 0.716805 2.659000 171 131 160
-0.110870 0.716033 2.639000 169 131 161
-0.110030 0.715191 2.619000 167 128 159
-0.110030 0.719776 2.619000 175 130 158
-0.109189 0.718829 2.599000 184 139 165
-0.108391 0.718090 2.580000 181 152 173
-0.106795 0.711963 2.542000 177 131 166
-0.105996 0.711058 2.523000 166 131 159
-0.105240 0.710371 2.505000 154 135 154
-0.104484 0.709620 2.487000 155 134 149
-0.102971 0.703638 2.451000 157 132 148
-0.101543 0.698108 2.417000 156 129 148
-0.101543 0.702339 2.417000 155 128 148
-0.100829 0.701601 2.400000 151 125 148
-0.100829 0.705802 2.400000 147 125 148
-0.100157 0.705270 2.384000 155 121 148
-0.099442 0.704384 2.367000 163 120 147
-0.098770 0.703738 2.351000 160 120 147
-0.098098 0.703036 2.335000 156 120 144
-0.098098 0.707123 2.335000 154 121 142
-0.096796 0.701769 2.304000 153 122 135
-0.096796 0.705802 2.304000 153 120 128
-0.095535 0.700592 2.274000 153 115 134
-0.094905 0.699925 2.259000 151 115 141
-0.093687 0.694844 2.230000 149 115 137
-0.093057 0.694047 2.215000 149 116 134
-0.092468 0.693513 2.201000 149 117 136
-0.091880 0.692930 2.187000 150 118 138
-0.091334 0.692617 2.174000 151 118 139
-0.091334 0.696423 2.174000 147 112 140
-0.090746 0.695719 2.160000 143 110 138
-0.090200 0.695290 2.147000 143 112 137
-0.089612 0.694490 2.133000 143 113 136
-0.089066 0.693968 2.120000 144 112 135
-0.088519 0.693401 2.107000 145 113 135
-0.088519 0.697090 2.107000 147 114 135
-0.086923 0.688139 2.069000 149 114 131
-0.086419 0.687749 2.057000 146 111 128
-0.085915 0.687316 2.045000 143 111 128
-0.085410 0.686842 2.033000 142 107 129
-0.084906 0.686326 2.021000 140 103 127
-0.083940 0.682012 1.998000 139 107 126
-0.083436 0.681393 1.986000 138 112 126
-0.083436 0.684869 1.986000 139 112 127
-0.082974 0.684533 1.975000 141 109 132
-0.082512 0.684159 1.964000 139 107 137
-0.082512 0.687596 1.964000 138 106 132
-0.082007 0.686812 1.952000 137 104 128
-0.081545 0.686340 1.941000 137 104 126
-0.080663 0.682275 1.920000 140 107 124
-0.079319 0.674209 1.888000 144 110 123
-0.078899 0.673925 1.878000 139 106 123
-0.078478 0.673607 1.868000 135 105 126
-0.078478 0.676876 1.868000 136 102 129
-0.078058 0.676505 1.858000 138 101 127
-0.077638 0.676099 1.848000 135 103 125
-0.077638 0.679334 1.848000 133 103 127
-0.077218 0.678876 1.838000 132 101 129
-0.076798 0.678382 1.828000 131 99 122
-0.076000 0.674497 1.809000 133 100 115
-0.076000 0.677664 1.809000 134 102 113
-0.075622 0.677444 1.800000 128 101 111
-0.074445 0.670007 1.772000 123 100 113
-0.074445 0.673109 1.772000 126 99 116
-0.074067 0.672777 1.763000 129 100 117
-0.073689 0.672413 1.754000 130 98 119
-0.073311 0.672017 1.745000 132 96 117
-0.073311 0.675072 1.745000 129 96 116
-0.158228 0.784259 3.930000 175 130 168
-0.156416 0.782080 3.885000 174 132 167
-0.154685 0.780149 3.842000 173 138 165
-0.149692 0.761478 3.718000 177 139 163
-0.148122 0.759931 3.679000 182 139 165
-0.146552 0.758247 3.640000 187 137 168
-0.146552 0.764619 3.640000 192 139 171
-0.145022 0.762942 3.602000 187 140 175
-0.143532 0.761345 3.565000 183 139 172
-0.142043 0.759619 3.528000 181 138 168
-0.140633 0.758198 3.493000 180 140 165
-0.139224 0.756654 3.458000 180 142 163
-0.139224 0.762707 3.458000 180 141 164
-0.139224 0.768760 3.458000 180 141 165
-0.137815 0.766971 3.423000 181 142 168
-0.135158 0.758059 3.357000 180 143 171
-0.133829 0.756426 3.324000 180 146 170
-0.125415 0.719771 3.115000 181 144 171
-0.125415 0.725224 3.115000 174 142 174
-0.125415 0.730676 3.115000 167 142 167
-0.125415 0.736129 3.115000 170 140 161
-0.125415 0.741582 3.115000 173 143 162
-0.124287 0.740320 3.087000 175 142 164
-0.123160 0.738960 3.059000 177 140 166
-0.122113 0.737988 3.033000 177 141 168
-0.119979 0.730309 2.980000 178 138 167
-0.118973 0.729355 2.955000 177 135 166
-0.118973 0.734527 2.955000 177 137 165
-0.117966 0.733442 2.930000 175 137 164
-0.116960 0.732269 2.905000 174 137 166
-0.116960 0.737355 2.905000 175 139 169
-0.115993 0.736306 2.881000 176 142 173
-0.115027 0.735173 2.857000 174 140 178
-0.114101 0.734216 2.834000 172 141 173
-0.112249 0.727179 2.788000 178 141 169
-0.110437 0.720243 2.743000 185 139 167
-0.109592 0.719494 2.722000 179 139 166
-0.108746 0.718672 2.701000 173 139 164
-0.107901 0.717775 2.680000 172 135 163
-0.107055 0.716805 2.659000 172 133 163
-0.106250 0.716033 2.639000 171 133 163
-0.105445 0.715191 2.619000 171 128 163
-0.104640 0.714279 2.599000 177 125 163
-0.103875 0.713574 2.580000 184 144 171
-0.103875 0.718090 2.580000 177 153 179
-0.103069 0.717005 2.560000 171 137 166
-0.102345 0.716413 2.542000 162 129 154
-0.101580 0.715475 2.523000 154 132 153
-0.100855 0.714756 2.505000 155 133 152
-0.098681 0.703638 2.451000 156 132 151
-0.097312 0.698108 2.417000 156 131 150
-0.097312 0.702339 2.417000 156 128 148
-0.096628 0.701601 2.400000 155 125 147
-0.096628 0.705802 2.400000 155 124 146
-0.095983 0.705270 2.384000 157 124 146
-0.095299 0.704384 2.367000 160 122 146
-0.094655 0.703738 2.351000 157 121 147
-0.094011 0.703036 2.335000 155 121 148
-0.094011 0.707123 2.335000 154 120 150
-0.092762 0.701769 2.304000 153 121 143
-0.092762 0.705802 2.304000 152 121 136
-0.091555 0.700592 2.274000 152 118 142
-0.090951 0.699925 2.259000 150 116 149
-0.090347 0.699206 2.244000 149 119 143
-0.089179 0.694047 2.215000 149 121 137
-0.088616 0.693513 2.201000 149 119 136
-0.088052 0.692930 2.187000 151 119 136
-0.087528 0.692617 2.174000 154 117 136
-0.087528 0.696423 2.174000 149 112 137
-0.086965 0.695719 2.160000 144 113 137
-0.086441 0.695290 2.147000 143 113 138
-0.085878 0.694490 2.133000 143 113 137
-0.085354 0.693968 2.120000 144 111 135
-0.084831 0.693401 2.107000 145 113 137
-0.084348 0.693119 2.095000 149 114 139
-0.083301 0.688139 2.069000 153 113 131
-0.082818 0.687749 2.057000 148 111 124
-0.082335 0.687316 2.045000 144 110 129
-0.081852 0.686842 2.033000 143 105 134
-0.081368 0.686326 2.021000 142 105 131
-0.080442 0.682012 1.998000 144 109 128
-0.079959 0.681393 1.986000 146 112 126
-0.079959 0.684869 1.986000 143 114 125
-0.079516 0.684533 1.975000 141 110 129
-0.079074 0.684159 1.964000 140 108 134
-0.079074 0.687596 1.964000 139 105 131
-0.078590 0.686812 1.952000 138 100 129
-0.078148 0.686340 1.941000 137 103 127
-0.077302 0.682275 1.920000 138 106 124
-0.076457 0.678137 1.899000 139 108 122
-0.076014 0.677514 1.888000 136 110 119
-0.075611 0.677213 1.878000 133 106 123
-0.075208 0.676876 1.868000 134 101 127
-0.074806 0.676505 1.858000 135 103 124
-0.074403 0.676099 1.848000 134 107 121
-0.074403 0.679334 1.848000 133 104 123
-0.074001 0.678876 1.838000 132 102 126
-0.073598 0.678382 1.828000 132 100 120
-0.073236 0.678226 1.819000 135 100 115
-0.072833 0.677664 1.809000 138 100 111
-0.072471 0.677444 1.800000 127 100 108
-0.071343 0.670007 1.772000 117 99 112
-0.071343 0.673109 1.772000 123 98 115
-0.070981 0.672777 1.763000 130 99 118
-0.070619 0.672413 1.754000 132 97 120
-0.069894 0.668551 1.736000 135 96 117
-0.070256 0.675072 1.745000 131 97 114
-0.153081 0.786281 3.975000 176 141 172
-0.151348 0.784259 3.930000 177 143 171
-0.149615 0.782080 3.885000 176 140 171
-0.149615 0.788881 3.885000 176 144 171
-0.144763 0.769875 3.759000 179 142 171
-0.143184 0.767987 3.718000 182 143 169
-0.141682 0.766371 3.679000 186 140 167
-0.140180 0.764619 3.640000 189 139 168
-0.138717 0.762942 3.602000 185 139 170
-0.137292 0.761345 3.565000 181 140 168
-0.135867 0.759619 3.528000 180 139 166
-0.134519 0.758198 3.493000 179 139 163
-0.133171 0.756654 3.458000 178 140 161
-0.133171 0.762707 3.458000 178 141 164
-0.133171 0.768760 3.458000 179 141 168
-0.133171 0.774813 3.458000 180 142 173
-0.129281 0.758059 3.357000 179 144 178
-0.128011 0.756426 3.324000 179 146 175
-0.119962 0.719771 3.115000 180 138 176
-0.119962 0.725224 3.115000 175 141 180
-0.121040 0.737244 3.143000 169 145 169
-0.119962 0.736129 3.115000 171 144 158
-0.119962 0.741582 3.115000 173 151 161
-0.118884 0.740320 3.087000 175 144 165
-0.117805 0.738960 3.059000 177 141 167
-0.116804 0.737988 3.033000 178 139 170
-0.114763 0.730309 2.980000 180 139 168
-0.114763 0.735525 2.980000 178 141 167
-0.113800 0.734527 2.955000 177 146 168
-0.113800 0.739700 2.955000 177 141 170
-0.111874 0.732269 2.905000 177 140 170
-0.111874 0.737355 2.905000 178 145 170
-0.110950 0.736306 2.881000 180 150 176
-0.110026 0.735173 2.857000 177 143 183
-0.110026 0.740175 2.857000 175 141 177
-0.107369 0.727179 2.788000 178 141 171
-0.104827 0.714729 2.722000 181 141 169
-0.104827 0.719494 2.722000 176 140 168
-0.104018 0.718672 2.701000 172 141 167
-0.103210 0.717775 2.680000 171 137 166
-0.102401 0.716805 2.659000 171 136 165
-0.101631 0.716033 2.639000 168 133 165
-0.100860 0.715191 2.619000 165 128 167
-0.100090 0.714279 2.599000 179 136 169
-0.099358 0.713574 2.580000 193 162 177
-0.099358 0.718090 2.580000 182 156 185
-0.098588 0.717005 2.560000 172 135 167
-0.097895 0.716413 2.542000 165 132 150
-0.097163 0.715475 2.523000 159 134 152
-0.096470 0.714756 2.505000 158 133 155
-0.094391 0.703638 2.451000 158 133 153
-0.093736 0.703018 2.434000 157 130 152
-0.093736 0.707279 2.434000 157 128 149
-0.093081 0.706570 2.417000 157 126 146
-0.092426 0.705802 2.400000 158 125 145
-0.091810 0.705270 2.384000 158 123 144
-0.091156 0.704384 2.367000 159 124 146
-0.090539 0.703738 2.351000 157 123 148
-0.089923 0.703036 2.335000 156 124 153
-0.089346 0.702581 2.320000 155 122 158
-0.088729 0.701769 2.304000 154 123 151
-0.088152 0.701207 2.289000 152 122 144
-0.087574 0.700592 2.274000 151 121 151
-0.086996 0.699925 2.259000 147 121 158
-0.085880 0.694844 2.230000 143 125 149
-0.085302 0.694047 2.215000 146 122 140
-0.084763 0.693513 2.201000 148 122 137
-0.084224 0.692930 2.187000 150 121 134
-0.083723 0.692617 2.174000 151 122 134
-0.083723 0.696423 2.174000 148 117 134
-0.083184 0.695719 2.160000 145 117 137
-0.082683 0.695290 2.147000 145 115 140
-0.082144 0.694490 2.133000 145 116 138
-0.082144 0.698224 2.133000 145 114 136
-0.081643 0.697679 2.120000 145 115 140
-0.080681 0.693119 2.095000 146 115 144
-0.079679 0.688139 2.069000 148 116 132
-0.079217 0.687749 2.057000 145 114 120
-0.078755 0.687316 2.045000 143 116 129
-0.078755 0.690896 2.045000 142 107 139
-0.078293 0.690401 2.033000 141 103 135
-0.076945 0.682012 1.998000 142 108 131
-0.076483 0.681393 1.986000 142 115 127
-0.076483 0.684869 1.986000 141 113 123
-0.076059 0.684533 1.975000 140 112 127
-0.076059 0.687990 1.975000 141 109 131
-0.075636 0.687596 1.964000 142 109 131
-0.075174 0.686812 1.952000 139 106 131
-0.074750 0.686340 1.941000 136 103 128
-0.073941 0.682275 1.920000 137 106 125
-0.073132 0.678137 1.899000 138 108 120
-0.072709 0.677514 1.888000 135 108 116
-0.072324 0.677213 1.878000 133 111 120
-0.072324 0.680500 1.878000 133 105 125
-0.071553 0.676505 1.858000 133 105 121
-0.071168 0.676099 1.848000 130 106 118
-0.070783 0.675658 1.838000 128 107 120
-0.070783 0.678876 1.838000 129 103 123
-0.070783 0.682093 1.838000 130 101 119
-0.069666 0.674497 1.809000 131 101 115
-0.069666 0.677664 1.809000 133 101 110
-0.069320 0.677444 1.800000 128 100 106
-0.068588 0.673410 1.781000 123 99 110
-0.068242 0.673109 1.772000 126 101 115
-0.067895 0.672777 1.763000 130 103 118
-0.067202 0.668962 1.745000 131 98 122
-0.066855 0.668551 1.736000 133 97 117
-0.066855 0.671590 1.736000 130 98 112
-0.146123 0.779323 3.975000 180 143 171
-0.146123 0.786281 3.975000 179 146 174
-0.144469 0.784259 3.930000 179 144 173
-0.142815 0.782080 3.885000 179 143 172
-0.141234 0.780149 3.842000 179 143 173
-0.138183 0.769875 3.759000 181 144 174
-0.136676 0.767987 3.718000 183 143 171
-0.135242 0.766371 3.679000 185 141 169
-0.133808 0.764619 3.640000 187 140 170
-0.133808 0.770990 3.640000 183 140 171
-0.132411 0.769247 3.602000 180 140 169
-0.129691 0.759619 3.528000 179 140 167
-0.128405 0.758198 3.493000 178 140 166
-0.128405 0.764312 3.493000 177 141 164
-0.127118 0.762707 3.458000 176 140 166
-0.127118 0.768760 3.458000 177 141 167
-0.127118 0.774813 3.458000 179 142 167
-0.123405 0.758059 3.357000 179 147 168
-0.122192 0.756426 3.324000 179 144 170
-0.114509 0.719771 3.115000 180 139 174
-0.114509 0.725224 3.115000 176 141 176
-0.114509 0.730676 3.115000 172 142 168
-0.114509 0.736129 3.115000 173 143 160
-0.114509 0.741582 3.115000 174 143 163
-0.113480 0.740320 3.087000 176 144 166
-0.113480 0.745724 3.087000 178 141 170
-0.111495 0.737988 3.033000 180 138 174
-0.109546 0.730309 2.980000 182 140 171
-0.109546 0.735525 2.980000 180 144 168
-0.108627 0.734527 2.955000 178 144 171
-0.107708 0.733442 2.930000 179 141 173
-0.106789 0.732269 2.905000 180 144 172
-0.106789 0.737355 2.905000 182 153 170
-0.105907 0.736306 2.881000 184 148 174
-0.105025 0.735173 2.857000 181 143 177
-0.102488 0.722299 2.788000 178 140 174
-0.101643 0.721180 2.765000 177 143 172
-0.100834 0.720243 2.743000 177 142 170
-0.099290 0.713943 2.701000 174 142 168
-0.099290 0.718672 2.701000 172 140 167
-0.098518 0.717775 2.680000 171 137 166
-0.097746 0.716805 2.659000 170 135 166
-0.097011 0.716033 2.639000 164 135 166
-0.096276 0.715191 2.619000 159 132 167
-0.096276 0.719776 2.619000 180 132 169
-0.095541 0.718829 2.599000 202 157 174
-0.094842 0.718090 2.580000 187 176 180
-0.094107 0.717005 2.560000 173 145 165
-0.092747 0.711058 2.523000 168 131 151
-0.092085 0.710371 2.505000 164 132 153
-0.091423 0.709620 2.487000 162 132 155
-0.090762 0.708806 2.469000 161 131 153
-0.090100 0.707929 2.451000 159 130 151
-0.089475 0.707279 2.434000 158 128 148
-0.088850 0.706570 2.417000 159 127 146
-0.088225 0.705802 2.400000 161 125 145
-0.087637 0.705270 2.384000 160 122 144
-0.087012 0.704384 2.367000 159 122 144
-0.086424 0.703738 2.351000 158 123 145
-0.085836 0.703036 2.335000 157 123 148
-0.085836 0.707123 2.335000 156 124 151
-0.085284 0.706642 2.320000 155 123 146
-0.084696 0.705802 2.304000 152 123 141
-0.083593 0.700592 2.274000 150 122 146
-0.083042 0.699925 2.259000 144 124 151
-0.081976 0.694844 2.230000 138 123 145
-0.081425 0.694047 2.215000 143 121 139
-0.080910 0.693513 2.201000 148 122 137
-0.080395 0.692930 2.187000 148 123 135
-0.079917 0.692617 2.174000 149 121 135
-0.079917 0.696423 2.174000 147 120 136
-0.079403 0.695719 2.160000 146 117 139
-0.078925 0.695290 2.147000 146 115 143
-0.078410 0.694490 2.133000 147 115 137
-0.078410 0.698224 2.133000 146 116 132
-0.077932 0.697679 2.120000 145 116 135
-0.077013 0.693119 2.095000 144 117 139
-0.076058 0.688139 2.069000 143 116 132
-0.075616 0.687749 2.057000 142 116 125
-0.075175 0.687316 2.045000 142 112 130
-0.074734 0.686842 2.033000 141 105 135
-0.073852 0.682250 2.009000 141 106 133
-0.073448 0.682012 1.998000 140 107 130
-0.073006 0.681393 1.986000 139 111 128
-0.073006 0.684869 1.986000 139 113 127
-0.072602 0.684533 1.975000 139 112 132
-0.072198 0.684159 1.964000 142 108 137
-0.072198 0.687596 1.964000 146 110 134
-0.071757 0.686812 1.952000 141 113 132
-0.071352 0.686340 1.941000 136 108 129
-0.070580 0.682275 1.920000 137 108 127
-0.069808 0.678137 1.899000 138 108 124
-0.069404 0.677514 1.888000 135 104 121
-0.069036 0.677213 1.878000 133 104 123
-0.069036 0.680500 1.878000 132 104 126
-0.068301 0.676505 1.858000 132 105 119
-0.067933 0.676099 1.848000 127 107 113
-0.067566 0.675658 1.838000 123 106 118
-0.067566 0.678876 1.838000 126 103 122
-0.067566 0.682093 1.838000 129 102 120
-0.066500 0.674497 1.809000 128 103 118
-0.066169 0.674293 1.800000 128 101 114
-0.066169 0.677444 1.800000 128 101 111
-0.066169 0.680595 1.800000 129 101 113
-0.065140 0.673109 1.772000 130 104 114
-0.064809 0.672777 1.763000 131 101 116
-0.064147 0.668962 1.745000 131 97 118
-0.063816 0.668551 1.736000 131 96 117
-0.063816 0.671590 1.736000 129 98 116
-0.139165 0.779323 3.975000 181 143 173
-0.139165 0.786281 3.975000 181 145 177
-0.137589 0.784259 3.930000 181 146 175
-0.136014 0.782080 3.885000 180 144 173
-0.134508 0.780149 3.842000 180 144 175
-0.131603 0.769875 3.759000 182 144 177
-0.130167 0.767987 3.718000 183 145 174
-0.128802 0.766371 3.679000 184 143 171
-0.127436 0.764619 3.640000 185 142 171
-0.127436 0.770990 3.640000 180 141 172
-0.126106 0.769247 3.602000 174 141 170
-0.123515 0.759619 3.528000 177 140 169
-0.122290 0.758198 3.493000 179 140 168
-0.122290 0.764312 3.493000 180 140 168
-0.121065 0.762707 3.458000 182 137 167
-0.121065 0.768760 3.458000 181 140 167
-0.119839 0.766971 3.423000 180 141 162
-0.117529 0.758059 3.357000 180 144 158
-0.116373 0.756426 3.324000 180 147 165
-0.109546 0.723006 3.129000 181 141 172
-0.110036 0.731743 3.143000 177 141 173
-0.110036 0.737244 3.143000 173 142 168
-0.109056 0.736129 3.115000 175 140 163
-0.109056 0.741582 3.115000 176 134 165
-0.108076 0.740320 3.087000 177 140 168
-0.108076 0.745724 3.087000 179 143 173
-0.107096 0.744315 3.059000 182 140 178
-0.104330 0.730309 2.980000 185 141 174
-0.104330 0.735525 2.980000 182 146 170
-0.103455 0.734527 2.955000 180 148 173
-0.102579 0.733442 2.930000 179 144 177
-0.101704 0.732269 2.905000 179 144 174
-0.100864 0.731263 2.881000 181 147 171
-0.100024 0.730172 2.857000 182 148 171
-0.100024 0.735173 2.857000 181 142 172
-0.097608 0.722299 2.788000 179 136 172
-0.097608 0.727179 2.788000 178 140 173
-0.096032 0.720243 2.743000 177 145 170
-0.095297 0.719494 2.722000 175 142 168
-0.094562 0.718672 2.701000 173 140 167
-0.093827 0.717775 2.680000 172 136 166
-0.093092 0.716805 2.659000 170 134 166
-0.092391 0.716033 2.639000 168 134 167
-0.092391 0.720653 2.639000 165 133 168
-0.091691 0.719776 2.619000 178 138 169
-0.090991 0.718829 2.599000 190 159 172
-0.090326 0.718090 2.580000 182 161 176
-0.089626 0.717005 2.560000 174 139 164
-0.088995 0.716413 2.542000 170 130 152
-0.087700 0.710371 2.505000 166 132 153
-0.087070 0.709620 2.487000 164 130 155
-0.085810 0.703638 2.451000 161 130 153
-0.085214 0.703018 2.434000 161 129 151
-0.085214 0.707279 2.434000 160 130 148
-0.084619 0.706570 2.417000 164 128 146
-0.084024 0.705802 2.400000 168 127 145
-0.083464 0.705270 2.384000 165 123 145
-0.082869 0.704384 2.367000 161 121 143
-0.082309 0.703738 2.351000 159 122 142
-0.081748 0.703036 2.335000 158 121 143
-0.081748 0.707123 2.335000 157 122 145
-0.081223 0.706642 2.320000 156 123 141
-0.080663 0.705802 2.304000 154 122 138
-0.079613 0.700592 2.274000 153 123 141
-0.079088 0.699925 2.259000 149 123 145
-0.078072 0.694844 2.230000 145 123 142
-0.077547 0.694047 2.215000 146 122 139
-0.077057 0.693513 2.201000 148 123 138
-0.076567 0.692930 2.187000 148 122 137
-0.076567 0.696759 2.187000 148 122 137
-0.076112 0.696423 2.174000 146 120 138
-0.075622 0.695719 2.160000 144 119 142
-0.075166 0.695290 2.147000 146 117 146
-0.075166 0.699048 2.147000 148 115 137
-0.074676 0.698224 2.133000 148 115 128
-0.074221 0.697679 2.120000 149 116 131
-0.073346 0.693119 2.095000 146 115 134
-0.072436 0.688139 2.069000 143 115 132
-0.072016 0.687749 2.057000 143 114 130
-0.071595 0.687316 2.045000 142 112 131
-0.071175 0.686842 2.033000 141 109 132
-0.070755 0.686326 2.021000 141 110 131
-0.070335 0.685767 2.009000 141 110 130
-0.069915 0.685167 1.997000 142 109 130
-0.069530 0.684869 1.986000 138 111 131
-0.069145 0.684533 1.975000 134 115 137
-0.069145 0.687990 1.975000 139 111 144
-0.068760 0.687596 1.964000 144 111 138
-0.068340 0.686812 1.952000 139 113 133
-0.067954 0.686340 1.941000 134 109 131
-0.067219 0.682275 1.920000 137 108 129
-0.066834 0.681708 1.909000 140 112 128
-0.066099 0.677514 1.888000 136 106 127
-0.065749 0.677213 1.878000 132 97 127
-0.065749 0.680500 1.878000 133 103 127
-0.064698 0.672864 1.848000 134 104 118
-0.064698 0.676099 1.848000 131 106 109
-0.064348 0.675658 1.838000 128 108 115
-0.064348 0.678876 1.838000 129 105 122
-0.064348 0.682093 1.838000 129 104 121
-0.063333 0.674497 1.809000 128 103 121
-0.063018 0.674293 1.800000 127 102 119
-0.063018 0.677444 1.800000 128 103 117
-0.063018 0.680595 1.800000 129 103 115
-0.062038 0.673109 1.772000 132 102 114
-0.061723 0.672777 1.763000 135 103 114
-0.061092 0.668962 1.745000 133 99 115
-0.060777 0.668551 1.736000 131 95 117
-0.060777 0.671590 1.736000 130 97 120
-0.132207 0.772365 3.975000 182 144 170
-0.132207 0.779323 3.975000 183 144 172
-0.132207 0.786281 3.975000 183 146 175
-0.130710 0.784259 3.930000 183 145 172
-0.129213 0.782080 3.885000 182 143 170
-0.127783 0.780149 3.842000 182 144 172
-0.126386 0.778273 3.800000 183 143 175
-0.125023 0.776456 3.759000 184 143 171
-0.125023 0.783036 3.759000 184 144 168
-0.122362 0.772811 3.679000 184 142 170
-0.121065 0.770990 3.640000 176 141 172
-0.119801 0.769247 3.602000 169 142 171
-0.117340 0.759619 3.528000 175 142 171
-0.116176 0.758198 3.493000 181 142 172
-0.116176 0.764312 3.493000 184 142 173
-0.115011 0.762707 3.458000 188 142 171
-0.113847 0.760979 3.423000 184 143 169
-0.112750 0.759577 3.390000 181 142 168
-0.111652 0.758059 3.357000 181 143 167
-0.110555 0.756426 3.324000 182 145 170
-0.104535 0.726241 3.143000 183 140 173
-0.104535 0.731743 3.143000 179 140 173
-0.104535 0.737244 3.143000 175 141 169
-0.103603 0.736129 3.115000 177 142 165
-0.103603 0.741582 3.115000 179 139 167
-0.102672 0.740320 3.087000 179 140 168
-0.102672 0.745724 3.087000 180 141 172
-0.101741 0.744315 3.059000 184 140 175
-0.099113 0.730309 2.980000 188 142 172
-0.099113 0.735525 2.980000 185 152 170
-0.098282 0.734527 2.955000 182 147 172
-0.097450 0.733442 2.930000 180 143 175
-0.096619 0.732269 2.905000 179 142 173
-0.095821 0.731263 2.881000 180 146 171
-0.095022 0.730172 2.857000 181 145 172
-0.094258 0.729255 2.834000 181 141 172
-0.092728 0.722299 2.788000 181 139 172
-0.092728 0.727179 2.788000 179 139 173
-0.091231 0.720243 2.743000 177 142 170
-0.090532 0.719494 2.722000 176 141 168
-0.089834 0.718672 2.701000 175 138 168
-0.089136 0.717775 2.680000 173 135 168
-0.088437 0.716805 2.659000 171 135 167
-0.087772 0.716033 2.639000 171 136 166
-0.087772 0.720653 2.639000 172 134 166
-0.087107 0.719776 2.619000 175 130 165
-0.086442 0.718829 2.599000 179 147 166
-0.085810 0.718090 2.580000 177 172 168
-0.085144 0.717005 2.560000 176 136 161
-0.084546 0.716413 2.542000 172 121 155
-0.083914 0.715475 2.523000 169 127 155
-0.083315 0.714756 2.505000 165 129 155
-0.082118 0.708806 2.469000 162 129 153
-0.080954 0.703018 2.434000 162 129 152
-0.080954 0.707279 2.434000 163 129 150
-0.080388 0.706570 2.417000 169 129 148
-0.079823 0.705802 2.400000 176 126 147
-0.079291 0.705270 2.384000 170 122 146
-0.078725 0.704384 2.367000 164 122 145
-0.078193 0.703738 2.351000 161 125 144
-0.077661 0.703036 2.335000 159 123 144
-0.077661 0.707123 2.335000 158 123 145
-0.077162 0.706642 2.320000 157 122 144
-0.076630 0.705802 2.304000 156 120 144
-0.075632 0.700592 2.274000 156 121 146
-0.075133 0.699925 2.259000 154 123 147
-0.074634 0.699206 2.244000 152 122 144
-0.073670 0.694047 2.215000 150 122 140
-0.073204 0.693513 2.201000 148 121 139
-0.073204 0.697366 2.201000 147 120 139
-0.072739 0.696759 2.187000 147 120 138
-0.072306 0.696423 2.174000 144 119 137
-0.071841 0.695719 2.160000 142 119 139
-0.071841 0.699500 2.160000 145 120 142
-0.071408 0.699048 2.147000 149 116 137
-0.070943 0.698224 2.133000 151 114 132
-0.070510 0.697679 2.120000 154 114 134
-0.069246 0.688818 2.082000 149 115 135
-0.068814 0.688139 2.069000 144 115 132
-0.068016 0.683737 2.045000 143 115 129
-0.067617 0.683283 2.033000 143 113 130
-0.067617 0.686842 2.033000 142 111 130
-0.067218 0.686326 2.021000 141 113 128
-0.067218 0.689863 2.021000 143 116 126
-0.066818 0.689284 2.009000 145 111 128
