ply
format ascii 1.0
element vertex 1195
property float x
property float y
property float z
property uchar red
property uchar green
property uchar blue
end_header
1.030922 0.779603 2.930000 213 195 221
1.022126 0.778036 2.905000 211 201 223
1.022126 0.783121 2.905000 210 190 221
1.013681 0.781695 2.881000 210 185 219
1.013681 0.786738 2.881000 211 185 217
1.005237 0.785185 2.857000 209 189 216
0.980959 0.771102 2.788000 208 178 216
0.972867 0.769581 2.765000 205 179 217
0.965126 0.768260 2.743000 203 173 216
0.957737 0.767143 2.722000 202 161 215
0.950348 0.765952 2.701000 202 168 211
0.950348 0.770681 2.701000 199 180 206
0.942959 0.769380 2.680000 196 175 205
0.935570 0.768006 2.659000 195 173 204
0.921497 0.761037 2.619000 195 174 204
0.914459 0.759775 2.599000 195 177 205
0.907774 0.758737 2.580000 196 177 203
0.900737 0.757336 2.560000 195 179 201
0.894404 0.756461 2.542000 194 173 202
0.894404 0.760911 2.542000 198 171 203
0.881386 0.754221 2.505000 202 165 195
0.868719 0.747703 2.469000 191 167 188
0.856404 0.741365 2.434000 181 163 186
0.850423 0.740418 2.417000 178 158 183
0.844441 0.739411 2.400000 175 154 178
0.844441 0.743613 2.400000 173 153 174
0.838812 0.742828 2.384000 171 142 160
0.832830 0.741675 2.367000 151 129 147
0.827201 0.740777 2.351000 131 117 130
0.821571 0.739823 2.335000 131 96 114
0.816293 0.739131 2.320000 132 106 113
0.816293 0.743192 2.320000 130 115 112
0.810664 0.742100 2.304000 128 116 112
0.694905 0.712191 1.975000 156 141 154
0.691034 0.711662 1.964000 159 132 165
0.686812 0.710731 1.952000 162 139 169
0.686812 0.714148 1.952000 163 144 173
0.682942 0.713521 1.941000 165 141 176
0.679423 0.713226 1.931000 169 142 180
0.675553 0.712524 1.920000 173 143 178
0.675553 0.715885 1.920000 168 150 177
0.671683 0.715125 1.909000 164 150 185
0.668164 0.714703 1.899000 167 152 194
0.664294 0.713868 1.888000 171 149 191
0.660775 0.713374 1.878000 170 148 188
0.653738 0.709030 1.858000 169 149 195
0.646701 0.704615 1.838000 171 150 202
0.646701 0.707832 1.838000 173 152 199
0.643183 0.707181 1.828000 180 156 197
0.643183 0.710381 1.828000 187 156 198
1.389652 0.825536 3.930000 218 201 200
1.373740 0.822884 3.885000 216 196 211
1.373740 0.829685 3.885000 215 186 207
1.373740 0.836485 3.885000 214 190 203
1.373740 0.843286 3.885000 214 196 203
1.343684 0.831488 3.800000 210 188 203
1.329186 0.829096 3.759000 207 180 191
1.314689 0.826562 3.718000 207 182 179
1.273671 0.819689 3.602000 212 201 209
1.273671 0.825995 3.602000 211 196 220
1.260588 0.823750 3.565000 211 194 220
1.260588 0.829991 3.565000 213 192 220
1.260588 0.836231 3.565000 215 187 217
1.260588 0.842472 3.565000 212 190 214
1.247504 0.839904 3.528000 210 186 214
1.175370 0.797157 3.324000 207 183 214
1.175370 0.802975 3.324000 204 177 208
1.164408 0.801251 3.293000 204 185 203
1.164408 0.807016 3.293000 205 193 208
1.142485 0.797477 3.231000 211 192 213
1.131877 0.795676 3.201000 217 193 216
1.131877 0.801279 3.201000 216 195 220
1.121623 0.799573 3.172000 215 202 224
1.111368 0.797764 3.143000 215 201 229
1.027211 0.772951 2.905000 216 200 225
1.027211 0.778036 2.905000 214 195 230
1.027211 0.783121 2.905000 211 197 225
1.018725 0.781695 2.881000 211 191 221
1.018725 0.786738 2.881000 212 186 220
1.010238 0.785185 2.857000 210 185 219
0.985840 0.771102 2.788000 208 177 219
0.977707 0.769581 2.765000 206 181 219
0.962502 0.762378 2.722000 205 182 219
0.955076 0.761224 2.701000 203 174 219
0.955076 0.765952 2.701000 202 165 213
0.947651 0.764689 2.680000 200 178 208
0.947651 0.769380 2.680000 199 180 211
0.940225 0.768006 2.659000 197 177 214
0.919009 0.755225 2.599000 196 176 212
0.919009 0.759775 2.599000 197 175 210
0.912291 0.758737 2.580000 199 179 210
0.898854 0.752011 2.542000 198 181 211
0.898854 0.756461 2.542000 197 183 212
0.892135 0.755224 2.523000 198 175 214
0.892135 0.759640 2.523000 200 166 201
0.879406 0.753155 2.487000 193 170 188
0.873041 0.752026 2.469000 186 168 187
0.854654 0.740418 2.417000 179 161 186
0.848643 0.739411 2.400000 173 158 181
0.848643 0.743613 2.400000 173 156 176
0.842985 0.742828 2.384000 173 152 159
0.836974 0.741675 2.367000 155 138 142
0.836974 0.745818 2.367000 136 123 128
0.831316 0.744892 2.351000 137 108 115
0.825658 0.743910 2.335000 138 112 116
0.820354 0.743192 2.320000 139 111 117
0.820354 0.747254 2.320000 140 121 120
0.698362 0.712191 1.975000 155 136 148
0.694472 0.711662 1.964000 159 136 161
0.694472 0.715100 1.964000 163 134 165
0.690229 0.714148 1.952000 164 139 169
0.686340 0.713521 1.941000 165 142 175
0.682804 0.713226 1.931000 167 144 182
0.682804 0.716606 1.931000 168 143 183
0.678914 0.715885 1.920000 166 149 185
0.675024 0.715125 1.909000 164 149 193
0.671488 0.714703 1.899000 166 149 201
0.667599 0.713868 1.888000 168 148 198
0.664063 0.713374 1.878000 165 148 196
0.660527 0.712846 1.868000 163 151 199
0.653455 0.708449 1.848000 167 150 203
0.649919 0.707832 1.838000 171 151 199
0.649919 0.711050 1.838000 175 154 196
0.646383 0.710381 1.828000 180 155 197
1.380541 0.816083 3.885000 228 196 200
1.365260 0.813776 3.842000 223 203 210
1.380541 0.829685 3.885000 218 196 207
1.380541 0.836485 3.885000 216 197 204
1.365260 0.833952 3.842000 215 195 204
1.350336 0.831488 3.800000 213 193 204
1.335766 0.829096 3.759000 211 186 197
1.321197 0.826562 3.718000 210 184 191
1.321197 0.833070 3.718000 209 188 195
1.321197 0.839578 3.718000 215 194 198
1.307338 0.837212 3.679000 221 199 209
1.279976 0.825995 3.602000 220 199 219
1.266828 0.823750 3.565000 220 197 219
1.266828 0.829991 3.565000 219 200 219
1.253680 0.827552 3.528000 218 196 216
1.253680 0.833728 3.528000 217 201 212
1.253680 0.839904 3.528000 217 191 214
1.253680 0.846080 3.528000 213 187 215
1.228806 0.835346 3.458000 209 187 210
1.170173 0.801251 3.293000 212 193 206
1.159157 0.799419 3.262000 215 193 210
1.148141 0.797477 3.231000 215 195 215
1.137480 0.795676 3.201000 215 197 220
1.137480 0.801279 3.201000 217 188 225
1.137480 0.806883 3.201000 219 201 226
1.127175 0.805125 3.172000 217 204 228
1.032296 0.772951 2.905000 220 207 232
1.032296 0.778036 2.905000 216 185 231
1.023768 0.776652 2.881000 213 193 225
1.023768 0.781695 2.881000 213 196 219
1.023768 0.786738 2.881000 213 191 220
1.015239 0.785185 2.857000 211 188 222
0.998538 0.777187 2.810000 209 186 220
0.990720 0.775983 2.788000 208 189 218
0.967267 0.762378 2.722000 207 188 217
0.959805 0.761224 2.701000 204 190 216
0.959805 0.765952 2.701000 202 182 212
0.952342 0.764689 2.680000 202 187 208
0.944880 0.763351 2.659000 202 183 210
0.937773 0.762229 2.639000 199 182 212
0.930666 0.761037 2.619000 197 177 209
0.930666 0.765622 2.619000 199 171 207
0.923559 0.764324 2.599000 202 178 208
0.916807 0.763253 2.580000 201 183 209
0.903304 0.756461 2.542000 201 184 209
0.896552 0.755224 2.523000 199 183 210
0.896552 0.759640 2.523000 198 177 205
0.883759 0.753155 2.487000 194 181 201
0.864926 0.741365 2.434000 191 173 188
0.858885 0.740418 2.417000 181 162 176
0.852844 0.739411 2.400000 172 161 176
0.847158 0.738655 2.384000 174 162 176
0.847158 0.742828 2.384000 176 152 161
0.841117 0.741675 2.367000 159 148 147
0.841117 0.745818 2.367000 142 124 132
0.835431 0.744892 2.351000 143 104 116
0.835431 0.749008 2.351000 144 118 117
0.829746 0.747998 2.335000 148 98 118
0.697910 0.715100 1.964000 165 139 161
0.697910 0.718538 1.964000 165 138 171
0.693646 0.717565 1.952000 166 143 176
0.689737 0.716919 1.941000 165 152 180
0.686184 0.716606 1.931000 164 149 181
0.682275 0.715885 1.920000 164 154 182
0.678366 0.715125 1.909000 165 150 189
0.674812 0.714703 1.899000 165 148 195
0.670904 0.713868 1.888000 165 148 195
0.667350 0.713374 1.878000 161 148 194
0.663797 0.712846 1.868000 157 148 194
0.656690 0.708449 1.848000 163 148 193
0.653136 0.707832 1.838000 169 149 192
0.653136 0.711050 1.838000 171 154 192
0.649583 0.710381 1.828000 173 154 194
1.371986 0.813776 3.842000 224 202 209
1.371986 0.820502 3.842000 221 198 207
1.371986 0.827227 3.842000 219 196 205
1.371986 0.833952 3.842000 217 196 205
1.356988 0.831488 3.800000 215 195 205
1.342346 0.829096 3.759000 213 189 204
1.342346 0.835677 3.759000 211 189 204
1.327705 0.833070 3.718000 210 188 201
1.327705 0.839578 3.718000 216 196 199
1.313778 0.837212 3.679000 223 204 209
1.286281 0.825995 3.602000 221 200 219
1.273069 0.823750 3.565000 219 195 219
1.259856 0.821377 3.528000 219 201 219
1.259856 0.827552 3.528000 219 199 215
1.247357 0.825457 3.493000 218 197 211
1.247357 0.831572 3.493000 217 190 214
1.247357 0.837686 3.493000 214 189 217
1.234859 0.835346 3.458000 211 192 213
1.210576 0.824853 3.390000 213 194 209
1.187007 0.814613 3.324000 214 194 213
1.153797 0.797477 3.231000 217 198 218
1.143084 0.795676 3.201000 220 213 224
1.143084 0.801279 3.201000 223 207 230
1.143084 0.806883 3.201000 225 210 229
1.132728 0.805125 3.172000 225 209 228
1.037381 0.772951 2.905000 231 227 239
1.037381 0.778036 2.905000 222 204 233
1.037381 0.783121 2.905000 214 197 225
1.028811 0.781695 2.881000 214 197 217
1.028811 0.786738 2.881000 214 195 221
1.020241 0.785185 2.857000 213 193 225
1.012027 0.783825 2.834000 212 192 221
0.995600 0.775983 2.788000 209 190 217
0.979531 0.768260 2.743000 207 191 215
0.964533 0.761224 2.701000 206 189 214
0.964533 0.765952 2.701000 205 189 211
0.957033 0.764689 2.680000 205 186 209
0.949534 0.763351 2.659000 205 183 210
0.942392 0.762229 2.639000 205 181 211
0.935250 0.761037 2.619000 205 181 207
0.928108 0.759775 2.599000 205 177 204
0.928108 0.764324 2.599000 206 179 205
0.921323 0.763253 2.580000 204 185 207
0.914181 0.761818 2.560000 203 188 207
0.907753 0.760911 2.542000 201 184 207
0.900968 0.759640 2.523000 199 180 210
0.881685 0.747703 2.469000 200 184 214
0.875257 0.746543 2.451000 202 183 190
0.863116 0.740418 2.417000 194 173 166
0.857045 0.739411 2.400000 187 163 171
0.851331 0.738655 2.384000 182 159 176
0.851331 0.742828 2.384000 177 148 164
0.845261 0.741675 2.367000 159 140 153
0.839547 0.740777 2.351000 141 121 135
0.839547 0.744892 2.351000 150 127 118
0.839547 0.749008 2.351000 160 158 119
0.833833 0.747998 2.335000 158 134 120
0.705276 0.719106 1.975000 163 142 158
0.701348 0.718538 1.964000 163 141 174
0.697063 0.717565 1.952000 164 142 176
0.693135 0.716919 1.941000 162 144 179
0.689564 0.716606 1.931000 160 148 179
0.685636 0.715885 1.920000 165 150 180
0.681708 0.715125 1.909000 171 151 185
0.678137 0.714703 1.899000 168 149 190
0.674209 0.713868 1.888000 166 149 191
0.670638 0.713374 1.878000 163 147 193
0.667067 0.712846 1.868000 161 145 188
0.659925 0.708449 1.848000 164 146 184
0.656353 0.707832 1.838000 167 145 186
0.656353 0.711050 1.838000 168 151 188
0.652782 0.710381 1.828000 168 155 191
1.394142 0.829685 3.885000 224 200 208
1.378711 0.827227 3.842000 222 194 206
1.378711 0.833952 3.842000 220 198 206
1.363640 0.831488 3.800000 218 203 205
1.348927 0.829096 3.759000 216 195 205
1.348927 0.835677 3.759000 213 197 204
1.348927 0.842257 3.759000 211 191 202
1.334214 0.839578 3.718000 218 199 200
1.306223 0.828337 3.640000 226 202 210
1.292587 0.825995 3.602000 222 204 220
1.266032 0.815201 3.528000 218 202 221
1.266032 0.821377 3.528000 219 211 223
1.253472 0.819343 3.493000 220 203 220
1.253472 0.825457 3.493000 218 199 218
1.253472 0.831572 3.493000 217 195 219
1.253472 0.837686 3.493000 215 189 220
1.240912 0.835346 3.458000 214 192 216
1.216510 0.824853 3.390000 214 197 212
1.181701 0.807016 3.293000 214 193 216
1.159453 0.797477 3.231000 220 191 221
1.148687 0.795676 3.201000 226 206 224
1.148687 0.801279 3.201000 229 218 228
1.138280 0.799573 3.172000 232 215 229
1.138280 0.805125 3.172000 232 218 230
1.069381 0.782474 2.980000 239 224 238
1.060409 0.781082 2.955000 241 230 241
1.051438 0.779603 2.930000 243 221 237
1.042467 0.778036 2.905000 229 207 233
1.042467 0.783121 2.905000 215 202 228
1.042467 0.788207 2.905000 215 201 224
1.033854 0.786738 2.881000 216 199 224
1.033854 0.791781 2.881000 215 199 225
1.025242 0.790186 2.857000 215 196 222
0.992227 0.769581 2.765000 211 191 220
0.984332 0.768260 2.743000 208 189 218
0.976797 0.767143 2.722000 208 186 216
0.969261 0.765952 2.701000 209 185 212
0.961725 0.764689 2.680000 209 185 209
0.954189 0.763351 2.659000 209 182 210
0.954189 0.768006 2.659000 211 181 211
0.947012 0.766849 2.639000 214 182 206
0.939835 0.765622 2.619000 212 179 202
0.932658 0.764324 2.599000 210 183 204
0.925840 0.763253 2.580000 208 190 206
0.918663 0.761818 2.560000 206 188 205
0.912203 0.760911 2.542000 203 188 204
0.886007 0.743381 2.469000 200 187 206
0.886007 0.747703 2.469000 206 193 208
0.873447 0.741365 2.434000 213 186 196
0.867347 0.740418 2.417000 207 184 184
0.861246 0.739411 2.400000 202 167 179
0.855504 0.738655 2.384000 190 164 174
0.855504 0.742828 2.384000 178 151 168
0.849404 0.741675 2.367000 159 145 162
0.849404 0.745818 2.367000 141 130 141
0.843662 0.744892 2.351000 158 125 121
0.843662 0.749008 2.351000 176 146 124
0.837921 0.747998 2.335000 169 157 128
0.704786 0.718538 1.964000 161 142 176
0.700480 0.717565 1.952000 162 143 176
0.696533 0.716919 1.941000 159 137 176
0.692944 0.716606 1.931000 157 142 176
0.685049 0.711783 1.909000 167 150 176
0.681461 0.711379 1.899000 177 149 184
0.677514 0.710563 1.888000 172 148 193
0.673925 0.710087 1.878000 168 148 196
0.673925 0.713374 1.878000 166 147 199
0.670336 0.712846 1.868000 165 146 190
0.663159 0.708449 1.848000 165 149 181
0.659571 0.707832 1.838000 166 149 184
0.655982 0.707181 1.828000 165 152 187
0.655982 0.710381 1.828000 164 154 191
1.370291 0.831488 3.800000 219 197 206
1.355507 0.829096 3.759000 217 193 205
1.355507 0.835677 3.759000 215 191 205
1.355507 0.842257 3.759000 214 182 203
1.340722 0.839578 3.718000 220 195 202
1.272207 0.815201 3.528000 223 201 224
1.259586 0.813228 3.493000 225 207 227
1.259586 0.819343 3.493000 227 203 226
1.259586 0.825457 3.493000 223 203 225
1.246965 0.823239 3.458000 218 202 224
1.246965 0.829293 3.458000 217 194 224
1.234344 0.826891 3.423000 215 192 220
1.210544 0.816824 3.357000 216 193 216
1.187466 0.807016 3.293000 217 193 220
1.165108 0.797477 3.231000 221 197 224
1.154290 0.795676 3.201000 226 202 225
1.154290 0.801279 3.201000 228 210 226
1.143833 0.799573 3.172000 231 217 229
1.133375 0.797764 3.143000 232 216 233
1.123278 0.796110 3.115000 233 215 229
1.113181 0.794358 3.087000 234 216 225
1.103085 0.792508 3.059000 235 220 231
1.074597 0.777257 2.980000 239 222 237
1.074597 0.782474 2.980000 243 227 237
1.065582 0.781082 2.955000 241 227 237
1.056567 0.779603 2.930000 239 221 235
1.047552 0.778036 2.905000 228 212 233
1.047552 0.783121 2.905000 217 204 232
1.038897 0.781695 2.881000 218 204 232
1.038897 0.786738 2.881000 219 203 228
1.038897 0.791781 2.881000 218 202 225
1.030243 0.790186 2.857000 218 203 224
0.997067 0.769581 2.765000 216 195 224
0.997067 0.774421 2.765000 215 191 221
0.981561 0.767143 2.722000 213 187 218
0.973989 0.765952 2.701000 212 183 214
0.966416 0.764689 2.680000 211 185 210
0.966416 0.769380 2.680000 211 180 210
0.958843 0.768006 2.659000 212 183 211
0.951631 0.766849 2.639000 214 190 206
0.944419 0.765622 2.619000 212 186 201
0.937207 0.764324 2.599000 211 186 203
0.930356 0.763253 2.580000 210 188 205
0.923144 0.761818 2.560000 209 189 203
0.909801 0.755224 2.523000 207 188 201
0.909801 0.759640 2.523000 206 189 201
0.883838 0.742252 2.451000 209 190 202
0.877708 0.741365 2.434000 212 186 202
0.871578 0.740418 2.417000 207 175 203
0.865447 0.739411 2.400000 203 160 188
0.859677 0.738655 2.384000 191 160 173
0.859677 0.742828 2.384000 179 149 172
0.853547 0.741675 2.367000 162 142 171
0.853547 0.745818 2.367000 146 130 148
0.847778 0.744892 2.351000 161 133 125
0.847778 0.749008 2.351000 177 145 130
0.842008 0.747998 2.335000 174 145 136
0.703897 0.717565 1.952000 167 151 175
0.699930 0.716919 1.941000 164 143 173
0.692358 0.712524 1.920000 160 136 172
0.684785 0.708055 1.899000 166 145 172
0.680818 0.707258 1.888000 172 150 184
0.680818 0.710563 1.888000 169 150 197
0.677212 0.710087 1.878000 166 151 201
0.673606 0.709576 1.868000 164 147 205
0.673606 0.712846 1.868000 161 146 191
0.666394 0.708449 1.848000 164 148 178
0.662788 0.707832 1.838000 167 153 182
0.662788 0.711050 1.838000 167 151 187
0.659182 0.710381 1.828000 166 152 190
1.376943 0.838140 3.800000 219 195 207
1.362087 0.835677 3.759000 218 194 205
1.265701 0.819343 3.493000 235 206 223
1.265701 0.825457 3.493000 227 209 223
1.253018 0.823239 3.458000 220 203 223
1.240336 0.820899 3.423000 218 193 224
1.240336 0.826891 3.423000 217 193 217
1.216421 0.816824 3.357000 219 190 211
1.193230 0.807016 3.293000 221 193 217
1.170764 0.797477 3.231000 223 202 222
1.159894 0.795676 3.201000 226 205 224
1.149385 0.794020 3.172000 228 206 227
1.138877 0.792263 3.143000 231 215 229
1.128731 0.790657 3.115000 232 216 232
1.118585 0.788954 3.087000 234 216 229
1.118585 0.794358 3.087000 234 218 226
1.108440 0.792508 3.059000 235 217 230
1.089235 0.784039 3.006000 241 219 234
1.089235 0.789301 3.006000 248 224 236
1.070755 0.781082 2.955000 242 230 238
1.061696 0.779603 2.930000 236 220 235
1.052637 0.778036 2.905000 228 218 233
1.052637 0.783121 2.905000 220 210 231
1.043941 0.781695 2.881000 221 211 230
1.043941 0.786738 2.881000 222 205 227
1.043941 0.791781 2.881000 221 204 225
1.035244 0.790186 2.857000 221 198 224
1.001907 0.769581 2.765000 221 195 222
0.986326 0.762378 2.722000 222 194 220
0.978717 0.761224 2.701000 219 190 218
0.978717 0.765952 2.701000 216 191 217
0.971107 0.764689 2.680000 214 195 216
0.971107 0.769380 2.680000 213 189 213
0.963498 0.768006 2.659000 213 184 210
0.956251 0.766849 2.639000 214 190 209
0.949004 0.765622 2.619000 213 191 208
0.941757 0.764324 2.599000 213 188 208
0.934872 0.763253 2.580000 212 187 209
0.927625 0.761818 2.560000 212 188 209
0.921103 0.760911 2.542000 212 188 210
0.914218 0.759640 2.523000 212 190 207
0.894651 0.747703 2.469000 211 192 205
0.881968 0.741365 2.434000 211 185 205
0.875809 0.740418 2.417000 207 170 206
0.869649 0.739411 2.400000 204 167 186
0.863851 0.738655 2.384000 192 168 167
0.863851 0.742828 2.384000 181 156 162
0.857691 0.741675 2.367000 166 145 157
0.857691 0.745818 2.367000 151 131 140
0.851893 0.744892 2.351000 164 132 123
0.846096 0.743910 2.335000 178 141 127
0.846096 0.747998 2.335000 180 141 132
0.688109 0.704730 1.899000 164 138 171
0.684124 0.703953 1.888000 166 144 171
0.684124 0.707258 1.888000 168 145 178
0.680500 0.706800 1.878000 166 154 186
0.680500 0.710087 1.878000 165 149 190
0.676876 0.709576 1.868000 161 145 195
0.676876 0.712846 1.868000 158 145 187
0.673253 0.712282 1.858000 163 146 180
0.666006 0.707832 1.838000 169 149 182
0.662382 0.707181 1.828000 169 150 185
0.659121 0.706883 1.819000 169 151 185
1.246328 0.814907 3.423000 223 211 223
1.246328 0.820899 3.423000 222 204 224
1.246328 0.826891 3.423000 220 197 215
1.210282 0.808794 3.324000 221 194 207
1.198995 0.807016 3.293000 223 188 214
1.165497 0.790073 3.201000 225 202 221
1.165497 0.795676 3.201000 228 211 224
1.154938 0.794020 3.172000 230 213 228
1.144379 0.792263 3.143000 232 222 229
1.144379 0.797764 3.143000 234 218 231
1.123989 0.788954 3.087000 236 218 229
1.113794 0.787153 3.059000 236 218 228
1.113794 0.792508 3.059000 237 214 230
1.104328 0.791081 3.033000 240 218 232
1.094497 0.789301 3.006000 243 220 235
1.075927 0.781082 2.955000 239 222 239
1.066825 0.779603 2.930000 236 213 236
1.057722 0.778036 2.905000 232 214 234
1.048984 0.776652 2.881000 228 209 231
1.048984 0.781695 2.881000 224 208 228
1.048984 0.786738 2.881000 221 203 227
1.048984 0.791781 2.881000 221 200 226
1.040245 0.790186 2.857000 222 191 223
1.006748 0.769581 2.765000 221 193 221
0.998737 0.768260 2.743000 220 201 219
0.983445 0.761224 2.701000 219 197 218
0.975799 0.759997 2.680000 217 197 220
0.975799 0.764689 2.680000 216 197 223
0.968153 0.763351 2.659000 215 198 216
0.968153 0.768006 2.659000 214 194 209
0.960871 0.766849 2.639000 214 198 212
0.953588 0.765622 2.619000 213 195 216
0.946306 0.764324 2.599000 213 190 214
0.939388 0.763253 2.580000 213 188 213
0.932106 0.761818 2.560000 213 190 216
0.925552 0.760911 2.542000 211 190 219
0.918634 0.759640 2.523000 209 193 214
0.898973 0.747703 2.469000 211 192 209
0.886229 0.741365 2.434000 213 192 209
0.880039 0.740418 2.417000 206 180 209
0.873850 0.739411 2.400000 199 171 185
0.868024 0.738655 2.384000 191 168 161
0.868024 0.742828 2.384000 182 163 152
0.868024 0.747001 2.384000 169 146 144
0.861834 0.745818 2.367000 156 117 132
0.856009 0.744892 2.351000 166 129 121
0.856009 0.749008 2.351000 177 148 125
0.687428 0.703953 1.888000 165 134 171
0.687428 0.707258 1.888000 165 133 173
0.683787 0.706800 1.878000 165 143 175
0.683787 0.710087 1.878000 166 147 180
0.680146 0.709576 1.868000 165 146 185
0.680146 0.712846 1.868000 165 146 183
0.676505 0.712282 1.858000 167 146 182
0.669223 0.707832 1.838000 168 148 182
0.669223 0.711050 1.838000 168 152 183
0.662305 0.706883 1.819000 169 151 180
1.240247 0.807051 3.390000 227 207 223
1.240247 0.812985 3.390000 225 216 222
1.228174 0.810947 3.357000 224 204 215
1.216100 0.808794 3.324000 224 202 209
1.193417 0.799419 3.262000 225 199 217
1.182076 0.797477 3.231000 228 207 224
1.171100 0.795676 3.201000 231 212 225
1.160491 0.794020 3.172000 232 214 227
1.149881 0.792263 3.143000 234 216 228
1.139637 0.790657 3.115000 236 216 229
1.129393 0.788954 3.087000 238 217 232
1.119149 0.787153 3.059000 239 225 236
1.119149 0.792508 3.059000 240 223 237
1.109637 0.791081 3.033000 239 222 238
1.099759 0.789301 3.006000 238 223 239
1.090247 0.787690 2.980000 237 225 239
1.071954 0.779603 2.930000 236 215 237
1.062807 0.778036 2.905000 236 216 236
1.062807 0.783121 2.905000 237 211 232
1.054027 0.781695 2.881000 228 210 229
1.054027 0.786738 2.881000 220 204 228
1.054027 0.791781 2.881000 221 204 227
1.045246 0.790186 2.857000 223 196 224
1.011588 0.769581 2.765000 221 187 221
1.003539 0.768260 2.743000 219 198 220
0.995856 0.767143 2.722000 219 201 219
0.988173 0.765952 2.701000 219 200 221
0.980490 0.764689 2.680000 218 201 224
0.972807 0.763351 2.659000 217 199 220
0.965490 0.762229 2.639000 215 198 217
0.958173 0.761037 2.619000 214 199 217
0.958173 0.765622 2.619000 214 202 217
0.950856 0.764324 2.599000 214 195 214
0.943905 0.763253 2.580000 214 186 210
0.936588 0.761818 2.560000 214 188 213
0.930002 0.760911 2.542000 210 191 216
0.923051 0.759640 2.523000 206 191 213
0.903295 0.747703 2.469000 210 192 210
0.896710 0.746543 2.451000 215 192 209
0.890490 0.745626 2.434000 205 189 209
0.884270 0.744649 2.417000 195 176 193
0.878051 0.743613 2.400000 189 172 178
0.872197 0.742828 2.384000 184 164 169
0.872197 0.747001 2.384000 172 160 161
0.865978 0.745818 2.367000 161 131 143
0.860124 0.744892 2.351000 169 121 124
0.857197 0.746459 2.343000 177 144 126
0.690733 0.707258 1.888000 163 138 177
0.687075 0.706800 1.878000 165 139 181
0.687075 0.710087 1.878000 167 143 181
0.683416 0.709576 1.868000 170 147 182
0.683416 0.712846 1.868000 173 146 182
0.679758 0.712282 1.858000 170 147 182
0.672441 0.707832 1.838000 168 151 184
0.672441 0.711050 1.838000 168 162 186
0.665489 0.706883 1.819000 169 149 184
1.234050 0.805071 3.357000 224 208 220
1.221919 0.802975 3.324000 222 204 216
1.210523 0.801251 3.293000 223 200 212
1.199128 0.799419 3.262000 225 200 220
1.187732 0.797477 3.231000 228 206 228
1.176704 0.795676 3.201000 231 216 227
1.166043 0.794020 3.172000 233 213 226
1.155383 0.792263 3.143000 235 213 227
1.145090 0.790657 3.115000 236 215 228
1.124504 0.781798 3.059000 238 210 236
1.124504 0.787153 3.059000 241 221 244
1.124504 0.792508 3.059000 244 232 244
1.114946 0.791081 3.033000 242 230 245
1.105021 0.789301 3.006000 240 225 242
1.095463 0.787690 2.980000 238 220 240
1.067893 0.778036 2.905000 236 215 238
1.067893 0.783121 2.905000 236 209 234
1.059070 0.781695 2.881000 233 210 231
1.059070 0.786738 2.881000 230 202 229
1.050248 0.785185 2.857000 227 205 228
1.050248 0.790186 2.857000 223 203 225
1.024883 0.775983 2.788000 222 202 222
1.016428 0.774421 2.765000 220 203 221
1.016428 0.779262 2.765000 220 202 221
0.992901 0.765952 2.701000 221 204 223
0.985181 0.764689 2.680000 219 202 225
0.985181 0.769380 2.680000 218 202 225
0.977462 0.768006 2.659000 216 200 226
0.970110 0.766849 2.639000 215 200 222
0.962758 0.765622 2.619000 217 202 219
0.948421 0.758737 2.580000 220 205 213
0.948421 0.763253 2.580000 217 195 208
0.941069 0.761818 2.560000 213 187 210
0.934452 0.760911 2.542000 211 189 213
0.927467 0.759640 2.523000 208 191 212
0.907617 0.747703 2.469000 212 192 212
0.901000 0.746543 2.451000 215 195 210
0.901000 0.750833 2.451000 211 190 209
0.894751 0.749886 2.434000 207 173 202
0.882252 0.743613 2.400000 199 166 195
0.876370 0.742828 2.384000 191 161 187
0.876370 0.747001 2.384000 177 150 179
0.870121 0.745818 2.367000 163 127 153
0.858358 0.739823 2.335000 170 134 128
0.858358 0.743910 2.335000 177 147 128
0.694038 0.707258 1.888000 162 148 182
0.690362 0.706800 1.878000 162 143 187
0.690362 0.710087 1.878000 162 142 183
0.686686 0.709576 1.868000 165 144 180
0.686686 0.712846 1.868000 169 146 181
0.683010 0.712282 1.858000 167 146 182
0.671982 0.703981 1.828000 165 148 185
0.668674 0.703699 1.819000 165 148 189
0.668674 0.706883 1.819000 165 138 189
1.227738 0.797157 3.324000 224 212 219
1.216288 0.795487 3.293000 220 202 216
1.216288 0.801251 3.293000 222 197 214
1.193388 0.791821 3.231000 225 201 219
1.193388 0.797477 3.231000 228 202 224
1.182307 0.795676 3.201000 231 208 223
1.171596 0.794020 3.172000 233 211 223
1.160884 0.792263 3.143000 236 213 229
1.150542 0.790657 3.115000 237 221 235
1.129859 0.781798 3.059000 239 217 235
1.129859 0.787153 3.059000 243 218 235
1.129859 0.792508 3.059000 248 230 241
1.120255 0.791081 3.033000 245 242 247
1.110283 0.789301 3.006000 242 230 243
1.072978 0.783121 2.905000 236 218 236
1.064113 0.781695 2.881000 238 219 233
1.064113 0.786738 2.881000 241 213 229
1.055249 0.785185 2.857000 232 214 225
1.055249 0.790186 2.857000 224 210 223
1.029763 0.775983 2.788000 223 215 221
1.021268 0.774421 2.765000 222 204 221
1.013142 0.773061 2.743000 222 202 222
1.005386 0.771908 2.722000 223 202 224
0.989873 0.764689 2.680000 221 201 226
0.989873 0.769380 2.680000 220 203 225
0.982116 0.768006 2.659000 218 203 224
0.974729 0.766849 2.639000 216 201 222
0.967342 0.765622 2.619000 221 202 220
0.952937 0.758737 2.580000 227 203 215
0.945550 0.757336 2.560000 220 205 210
0.938902 0.756461 2.542000 213 192 211
0.938902 0.760911 2.542000 212 187 212
0.931884 0.759640 2.523000 211 190 210
0.925236 0.758606 2.505000 213 193 209
0.905290 0.746543 2.451000 216 198 207
0.905290 0.750833 2.451000 218 206 206
0.899011 0.749886 2.434000 220 183 202
0.886453 0.743613 2.400000 209 161 198
0.880544 0.742828 2.384000 199 162 189
0.874264 0.741675 2.367000 182 153 180
0.868355 0.740777 2.351000 166 137 153
0.862445 0.739823 2.335000 171 142 126
0.862445 0.743910 2.335000 177 147 128
0.693650 0.706800 1.878000 159 143 178
0.689956 0.706306 1.868000 157 141 178
0.689956 0.709576 1.868000 161 142 179
0.686262 0.709030 1.858000 166 144 179
0.686262 0.712282 1.858000 164 146 179
0.678875 0.707832 1.838000 163 146 182
0.675182 0.707181 1.828000 162 147 185
0.671858 0.706883 1.819000 162 149 185
1.222052 0.795487 3.293000 222 195 217
1.222052 0.801251 3.293000 223 201 217
1.210548 0.799419 3.262000 225 207 218
1.199044 0.797477 3.231000 227 204 220
1.187911 0.795676 3.201000 229 204 220
1.177148 0.794020 3.172000 234 209 221
1.166386 0.792263 3.143000 239 209 232
1.155995 0.790657 3.115000 239 217 243
1.145604 0.788954 3.087000 239 220 235
1.135213 0.787153 3.059000 242 221 227
1.135213 0.792508 3.059000 244 231 238
1.125565 0.791081 3.033000 243 236 250
1.115545 0.789301 3.006000 242 227 244
1.060250 0.780184 2.857000 237 218 229
1.060250 0.785185 2.857000 231 215 223
1.051715 0.783825 2.834000 226 209 222
1.034644 0.775983 2.788000 224 208 221
1.026108 0.774421 2.765000 222 199 222
1.026108 0.779262 2.765000 223 200 223
1.010151 0.771908 2.722000 224 202 225
0.994564 0.764689 2.680000 223 206 227
0.994564 0.769380 2.680000 223 206 225
0.986771 0.768006 2.659000 221 204 223
0.979349 0.766849 2.639000 219 199 222
0.971927 0.765622 2.619000 223 201 222
0.957454 0.758737 2.580000 228 203 217
0.957454 0.763253 2.580000 220 202 213
0.943352 0.756461 2.542000 212 192 212
0.943352 0.760911 2.542000 211 191 211
0.936301 0.759640 2.523000 210 192 209
0.909581 0.742252 2.451000 213 194 207
0.909581 0.746543 2.451000 216 199 205
0.909581 0.750833 2.451000 218 201 203
0.903272 0.749886 2.434000 219 192 202
0.890654 0.743613 2.400000 209 179 201
0.884717 0.742828 2.384000 199 174 191
0.878408 0.741675 2.367000 179 152 182
0.866533 0.735735 2.335000 160 128 153
0.866533 0.739823 2.335000 168 138 124
0.860966 0.739131 2.320000 176 154 129
0.860966 0.743192 2.320000 178 152 134
0.693226 0.706306 1.868000 160 140 173
0.693226 0.709576 1.868000 162 139 178
0.689515 0.709030 1.858000 165 143 177
0.685804 0.708449 1.848000 163 144 177
0.682093 0.707832 1.838000 161 145 179
0.678382 0.707181 1.828000 160 149 181
0.671331 0.702997 1.809000 159 155 182
1.227816 0.795487 3.293000 224 206 218
1.227816 0.801251 3.293000 224 208 217
1.216258 0.799419 3.262000 225 205 218
1.204699 0.797477 3.231000 226 206 219
1.193514 0.795676 3.201000 228 208 220
1.193514 0.801279 3.201000 235 215 221
1.182701 0.799573 3.172000 243 214 230
1.171888 0.797764 3.143000 241 221 239
1.151008 0.788954 3.087000 240 218 235
1.140568 0.787153 3.059000 240 216 230
1.140568 0.792508 3.059000 241 223 237
1.130874 0.791081 3.033000 242 244 245
1.120807 0.789301 3.006000 243 231 241
1.065251 0.780184 2.857000 233 219 232
1.030948 0.779262 2.765000 224 199 224
1.014915 0.771908 2.722000 225 205 225
0.999255 0.764689 2.680000 226 217 226
0.991425 0.763351 2.659000 227 209 224
0.991425 0.768006 2.659000 225 210 222
0.983968 0.766849 2.639000 223 199 221
0.976511 0.765622 2.619000 226 203 221
0.969054 0.764324 2.599000 229 205 219
0.961970 0.763253 2.580000 220 208 217
0.947801 0.756461 2.542000 211 198 213
0.947801 0.760911 2.542000 210 196 208
0.940717 0.759640 2.523000 209 189 206
0.920583 0.747703 2.469000 213 194 205
0.913871 0.746543 2.451000 217 200 205
0.913871 0.750833 2.451000 218 209 206
0.907533 0.749886 2.434000 219 194 202
0.894856 0.743613 2.400000 209 190 198
0.888890 0.742828 2.384000 200 174 189
0.882551 0.741675 2.367000 177 154 181
0.876586 0.740777 2.351000 154 134 157
0.870620 0.739823 2.335000 165 129 133
0.865027 0.739131 2.320000 176 148 134
0.865027 0.743192 2.320000 178 163 135
0.859061 0.742100 2.304000 181 150 138
0.692767 0.705777 1.858000 163 134 170
0.689039 0.705214 1.848000 164 139 173
0.685310 0.704615 1.838000 162 143 175
0.685310 0.707832 1.838000 160 144 177
0.681582 0.707181 1.828000 158 150 179
0.674497 0.702997 1.809000 157 153 180
1.233581 0.795487 3.293000 225 210 219
1.233581 0.801251 3.293000 224 206 217
1.221968 0.799419 3.262000 224 200 218
1.210355 0.797477 3.231000 224 205 219
1.199117 0.795676 3.201000 225 209 220
1.199117 0.801279 3.201000 232 212 221
1.188254 0.799573 3.172000 238 214 228
1.177390 0.797764 3.143000 238 217 236
1.156412 0.788954 3.087000 239 218 235
1.145923 0.787153 3.059000 239 212 234
1.145923 0.792508 3.059000 239 203 237
1.136183 0.791081 3.033000 241 230 240
1.126069 0.789301 3.006000 243 231 238
1.003947 0.764689 2.680000 228 210 225
1.011814 0.775409 2.701000 228 205 223
1.011814 0.780137 2.701000 225 200 222
0.988588 0.766849 2.639000 223 187 221
0.973604 0.759775 2.599000 224 201 220
0.966486 0.758737 2.580000 226 208 221
0.958994 0.757336 2.560000 220 206 222
0.952251 0.756461 2.542000 213 199 214
0.952251 0.760911 2.542000 209 192 206
0.945134 0.759640 2.523000 204 174 204
0.924905 0.747703 2.469000 211 189 203
0.918162 0.746543 2.451000 217 199 206
0.918162 0.750833 2.451000 218 196 210
0.918162 0.755124 2.451000 218 185 202
0.905425 0.748880 2.417000 210 186 195
0.899057 0.747814 2.400000 202 181 188
0.893063 0.747001 2.384000 181 157 181
0.880701 0.740777 2.351000 160 127 161
0.874707 0.739823 2.335000 169 134 142
0.869088 0.739131 2.320000 178 147 139
0.869088 0.743192 2.320000 181 151 137
0.869088 0.747254 2.320000 183 147 138
0.863095 0.746133 2.304000 181 145 139
0.857475 0.745283 2.289000 180 147 137
0.692274 0.705214 1.848000 162 136 168
0.688528 0.704615 1.838000 161 138 174
0.688528 0.707832 1.838000 161 141 176
0.684782 0.707181 1.828000 162 147 178
0.681410 0.706883 1.819000 164 153 179
1.239345 0.795487 3.293000 227 208 221
1.239345 0.801251 3.293000 225 207 219
1.227678 0.799419 3.262000 223 201 220
1.227678 0.805129 3.262000 223 205 221
1.216011 0.803133 3.231000 223 207 221
1.204720 0.801279 3.201000 228 212 222
1.193806 0.799573 3.172000 234 215 226
1.193806 0.805125 3.172000 236 216 231
1.161816 0.788954 3.087000 238 215 233
1.151278 0.787153 3.059000 238 213 235
1.151278 0.792508 3.059000 238 217 236
1.141492 0.791081 3.033000 240 243 238
1.008638 0.764689 2.680000 231 218 232
1.008638 0.769380 2.680000 229 207 227
1.008638 0.774071 2.680000 226 199 223
0.993208 0.766849 2.639000 223 199 222
0.985680 0.765622 2.619000 223 207 221
0.971002 0.758737 2.580000 224 208 221
0.956701 0.752011 2.542000 220 212 221
0.949550 0.750807 2.523000 216 203 216
0.949550 0.755224 2.523000 208 199 211
0.942776 0.754221 2.505000 200 188 203
0.929227 0.747703 2.469000 209 190 196
0.922452 0.746543 2.451000 218 192 201
0.922452 0.750833 2.451000 218 194 207
0.916054 0.749886 2.434000 218 191 203
0.903258 0.743613 2.400000 211 190 199
0.903258 0.747814 2.400000 205 179 188
0.897236 0.747001 2.384000 185 167 176
0.884817 0.740777 2.351000 166 138 158
0.878795 0.739823 2.335000 173 135 140
0.873150 0.739131 2.320000 181 147 138
0.873150 0.743192 2.320000 183 148 135
0.873150 0.747254 2.320000 186 146 135
0.861482 0.741276 2.289000 183 145 135
0.855837 0.740399 2.274000 180 146 134
0.855837 0.744379 2.274000 177 147 133
0.695509 0.705214 1.848000 161 137 169
0.691745 0.704615 1.838000 161 135 170
0.691745 0.707832 1.838000 162 140 173
0.684594 0.703699 1.819000 166 145 176
0.684594 0.706883 1.819000 171 147 177
1.245110 0.795487 3.293000 229 209 223
1.233388 0.793708 3.262000 226 204 222
1.233388 0.799419 3.262000 224 194 222
1.233388 0.805129 3.262000 224 204 223
1.221667 0.803133 3.231000 224 203 223
1.210324 0.801279 3.201000 229 211 223
1.210324 0.806883 3.201000 234 218 224
1.199359 0.805125 3.172000 235 216 226
1.177806 0.796110 3.115000 237 214 231
1.167219 0.794358 3.087000 237 213 237
1.156632 0.792508 3.059000 238 212 236
1.143399 0.788733 3.024000 241 224 236
1.010683 0.762691 2.673000 228 208 240
1.013330 0.769380 2.680000 227 206 232
1.013330 0.774071 2.680000 224 204 224
1.005389 0.772660 2.659000 221 206 223
0.990265 0.765622 2.619000 224 206 222
0.982703 0.764324 2.599000 228 208 221
0.961151 0.752011 2.542000 223 207 220
0.961151 0.756461 2.542000 218 204 218
0.953966 0.755224 2.523000 213 199 217
0.953966 0.759640 2.523000 208 190 203
0.940355 0.753155 2.487000 212 189 189
0.926743 0.746543 2.451000 217 186 196
0.926743 0.750833 2.451000 218 192 204
0.920315 0.749886 2.434000 219 195 204
0.907459 0.743613 2.400000 212 189 204
0.907459 0.747814 2.400000 205 179 188
0.901409 0.747001 2.384000 187 161 172
0.888932 0.740777 2.351000 169 124 155
0.882882 0.739823 2.335000 175 140 139
0.877211 0.739131 2.320000 181 158 136
0.877211 0.743192 2.320000 182 153 134
0.877211 0.747254 2.320000 182 147 133
0.871161 0.746133 2.304000 179 146 132
0.865489 0.745283 2.289000 177 147 132
0.859818 0.744379 2.274000 172 146 132
0.694963 0.701397 1.838000 160 141 170
0.694963 0.704615 1.838000 160 140 167
0.691181 0.703981 1.828000 160 142 170
0.691181 0.707181 1.828000 163 145 174
0.683997 0.702997 1.809000 166 147 176
1.239099 0.799419 3.262000 226 206 223
1.239099 0.805129 3.262000 225 215 222
1.227323 0.803133 3.231000 225 210 221
1.215927 0.801279 3.201000 229 214 221
1.215927 0.806883 3.201000 234 216 223
1.215927 0.812486 3.201000 235 218 226
1.193895 0.803266 3.143000 236 215 230
1.172623 0.794358 3.087000 237 214 234
1.161987 0.792508 3.059000 239 213 235
1.145274 0.786386 3.015000 242 215 237
1.012703 0.760694 2.666000 226 206 233
1.010044 0.763351 2.659000 226 206 228
1.010044 0.768006 2.659000 222 206 223
1.002447 0.766849 2.639000 219 206 222
0.994850 0.765622 2.619000 226 206 221
0.980035 0.758737 2.580000 233 206 220
0.972438 0.757336 2.560000 227 206 219
0.965600 0.756461 2.542000 221 203 217
0.958383 0.755224 2.523000 218 204 216
0.958383 0.759640 2.523000 216 199 208
0.944708 0.753155 2.487000 216 193 200
0.931033 0.746543 2.451000 216 191 202
0.924576 0.745626 2.434000 218 194 205
0.924576 0.749886 2.434000 221 194 204
0.911660 0.743613 2.400000 213 193 203
0.911660 0.747814 2.400000 205 179 190
0.899125 0.741675 2.367000 188 177 177
0.886970 0.735735 2.335000 172 147 157
0.886970 0.739823 2.335000 177 146 137
0.881272 0.739131 2.320000 182 154 135
0.881272 0.743192 2.320000 180 160 134
0.881272 0.747254 2.320000 179 150 134
0.875194 0.746133 2.304000 176 147 134
0.869496 0.745283 2.289000 174 146 133
0.863798 0.744379 2.274000 168 146 132
0.698180 0.704615 1.838000 158 144 167
0.694381 0.703981 1.828000 158 141 169
0.694381 0.707181 1.828000 159 146 172
0.687164 0.702997 1.809000 161 144 175
1.256639 0.807016 3.293000 227 211 224
1.244809 0.805129 3.262000 226 210 222
1.244809 0.810839 3.262000 224 210 220
1.232979 0.808789 3.231000 229 211 219
1.221531 0.806883 3.201000 235 216 223
1.221531 0.812486 3.201000 233 216 227
1.199397 0.803266 3.143000 231 216 229
1.178027 0.794358 3.087000 234 215 232
1.157420 0.785772 3.033000 236 212 235
1.147117 0.784039 3.006000 239 216 238
1.137195 0.782474 2.980000 241 219 240
1.014698 0.758697 2.659000 227 208 226
1.014698 0.763351 2.659000 227 207 224
1.014698 0.768006 2.659000 224 207 223
1.007066 0.766849 2.639000 221 209 221
0.999434 0.765622 2.619000 224 206 220
0.984551 0.758737 2.580000 228 205 219
0.976919 0.757336 2.560000 224 203 218
0.976919 0.761818 2.560000 221 201 217
0.970050 0.760911 2.542000 220 206 216
0.962800 0.759640 2.523000 218 210 213
0.949062 0.753155 2.487000 217 200 211
0.935324 0.746543 2.451000 216 193 208
0.928836 0.745626 2.434000 218 193 206
0.928836 0.749886 2.434000 221 195 204
0.922349 0.748880 2.417000 212 187 203
0.915862 0.747814 2.400000 204 170 193
0.909756 0.747001 2.384000 188 165 183
0.891057 0.735735 2.335000 173 141 159
0.885333 0.735070 2.320000 177 146 136
0.879227 0.734034 2.304000 181 154 135
0.879227 0.738067 2.304000 180 153 134
0.879227 0.742100 2.304000 179 146 135
0.873503 0.741276 2.289000 177 146 137
0.873503 0.745283 2.289000 175 147 135
0.867779 0.744379 2.274000 171 144 133
0.701397 0.704615 1.838000 156 142 168
0.701397 0.707832 1.838000 156 132 169
0.697581 0.707181 1.828000 158 140 170
0.694147 0.706883 1.819000 160 144 174
1.274287 0.814613 3.324000 229 210 224
1.262403 0.812780 3.293000 226 205 222
1.250519 0.810839 3.262000 224 205 223
1.227134 0.801279 3.201000 230 204 223
1.216017 0.799573 3.172000 236 213 227
1.227134 0.812486 3.201000 231 214 231
1.216017 0.810678 3.172000 227 212 231
1.172697 0.787153 3.059000 230 219 232
1.162729 0.785772 3.033000 234 217 234
1.152379 0.784039 3.006000 235 219 236
1.142411 0.782474 2.980000 237 218 238
1.132827 0.781082 2.955000 239 237 240
1.132827 0.786255 2.955000 241 225 238
1.059989 0.774421 2.765000 235 209 226
1.043505 0.767143 2.722000 232 206 221
1.027404 0.759997 2.680000 229 209 224
1.019353 0.758697 2.659000 228 210 227
1.011686 0.757610 2.639000 228 208 225
1.011686 0.762229 2.639000 225 208 223
1.004019 0.761037 2.619000 223 207 222
0.996351 0.759775 2.599000 223 206 221
0.989068 0.758737 2.580000 223 201 220
0.981400 0.757336 2.560000 222 203 219
0.981400 0.761818 2.560000 222 201 218
0.974500 0.760911 2.542000 221 209 218
0.967216 0.759640 2.523000 221 205 216
0.960316 0.758606 2.505000 218 207 214
0.939614 0.746543 2.451000 216 195 209
0.933097 0.745626 2.434000 218 193 204
0.933097 0.749886 2.434000 221 194 202
0.926580 0.748880 2.417000 212 192 200
0.920063 0.747814 2.400000 204 178 191
0.913929 0.747001 2.384000 189 173 182
0.901278 0.740777 2.351000 174 154 160
0.895144 0.739823 2.335000 177 146 138
0.889394 0.739131 2.320000 181 151 138
0.883260 0.738067 2.304000 180 154 138
0.889394 0.747254 2.320000 180 147 139
0.883260 0.746133 2.304000 178 144 141
0.883260 0.750166 2.304000 177 145 136
0.877510 0.749289 2.289000 175 139 132
0.700781 0.700781 1.828000 153 160 155
0.700781 0.703981 1.828000 155 139 163
0.700781 0.707181 1.828000 157 141 171
0.693497 0.702997 1.809000 159 144 174
1.280106 0.808794 3.324000 228 209 228
1.268167 0.807016 3.293000 229 208 225
1.268167 0.812780 3.293000 228 205 223
1.256229 0.810839 3.262000 227 201 225
1.244291 0.808789 3.231000 231 209 228
1.232737 0.806883 3.201000 235 219 232
1.221569 0.805125 3.172000 232 213 236
1.221569 0.810678 3.172000 228 202 234
1.168039 0.780462 3.033000 234 213 232
1.157641 0.778777 3.006000 240 220 233
1.147628 0.777257 2.980000 238 214 234
1.147628 0.782474 2.980000 237 200 236
1.138000 0.781082 2.955000 239 221 238
1.138000 0.786255 2.955000 242 216 238
1.073687 0.771102 2.788000 234 219 233
1.073687 0.775983 2.788000 233 215 232
1.056357 0.768260 2.743000 233 214 229
1.048270 0.767143 2.722000 232 212 227
1.032095 0.759997 2.680000 231 212 228
1.024008 0.758697 2.659000 231 213 229
1.016305 0.757610 2.639000 231 210 226
1.008603 0.756453 2.619000 227 206 223
1.008603 0.761037 2.619000 223 207 223
1.000901 0.759775 2.599000 222 202 223
0.993584 0.758737 2.580000 221 192 222
0.985882 0.757336 2.560000 220 194 221
0.978950 0.756461 2.542000 218 191 220
0.971633 0.755224 2.523000 219 197 220
0.964701 0.754221 2.505000 219 194 218
0.957769 0.753155 2.487000 217 194 217
0.943905 0.746543 2.451000 216 189 209
0.937358 0.745626 2.434000 216 192 202
0.937358 0.749886 2.434000 216 197 200
0.930811 0.748880 2.417000 211 192 198
0.924264 0.747814 2.400000 206 180 190
0.918102 0.747001 2.384000 188 170 182
0.905394 0.740777 2.351000 170 157 161
0.899232 0.739823 2.335000 179 152 140
0.893455 0.739131 2.320000 187 151 141
0.893455 0.743192 2.320000 183 149 142
0.893455 0.747254 2.320000 180 146 144
0.887294 0.746133 2.304000 178 147 146
0.887294 0.750166 2.304000 176 150 138
0.703981 0.700781 1.828000 148 115 143
0.703981 0.703981 1.828000 153 125 157
0.700515 0.703699 1.819000 156 145 172
0.700515 0.706883 1.819000 159 147 174
0.696664 0.706164 1.809000 160 143 176
1.298691 0.816824 3.357000 228 206 231
1.273932 0.807016 3.293000 230 207 227
1.273932 0.812780 3.293000 230 206 223
1.261939 0.810839 3.262000 230 206 223
1.249946 0.808789 3.231000 232 214 224
1.238340 0.806883 3.201000 235 216 227
1.238340 0.812486 3.201000 232 217 231
1.227122 0.810678 3.172000 230 208 230
1.194238 0.794358 3.087000 238 212 230
1.173348 0.785772 3.033000 246 215 231
1.152844 0.777257 2.980000 242 218 232
1.152844 0.782474 2.980000 238 218 234
1.078567 0.771102 2.788000 232 216 233
1.078567 0.775983 2.788000 232 213 231
1.061158 0.768260 2.743000 232 214 228
1.044910 0.761224 2.701000 232 216 225
1.036786 0.759997 2.680000 233 216 226
1.028662 0.758697 2.659000 233 222 228
1.020925 0.757610 2.639000 234 211 226
1.020925 0.762229 2.639000 228 200 225
1.013188 0.761037 2.619000 223 204 227
1.005450 0.759775 2.599000 221 205 229
0.990363 0.752855 2.560000 220 195 224
0.983399 0.752011 2.542000 217 190 220
0.983399 0.756461 2.542000 215 192 220
0.976049 0.755224 2.523000 216 194 220
0.976049 0.759640 2.523000 218 193 218
0.962122 0.753155 2.487000 217 189 215
0.948195 0.746543 2.451000 216 191 207
0.941618 0.745626 2.434000 213 192 199
0.935042 0.744649 2.417000 211 196 198
0.928465 0.743613 2.400000 210 199 198
0.928465 0.747814 2.400000 209 185 186
0.922275 0.747001 2.384000 188 172 174
0.909509 0.740777 2.351000 167 154 156
0.903319 0.739823 2.335000 180 154 138
0.897516 0.739131 2.320000 194 151 138
0.891327 0.738067 2.304000 187 146 139
0.891327 0.742100 2.304000 180 148 138
0.891327 0.746133 2.304000 178 149 137
0.891327 0.750166 2.304000 176 146 134
0.707181 0.703981 1.828000 152 118 136
0.703699 0.703699 1.819000 155 168 153
0.703699 0.706883 1.819000 159 149 162
0.699831 0.706164 1.809000 160 138 172
1.343817 0.823239 3.458000 233 216 223
1.330216 0.820899 3.423000 231 216 227
1.317391 0.818919 3.390000 229 212 231
1.304567 0.816824 3.357000 231 207 235
1.279696 0.807016 3.293000 233 208 229
1.267649 0.805129 3.262000 231 206 223
1.255602 0.803133 3.231000 230 204 221
1.243944 0.801279 3.201000 233 211 220
1.243944 0.806883 3.201000 236 215 223
1.232674 0.805125 3.172000 233 211 226
1.232674 0.810678 3.172000 230 201 227
1.210523 0.801563 3.115000 236 209 229
1.188761 0.792508 3.059000 242 211 229
1.158061 0.782474 2.980000 237 221 233
1.110262 0.775183 2.857000 237 218 233
1.101324 0.773903 2.834000 234 219 234
1.091997 0.772268 2.810000 232 217 235
1.083448 0.771102 2.788000 231 217 232
1.083448 0.775983 2.788000 231 217 230
1.065960 0.768260 2.743000 231 214 227
1.049639 0.761224 2.701000 231 215 224
1.041478 0.759997 2.680000 232 215 225
1.033317 0.758697 2.659000 231 215 227
1.025545 0.757610 2.639000 231 212 227
1.017772 0.756453 2.619000 225 207 227
1.017772 0.761037 2.619000 218 206 231
1.010000 0.759775 2.599000 220 205 236
1.002617 0.758737 2.580000 221 195 227
0.987849 0.752011 2.542000 219 195 219
0.987849 0.756461 2.542000 217 193 220
0.980466 0.755224 2.523000 219 196 221
0.973471 0.754221 2.505000 221 195 217
0.966476 0.753155 2.487000 219 193 214
0.959481 0.752026 2.469000 218 195 205
0.945879 0.745626 2.434000 215 193 196
0.939273 0.744649 2.417000 212 197 197
0.939273 0.748880 2.417000 212 199 198
0.932667 0.747814 2.400000 212 191 182
0.926449 0.747001 2.384000 189 168 166
0.913625 0.740777 2.351000 166 133 151
0.907407 0.739823 2.335000 177 148 136
0.907407 0.743910 2.335000 188 156 136
0.901578 0.743192 2.320000 184 150 136
0.895360 0.742100 2.304000 180 151 132
0.895360 0.746133 2.304000 178 148 129
0.892251 0.747562 2.296000 176 142 129
0.706884 0.703699 1.819000 149 124 134
0.702997 0.702997 1.809000 159 143 151
0.699500 0.702651 1.800000 160 146 168
1.516554 0.843286 3.885000 228 197 206
1.516554 0.850087 3.885000 223 202 208
1.349870 0.823239 3.458000 236 211 222
1.336207 0.820899 3.423000 234 222 225
1.323326 0.818919 3.390000 233 211 227
1.310444 0.816824 3.357000 234 204 230
1.273359 0.799419 3.262000 236 205 227
1.273359 0.805129 3.262000 233 209 223
1.261258 0.803133 3.231000 231 209 224
1.249547 0.801279 3.201000 234 213 224
1.249547 0.806883 3.201000 237 214 228
1.238227 0.805125 3.172000 234 214 233
1.238227 0.810678 3.172000 231 211 231
1.226906 0.808768 3.143000 234 215 230
1.189041 0.789140 3.046000 238 213 227
1.115263 0.770182 2.857000 240 222 238
1.115263 0.775183 2.857000 238 218 235
1.106285 0.773903 2.834000 236 218 235
1.096916 0.772268 2.810000 233 216 235
