ply
format ascii 1.0
element vertex 1203
property float x
property float y
property float z
property uchar red
property uchar green
property uchar blue
end_header
0.482655 0.699500 1.998000 210 170 211
0.479756 0.698775 1.986000 209 170 210
0.477099 0.698362 1.975000 209 169 206
0.471543 0.693646 1.952000 210 170 203
0.468885 0.693135 1.941000 212 166 207
0.463812 0.688997 1.920000 208 163 211
0.461155 0.688391 1.909000 204 156 211
0.461155 0.691733 1.909000 207 160 212
0.458740 0.691434 1.899000 209 157 211
0.456082 0.690733 1.888000 208 166 210
0.456082 0.694038 1.888000 206 171 208
0.456082 0.697343 1.888000 206 163 206
0.453667 0.696937 1.878000 206 158 206
0.446420 0.689039 1.848000 204 162 207
0.441588 0.684782 1.828000 201 164 206
0.439414 0.684594 1.819000 206 167 206
0.436998 0.683998 1.809000 210 176 206
0.436998 0.687164 1.809000 209 174 207
0.434824 0.686896 1.800000 207 166 206
0.432409 0.686214 1.790000 207 168 206
0.430234 0.685881 1.781000 207 171 204
0.428060 0.685517 1.772000 205 167 202
0.425886 0.685121 1.763000 202 164 195
0.778866 0.745246 3.201000 165 125 153
0.771810 0.744047 3.172000 164 127 153
0.764753 0.742746 3.143000 167 138 153
0.764753 0.748248 3.143000 171 134 158
0.764753 0.753750 3.143000 176 133 164
0.757940 0.752488 3.115000 181 134 166
0.751127 0.751127 3.087000 181 137 169
0.751127 0.756531 3.087000 182 137 172
0.744314 0.755024 3.059000 183 139 175
0.731418 0.747204 3.006000 185 140 178
0.725092 0.745958 2.980000 188 144 181
0.719009 0.744873 2.955000 192 146 182
0.712926 0.743700 2.930000 195 149 183
0.701004 0.736306 2.881000 198 156 189
0.695164 0.735173 2.857000 200 161 196
0.689567 0.734216 2.834000 203 163 196
0.683728 0.732917 2.810000 203 160 197
0.678375 0.732059 2.788000 203 159 199
0.678375 0.736940 2.788000 203 157 201
0.672778 0.735700 2.765000 204 158 204
0.667425 0.734648 2.743000 204 161 207
0.657206 0.728128 2.701000 205 165 205
0.652096 0.727158 2.680000 204 171 203
0.646987 0.726115 2.659000 203 171 208
0.646987 0.730769 2.659000 203 175 214
0.642120 0.729892 2.639000 204 170 211
0.632387 0.723379 2.599000 205 171 208
0.622898 0.717005 2.560000 206 164 207
0.618518 0.716413 2.542000 202 171 206
0.613895 0.715475 2.523000 198 162 206
0.613895 0.719892 2.523000 202 161 205
0.609515 0.719141 2.505000 206 163 204
0.605136 0.718327 2.487000 208 174 204
0.596376 0.712219 2.451000 211 174 207
0.592240 0.711540 2.434000 210 170 210
0.588103 0.710801 2.417000 209 169 211
0.583967 0.710003 2.400000 215 173 213
0.580074 0.709443 2.384000 221 176 213
0.575937 0.708527 2.367000 215 179 214
0.572044 0.707853 2.351000 209 171 217
0.568151 0.707123 2.335000 210 171 220
0.564501 0.706642 2.320000 211 175 219
0.560608 0.705802 2.304000 208 179 218
0.556958 0.705214 2.289000 205 178 216
0.556958 0.709220 2.289000 209 182 213
0.556958 0.713227 2.289000 214 176 212
0.553309 0.712534 2.274000 211 175 211
0.553309 0.716515 2.274000 209 172 213
0.549659 0.715743 2.259000 210 177 215
0.538953 0.705679 2.215000 212 171 213
0.532140 0.700587 2.187000 212 173 212
0.532140 0.704415 2.187000 212 174 209
0.528977 0.704034 2.174000 211 178 207
0.528977 0.707839 2.174000 211 176 210
0.525570 0.707062 2.160000 213 180 214
0.522407 0.706565 2.147000 216 177 215
0.519001 0.705691 2.133000 215 176 217
0.512674 0.700778 2.107000 215 176 220
0.509754 0.700454 2.095000 215 181 223
0.506591 0.699752 2.082000 215 174 221
0.503428 0.699005 2.069000 214 170 218
0.497588 0.694476 2.045000 214 169 218
0.494669 0.693960 2.033000 213 170 218
0.494669 0.697518 2.033000 212 170 218
0.491749 0.696939 2.021000 206 168 219
0.488829 0.696317 2.009000 200 171 213
0.486152 0.696002 1.998000 204 172 208
0.483233 0.695299 1.986000 208 172 209
0.483233 0.698775 1.986000 208 170 210
0.477880 0.694473 1.964000 209 169 208
0.474960 0.693646 1.952000 208 168 205
0.469850 0.689564 1.931000 207 170 207
0.467173 0.688997 1.920000 203 173 208
0.464497 0.688391 1.909000 200 166 208
0.462064 0.688109 1.899000 203 171 209
0.462064 0.691434 1.899000 207 164 208
0.459387 0.690733 1.888000 207 166 208
0.459387 0.694038 1.888000 207 169 207
0.459387 0.697343 1.888000 206 170 206
0.456954 0.696937 1.878000 206 163 206
0.449654 0.689039 1.848000 202 164 206
0.444788 0.684782 1.828000 199 163 201
0.442598 0.684594 1.819000 206 163 197
0.440165 0.683998 1.809000 214 169 204
0.440165 0.687164 1.809000 211 177 210
0.437975 0.686896 1.800000 209 171 210
0.435542 0.686214 1.790000 209 168 211
0.433352 0.685881 1.781000 210 167 207
0.428972 0.682035 1.763000 209 167 204
0.426782 0.681624 1.754000 209 165 198
0.777362 0.744047 3.172000 160 123 153
0.777362 0.749599 3.172000 164 129 152
0.770255 0.748248 3.143000 168 130 157
0.770255 0.753750 3.143000 172 130 162
0.763393 0.752488 3.115000 177 132 164
0.763393 0.757940 3.115000 178 135 167
0.756531 0.756531 3.087000 179 138 170
0.749669 0.755024 3.059000 180 138 174
0.743297 0.753916 3.033000 182 140 176
0.736681 0.752467 3.006000 184 143 179
0.730309 0.751175 2.980000 186 145 182
0.718055 0.743700 2.930000 192 146 185
0.706047 0.736306 2.881000 198 152 188
0.694528 0.729255 2.834000 199 159 191
0.694528 0.734216 2.834000 201 163 194
0.688647 0.732917 2.810000 201 161 197
0.683255 0.732059 2.788000 201 159 198
0.683255 0.736940 2.788000 201 157 200
0.677619 0.735700 2.765000 202 158 200
0.672227 0.734648 2.743000 202 160 200
0.661934 0.728128 2.701000 203 161 201
0.656788 0.727158 2.680000 203 166 203
0.651641 0.726115 2.659000 203 170 206
0.646740 0.725272 2.639000 204 170 209
0.646740 0.729892 2.639000 205 173 206
0.641838 0.728945 2.619000 207 170 204
0.636937 0.727928 2.599000 209 157 206
0.627379 0.721486 2.560000 205 164 208
0.627379 0.725968 2.560000 201 163 207
0.618312 0.719892 2.523000 203 160 206
0.613900 0.719141 2.505000 205 151 200
0.609489 0.718327 2.487000 209 164 194
0.605078 0.717450 2.469000 213 174 200
0.600667 0.716510 2.451000 212 171 206
0.596500 0.715801 2.434000 210 168 208
0.592334 0.715032 2.417000 213 171 211
0.584247 0.709443 2.384000 217 175 213
0.580081 0.708527 2.367000 214 173 215
0.576160 0.707853 2.351000 211 168 217
0.576160 0.711969 2.351000 212 172 220
0.568563 0.706642 2.320000 212 170 219
0.564641 0.705802 2.304000 211 172 218
0.564641 0.709835 2.304000 210 173 215
0.560965 0.709220 2.289000 213 178 212
0.560965 0.713227 2.289000 216 175 209
0.560965 0.717234 2.289000 213 173 207
0.557289 0.716515 2.274000 210 172 210
0.553613 0.715743 2.259000 211 175 214
0.546506 0.710458 2.230000 213 179 212
0.535968 0.700587 2.187000 211 174 211
0.532782 0.700228 2.174000 210 170 206
0.532782 0.704034 2.174000 211 172 202
0.529351 0.703281 2.160000 211 171 208
0.529351 0.707062 2.160000 217 174 214
0.526165 0.706565 2.147000 223 173 216
0.522734 0.705691 2.133000 219 173 219
0.519548 0.705102 2.120000 216 174 223
0.513422 0.700454 2.095000 215 176 227
0.510236 0.699752 2.082000 215 174 223
0.510236 0.703397 2.082000 215 171 220
0.501168 0.694476 2.045000 215 171 219
0.498227 0.693960 2.033000 216 172 219
0.495287 0.693401 2.021000 218 172 220
0.495287 0.696939 2.021000 212 172 222
0.492346 0.696317 2.009000 206 176 213
0.489650 0.696002 1.998000 207 175 204
0.486709 0.695299 1.986000 209 177 207
0.486709 0.698775 1.986000 208 172 211
0.484013 0.698362 1.975000 207 171 209
0.478377 0.693646 1.952000 207 170 208
0.475681 0.693135 1.941000 207 174 207
0.470534 0.688997 1.920000 205 172 206
0.467839 0.688391 1.909000 203 165 206
0.465388 0.688109 1.899000 204 165 206
0.465388 0.691434 1.899000 206 164 206
0.462692 0.690733 1.888000 207 166 206
0.462692 0.694038 1.888000 208 170 206
0.460241 0.693650 1.878000 210 169 206
0.457791 0.693226 1.868000 213 163 205
0.452889 0.689039 1.848000 208 162 205
0.447988 0.684782 1.828000 203 161 197
0.445782 0.684594 1.819000 207 161 189
0.443332 0.683998 1.809000 210 161 201
0.443332 0.687164 1.809000 208 169 214
0.441126 0.686896 1.800000 207 173 215
0.438675 0.686214 1.790000 208 168 216
0.436470 0.685881 1.781000 209 165 211
0.432058 0.682035 1.763000 209 164 206
0.429853 0.681624 1.754000 209 163 202
0.775757 0.737244 3.143000 156 126 147
0.775757 0.742746 3.143000 161 128 149
0.775757 0.748248 3.143000 166 128 154
0.775757 0.753750 3.143000 169 128 159
0.768846 0.752488 3.115000 173 130 163
0.761935 0.751127 3.087000 174 133 167
0.761935 0.756531 3.087000 176 134 170
0.755024 0.755024 3.059000 177 136 173
0.748607 0.753916 3.033000 179 139 175
0.741942 0.752467 3.006000 179 144 177
0.735525 0.751175 2.980000 180 144 181
0.723184 0.743700 2.930000 189 141 184
0.711090 0.736306 2.881000 199 148 187
0.705166 0.735173 2.857000 199 160 190
0.699489 0.734216 2.834000 199 158 192
0.693566 0.732917 2.810000 199 164 195
0.693566 0.737836 2.810000 200 159 197
0.693566 0.742755 2.810000 200 156 199
0.688136 0.741820 2.788000 200 157 198
0.682459 0.740540 2.765000 201 163 198
0.671845 0.733789 2.722000 202 161 200
0.666662 0.732856 2.701000 203 162 203
0.656296 0.726115 2.659000 204 163 205
0.656296 0.730769 2.659000 205 165 208
0.651359 0.729892 2.639000 206 169 207
0.646423 0.728945 2.619000 209 179 206
0.641487 0.727928 2.599000 212 167 207
0.631861 0.721486 2.560000 208 168 209
0.627418 0.720863 2.542000 204 166 210
0.622728 0.719892 2.523000 204 167 211
0.618285 0.719141 2.505000 204 161 206
0.613843 0.718327 2.487000 210 159 200
0.613843 0.722680 2.487000 216 166 203
0.600761 0.711540 2.434000 214 172 206
0.596565 0.710801 2.417000 212 170 207
0.592369 0.710003 2.400000 212 171 209
0.588420 0.709443 2.384000 213 171 211
0.584224 0.708527 2.367000 213 170 212
0.580275 0.707853 2.351000 214 173 214
0.580275 0.711969 2.351000 214 180 216
0.568675 0.701769 2.304000 214 174 218
0.568675 0.705802 2.304000 215 167 221
0.568675 0.709835 2.304000 216 172 216
0.564972 0.709220 2.289000 217 184 212
0.564972 0.713227 2.289000 219 178 211
0.561270 0.712534 2.274000 215 172 211
0.557568 0.711788 2.259000 212 173 213
0.553865 0.710990 2.244000 213 175 216
0.550410 0.710458 2.230000 214 177 214
0.543252 0.705072 2.201000 211 176 213
0.539796 0.704415 2.187000 209 174 209
0.536588 0.704034 2.174000 210 172 205
0.536588 0.707839 2.174000 212 172 209
0.533132 0.707062 2.160000 221 172 214
0.529924 0.706565 2.147000 231 172 216
0.526468 0.705691 2.133000 224 171 218
0.523260 0.705102 2.120000 217 174 220
0.520051 0.704466 2.107000 216 176 222
0.517089 0.704121 2.095000 216 174 219
0.513880 0.703397 2.082000 216 172 217
0.504748 0.694476 2.045000 217 172 215
0.501786 0.693960 2.033000 220 175 214
0.501786 0.697518 2.033000 224 173 216
0.498824 0.696939 2.021000 218 175 219
0.495862 0.696317 2.009000 212 175 214
0.493147 0.696002 1.998000 211 175 208
0.490186 0.695299 1.986000 210 175 209
0.490186 0.698775 1.986000 208 172 210
0.484756 0.694473 1.964000 206 171 209
0.481794 0.693646 1.952000 207 169 209
0.479079 0.693135 1.941000 208 173 207
0.476610 0.692944 1.931000 207 177 206
0.473895 0.692358 1.920000 206 166 206
0.471180 0.691733 1.909000 205 162 205
0.471180 0.695075 1.909000 205 163 204
0.465997 0.690733 1.888000 207 165 203
0.463529 0.690362 1.878000 209 169 205
0.463529 0.693650 1.878000 215 173 208
0.458593 0.689515 1.858000 221 166 210
0.453656 0.685310 1.838000 214 163 213
0.451188 0.684782 1.828000 208 163 205
0.448967 0.684594 1.819000 207 161 197
0.448967 0.687779 1.819000 207 160 203
0.446498 0.687164 1.809000 206 166 210
0.444277 0.686896 1.800000 205 168 211
0.441809 0.686214 1.790000 207 168 213
0.439587 0.685881 1.781000 209 166 210
0.437366 0.685517 1.772000 209 164 207
0.432923 0.681624 1.754000 209 163 203
0.774299 0.741582 3.115000 163 126 151
0.767339 0.740320 3.087000 167 126 157
0.767339 0.745724 3.087000 171 129 162
0.767339 0.751127 3.087000 172 129 167
0.767339 0.756531 3.087000 173 130 169
0.760379 0.755024 3.059000 175 134 172
0.753916 0.753916 3.033000 178 137 174
0.740742 0.745958 2.980000 179 141 176
0.734527 0.744873 2.955000 180 146 180
0.722099 0.737355 2.905000 187 143 184
0.716133 0.736306 2.881000 195 140 187
0.710167 0.735173 2.857000 196 147 190
0.704450 0.734216 2.834000 197 146 191
0.698484 0.732917 2.810000 197 157 193
0.698484 0.737836 2.810000 198 159 195
0.693016 0.736940 2.788000 197 155 198
0.687299 0.735700 2.765000 196 153 197
0.687299 0.740540 2.765000 199 158 196
0.676610 0.733789 2.722000 202 159 199
0.671390 0.732856 2.701000 203 157 203
0.660950 0.726115 2.659000 204 157 205
0.655979 0.725272 2.639000 205 161 207
0.651008 0.724361 2.619000 205 162 208
0.646036 0.723379 2.599000 207 167 209
0.641313 0.722607 2.580000 209 165 209
0.636342 0.721486 2.560000 207 165 210
0.636342 0.725968 2.560000 205 167 213
0.631868 0.725313 2.542000 205 166 217
0.627145 0.724308 2.523000 205 168 212
0.622670 0.723526 2.505000 208 163 207
0.618196 0.722680 2.487000 211 160 206
0.609248 0.716510 2.451000 210 166 206
0.605022 0.715801 2.434000 209 171 207
0.600796 0.715032 2.417000 210 170 208
0.596570 0.714204 2.400000 211 169 209
0.592593 0.713616 2.384000 212 169 210
0.588368 0.712671 2.367000 214 175 211
0.588368 0.716814 2.367000 215 179 213
0.584390 0.716084 2.351000 217 179 218
0.572708 0.705802 2.304000 216 170 224
0.572708 0.709835 2.304000 216 166 218
0.568979 0.709220 2.289000 216 178 212
0.568979 0.713227 2.289000 216 183 213
0.568979 0.717234 2.289000 212 176 215
0.561522 0.711788 2.259000 208 174 216
0.561522 0.715743 2.259000 213 176 218
0.557793 0.714918 2.244000 219 179 217
0.547105 0.705072 2.201000 215 178 216
0.543625 0.704415 2.187000 211 178 212
0.540393 0.704034 2.174000 212 175 209
0.540393 0.707839 2.174000 212 175 211
0.536913 0.707062 2.160000 217 173 214
0.533682 0.706565 2.147000 222 173 216
0.530202 0.705691 2.133000 219 172 218
0.526971 0.705102 2.120000 216 175 218
0.523739 0.704466 2.107000 215 175 218
0.520756 0.704121 2.095000 214 177 216
0.517525 0.703397 2.082000 213 173 214
0.511311 0.698551 2.057000 213 170 211
0.508328 0.698056 2.045000 216 171 209
0.505345 0.697518 2.033000 219 173 213
0.502362 0.696939 2.021000 216 174 217
0.499379 0.696317 2.009000 213 175 215
0.497888 0.697744 2.003000 211 176 213
0.496645 0.699500 1.998000 210 176 211
0.493662 0.698775 1.986000 209 174 210
0.490928 0.698362 1.975000 208 175 210
0.485211 0.693646 1.952000 211 172 210
0.482476 0.693135 1.941000 214 172 208
0.479991 0.692944 1.931000 210 169 207
0.477256 0.692358 1.920000 206 162 206
0.477256 0.695719 1.920000 203 161 205
0.474522 0.695075 1.909000 200 163 203
0.469302 0.690733 1.888000 203 166 201
0.466816 0.690362 1.878000 207 171 205
0.464331 0.689956 1.868000 209 170 210
0.461845 0.689515 1.858000 211 168 215
0.456873 0.685310 1.838000 209 166 221
0.454388 0.684782 1.828000 207 167 213
0.452151 0.684594 1.819000 206 163 205
0.452151 0.687779 1.819000 205 154 205
0.449665 0.687164 1.809000 203 161 206
0.447428 0.686896 1.800000 202 165 208
0.444942 0.686214 1.790000 206 166 211
0.442705 0.685881 1.781000 210 167 209
0.438231 0.682035 1.763000 209 165 208
0.435994 0.681624 1.754000 207 165 205
0.765734 0.738960 3.059000 169 126 162
0.765734 0.744315 3.059000 170 126 164
0.765734 0.749669 3.059000 171 128 166
0.765734 0.755024 3.059000 174 135 169
0.752466 0.747204 3.006000 177 137 172
0.745958 0.745958 2.980000 178 139 176
0.745958 0.751175 2.980000 180 140 179
0.727184 0.737355 2.905000 185 145 183
0.721176 0.736306 2.881000 191 143 184
0.715169 0.735173 2.857000 193 144 186
0.709411 0.734216 2.834000 195 148 189
0.709411 0.739177 2.834000 196 160 193
0.703403 0.737836 2.810000 197 155 194
0.697896 0.736940 2.788000 194 153 195
0.692139 0.735700 2.765000 192 151 194
0.692139 0.740540 2.765000 197 157 194
0.681375 0.733789 2.722000 202 155 197
0.676118 0.732856 2.701000 203 153 200
0.670862 0.731849 2.680000 205 156 202
0.660599 0.725272 2.639000 205 161 204
0.655592 0.724361 2.619000 205 160 205
0.650586 0.723379 2.599000 205 163 207
0.645829 0.722607 2.580000 206 161 208
0.640823 0.721486 2.560000 206 163 209
0.636317 0.720863 2.542000 207 163 211
0.636317 0.725313 2.542000 207 163 213
0.627055 0.719141 2.505000 207 166 210
0.627055 0.723526 2.505000 207 167 206
0.622550 0.722680 2.487000 207 165 206
0.613538 0.716510 2.451000 207 164 207
0.609282 0.715801 2.434000 207 166 207
0.605027 0.715032 2.417000 208 170 207
0.600772 0.714204 2.400000 209 168 208
0.596766 0.713616 2.384000 211 165 209
0.592511 0.712671 2.367000 214 171 210
0.592511 0.716814 2.367000 217 182 211
0.588506 0.716084 2.351000 220 175 214
0.576741 0.705802 2.304000 218 171 217
0.576741 0.709835 2.304000 216 171 214
0.572986 0.709220 2.289000 215 179 212
0.572986 0.713227 2.289000 214 176 213
0.569231 0.712534 2.274000 209 175 215
0.565476 0.711788 2.259000 204 176 215
0.561722 0.710990 2.244000 214 178 216
0.558217 0.710458 2.230000 225 178 215
0.550958 0.705072 2.201000 219 179 214
0.547453 0.704415 2.187000 214 177 211
0.547453 0.708244 2.187000 213 178 208
0.544199 0.707839 2.174000 213 175 211
0.537440 0.702807 2.147000 213 173 214
0.533936 0.701958 2.133000 213 171 216
0.533936 0.705691 2.133000 214 172 218
0.530682 0.705102 2.120000 216 173 218
0.524424 0.700454 2.095000 214 172 219
0.521169 0.699752 2.082000 212 173 217
0.521169 0.703397 2.082000 210 175 216
0.514911 0.698551 2.057000 209 171 215
0.508904 0.693960 2.033000 212 169 214
0.508904 0.697518 2.033000 215 169 215
0.505900 0.696939 2.021000 214 173 216
0.505900 0.700477 2.021000 214 176 215
0.502896 0.699834 2.009000 212 181 213
0.500142 0.699500 1.998000 210 176 212
0.497139 0.698775 1.986000 210 175 210
0.494385 0.698362 1.975000 210 173 211
0.488628 0.693646 1.952000 215 172 212
0.485874 0.693135 1.941000 220 171 212
0.483371 0.692944 1.931000 213 167 212
0.483371 0.696325 1.931000 207 163 211
0.480617 0.695719 1.920000 201 157 210
0.477864 0.695075 1.909000 196 160 201
0.475361 0.694758 1.899000 200 167 192
0.470104 0.690362 1.878000 205 169 201
0.467601 0.689956 1.868000 203 169 211
0.465097 0.689515 1.858000 201 167 214
0.460091 0.685310 1.838000 204 167 217
0.457588 0.684782 1.828000 207 167 212
0.455335 0.684594 1.819000 205 170 207
0.455335 0.687779 1.819000 204 162 207
0.452832 0.687164 1.809000 201 162 207
0.450579 0.686896 1.800000 199 165 207
0.450579 0.690047 1.800000 205 166 208
0.445823 0.685881 1.781000 212 167 207
0.443570 0.685517 1.772000 209 164 207
0.439064 0.681624 1.754000 206 163 204
0.764534 0.732679 3.033000 165 127 163
0.764534 0.737988 3.033000 167 125 161
0.771088 0.749669 3.059000 170 122 164
0.764534 0.748607 3.033000 172 131 167
0.757728 0.747204 3.006000 174 138 171
0.751175 0.745958 2.980000 175 136 176
0.751175 0.751175 2.980000 176 132 179
0.738571 0.743700 2.930000 183 139 183
0.732269 0.742440 2.905000 191 145 182
0.726219 0.741349 2.881000 192 145 182
0.720170 0.740175 2.857000 193 145 187
0.714372 0.739177 2.834000 194 149 193
0.708322 0.737836 2.810000 194 151 192
0.708322 0.742755 2.810000 192 148 192
0.702777 0.741820 2.788000 191 142 192
0.696979 0.740540 2.765000 194 150 192
0.686140 0.733789 2.722000 198 153 195
0.680847 0.732856 2.701000 200 153 198
0.675553 0.731849 2.680000 202 154 199
0.670259 0.730769 2.659000 202 157 201
0.665218 0.729892 2.639000 203 156 203
0.660177 0.728945 2.619000 203 156 206
0.655135 0.727928 2.599000 204 153 207
0.650346 0.727123 2.580000 205 159 208
0.640767 0.720863 2.542000 207 160 209
0.635978 0.719892 2.523000 209 164 210
0.635978 0.724308 2.523000 211 166 208
0.631440 0.723526 2.505000 208 168 206
0.626903 0.722680 2.487000 206 171 207
0.622366 0.721772 2.469000 205 164 208
0.617828 0.720800 2.451000 204 159 207
0.609258 0.715032 2.417000 205 164 207
0.604973 0.714204 2.400000 206 168 207
0.600940 0.713616 2.384000 208 166 208
0.596654 0.712671 2.367000 211 163 209
0.596654 0.716814 2.367000 212 172 210
0.592621 0.716084 2.351000 214 171 210
0.580774 0.705802 2.304000 214 170 210
0.580774 0.709835 2.304000 214 169 211
0.576993 0.709220 2.289000 214 170 213
0.576993 0.713227 2.289000 214 168 214
0.573212 0.712534 2.274000 210 173 215
0.569431 0.711788 2.259000 207 177 215
0.565650 0.710990 2.244000 213 177 215
0.558339 0.705679 2.215000 220 178 213
0.554811 0.705072 2.201000 217 177 212
0.548005 0.700228 2.174000 213 173 209
0.548005 0.704034 2.174000 213 176 207
0.544476 0.703281 2.160000 212 177 211
0.541199 0.702807 2.147000 213 173 215
0.537670 0.701958 2.133000 213 168 217
0.537670 0.705691 2.133000 214 170 219
0.534393 0.705102 2.120000 214 173 219
0.531116 0.704466 2.107000 213 171 220
0.524814 0.699752 2.082000 212 171 219
0.521537 0.699005 2.069000 211 171 219
0.521537 0.702626 2.069000 211 170 219
0.512462 0.693960 2.033000 212 168 219
0.512462 0.697518 2.033000 214 163 217
0.509438 0.696939 2.021000 214 171 216
0.509438 0.700477 2.021000 215 177 215
0.506413 0.699834 2.009000 213 175 214
0.503640 0.699500 1.998000 212 174 212
0.500615 0.698775 1.986000 212 173 211
0.497842 0.698362 1.975000 211 171 213
0.492045 0.693646 1.952000 214 171 215
0.489272 0.693135 1.941000 217 174 216
0.486751 0.692944 1.931000 213 169 217
0.486751 0.696325 1.931000 208 169 216
0.483978 0.695719 1.920000 205 163 215
0.481205 0.695075 1.909000 202 154 199
0.478685 0.694758 1.899000 205 160 183
0.473391 0.690362 1.878000 208 170 198
0.470870 0.689956 1.868000 206 168 213
0.465829 0.685804 1.848000 204 166 213
0.463308 0.685310 1.838000 206 165 213
0.460788 0.684782 1.828000 209 164 211
0.458519 0.684594 1.819000 207 165 210
0.458519 0.687779 1.819000 205 164 209
0.455998 0.687164 1.809000 204 164 208
0.453730 0.686896 1.800000 204 167 207
0.453730 0.690047 1.800000 207 169 206
0.448940 0.685881 1.781000 210 171 206
0.446672 0.685517 1.772000 207 167 206
0.446672 0.688619 1.772000 205 163 203
0.769844 0.748607 3.033000 170 129 164
0.762990 0.747204 3.006000 172 133 167
0.762990 0.752467 3.006000 172 135 171
0.756391 0.751175 2.980000 172 135 174
0.743700 0.743700 2.930000 181 136 177
0.731263 0.736306 2.881000 191 143 178
0.725171 0.735173 2.857000 191 148 179
0.725171 0.740175 2.857000 192 145 184
0.719333 0.739177 2.834000 192 142 189
0.713241 0.737836 2.810000 192 145 190
0.713241 0.742755 2.810000 191 148 191
0.707657 0.741820 2.788000 190 146 190
0.701819 0.740540 2.765000 192 148 190
0.690905 0.733789 2.722000 195 151 193
0.690905 0.738554 2.722000 197 153 195
0.685575 0.737584 2.701000 199 155 196
0.674914 0.730769 2.659000 200 158 197
0.669838 0.729892 2.639000 201 157 200
0.664761 0.728945 2.619000 202 154 204
0.659685 0.727928 2.599000 203 157 204
0.654862 0.727123 2.580000 205 162 205
0.645217 0.720863 2.542000 207 163 206
0.640394 0.719892 2.523000 211 167 208
0.640394 0.724308 2.523000 216 167 207
0.635825 0.723526 2.505000 210 168 206
0.635825 0.727911 2.505000 205 166 208
0.626688 0.721772 2.469000 203 163 210
0.626688 0.726094 2.469000 201 161 207
0.622119 0.725091 2.451000 202 160 205
0.617804 0.724322 2.434000 204 161 205
0.613489 0.723494 2.417000 206 170 206
0.600798 0.712671 2.367000 208 168 207
0.600798 0.716814 2.367000 208 173 208
0.596737 0.716084 2.351000 209 169 209
0.592676 0.715298 2.335000 211 172 209
0.584807 0.709835 2.304000 213 169 210
0.581000 0.709220 2.289000 214 167 211
0.581000 0.713227 2.289000 215 170 212
0.577192 0.712534 2.274000 212 175 214
0.573385 0.711788 2.259000 210 175 214
0.569578 0.710990 2.244000 213 177 215
0.566024 0.710458 2.230000 216 175 214
0.558663 0.705072 2.201000 214 178 212
0.555110 0.704415 2.187000 213 176 211
0.551810 0.704034 2.174000 212 176 210
0.551810 0.707839 2.174000 212 176 213
0.548257 0.707062 2.160000 213 176 216
0.541403 0.701958 2.133000 214 171 218
0.541403 0.705691 2.133000 213 170 220
0.538104 0.705102 2.120000 213 170 220
0.534804 0.704466 2.107000 213 170 219
0.528458 0.699752 2.082000 213 170 217
0.525159 0.699005 2.069000 213 171 215
0.525159 0.702626 2.069000 213 170 219
0.516021 0.693960 2.033000 213 171 223
0.512975 0.693401 2.021000 214 171 217
0.512975 0.696939 2.021000 215 173 212
0.512975 0.700477 2.021000 216 172 213
0.509929 0.699834 2.009000 215 170 213
0.507137 0.699500 1.998000 215 171 211
0.504092 0.698775 1.986000 214 173 208
0.501300 0.698362 1.975000 213 171 212
0.495462 0.693646 1.952000 214 170 215
0.492670 0.693135 1.941000 215 167 218
0.492670 0.696533 1.941000 212 166 220
0.490131 0.696325 1.931000 210 169 217
0.487339 0.695719 1.920000 209 174 213
0.487339 0.699080 1.920000 208 162 205
0.482009 0.694758 1.899000 209 152 197
0.474140 0.686686 1.868000 211 164 204
0.471602 0.686263 1.858000 209 168 212
0.469064 0.685804 1.848000 207 166 212
0.466526 0.685310 1.838000 209 166 212
0.463988 0.684782 1.828000 212 165 213
0.461703 0.684594 1.819000 209 164 213
0.461703 0.687779 1.819000 206 165 211
0.459165 0.687164 1.809000 207 166 209
0.459165 0.690331 1.809000 209 167 208
0.456881 0.690047 1.800000 208 172 208
0.452058 0.685881 1.781000 208 171 207
0.452058 0.688999 1.781000 206 171 205
0.449774 0.688619 1.772000 204 163 203
0.775153 0.748607 3.033000 167 129 161
0.768252 0.747204 3.006000 169 131 163
0.761608 0.745958 2.980000 170 133 166
0.761608 0.751175 2.980000 172 137 169
0.748829 0.743700 2.930000 178 140 172
0.742440 0.742440 2.905000 185 143 174
0.736306 0.741349 2.881000 187 145 176
0.730172 0.740175 2.857000 189 147 180
0.724294 0.739177 2.834000 189 146 185
0.718160 0.737836 2.810000 190 142 187
0.718160 0.742755 2.810000 189 144 190
0.712538 0.741820 2.788000 189 147 189
0.706659 0.740540 2.765000 191 149 189
0.695670 0.733789 2.722000 194 151 191
0.690303 0.732856 2.701000 195 154 193
0.684936 0.731849 2.680000 196 158 193
0.679569 0.730769 2.659000 197 159 194
0.674457 0.729892 2.639000 198 160 198
0.669346 0.728945 2.619000 200 157 202
0.664234 0.727928 2.599000 202 159 202
0.659378 0.727123 2.580000 204 161 202
0.654267 0.725968 2.560000 205 163 204
0.649667 0.725313 2.542000 209 164 206
0.640210 0.719141 2.505000 212 167 206
0.640210 0.723526 2.505000 209 167 206
0.640210 0.727911 2.505000 205 162 209
0.631010 0.721772 2.469000 205 163 212
0.626410 0.720800 2.451000 204 162 208
0.626410 0.725091 2.451000 205 156 204
0.622065 0.724322 2.434000 206 146 204
0.617720 0.723494 2.417000 206 159 204
0.609286 0.717789 2.384000 206 167 205
0.604941 0.716814 2.367000 207 166 207
0.604941 0.720958 2.367000 207 161 208
0.600852 0.720200 2.351000 209 166 209
0.600852 0.724315 2.351000 211 169 209
0.585007 0.709220 2.289000 211 168 209
0.585007 0.713227 2.289000 212 170 211
0.581173 0.712534 2.274000 209 172 213
0.577339 0.711788 2.259000 206 173 214
0.573506 0.710990 2.244000 212 171 216
0.569928 0.710458 2.230000 218 169 214
0.562516 0.705072 2.201000 216 174 213
0.558938 0.704415 2.187000 214 179 213
0.555616 0.704034 2.174000 212 175 214
0.555616 0.707839 2.174000 211 175 216
0.552038 0.707062 2.160000 213 173 218
0.545137 0.701958 2.133000 215 173 220
0.545137 0.705691 2.133000 212 170 222
0.541815 0.705102 2.120000 210 169 220
0.538492 0.704466 2.107000 211 170 219
0.535425 0.704121 2.095000 211 168 215
0.532103 0.703397 2.082000 209 170 212
0.528781 0.702626 2.069000 208 171 219
0.519580 0.693960 2.033000 210 173 227
0.516513 0.693401 2.021000 213 177 218
0.516513 0.696939 2.021000 216 172 209
0.516513 0.700477 2.021000 219 169 211
0.513446 0.699834 2.009000 217 172 213
0.510635 0.699500 1.998000 216 168 209
0.507568 0.698775 1.986000 216 169 206
0.504757 0.698362 1.975000 216 171 211
0.498879 0.693646 1.952000 215 169 216
0.496067 0.693135 1.941000 214 159 220
0.496067 0.696533 1.941000 212 164 224
0.493512 0.696325 1.931000 211 168 218
0.490700 0.695719 1.920000 209 171 212
0.490700 0.699080 1.920000 208 168 212
0.485333 0.694758 1.899000 208 163 212
0.477410 0.686686 1.868000 209 166 211
0.474855 0.686263 1.858000 206 166 211
0.472299 0.685804 1.848000 202 165 211
0.469743 0.685310 1.838000 206 165 212
0.467187 0.684782 1.828000 210 169 214
0.464887 0.684594 1.819000 208 169 217
0.464887 0.687779 1.819000 206 169 213
0.462332 0.687164 1.809000 208 166 210
0.460031 0.686896 1.800000 209 166 210
0.460031 0.690047 1.800000 208 169 211
0.455176 0.685881 1.781000 206 173 208
0.452875 0.685517 1.772000 204 169 205
0.450575 0.685121 1.763000 202 159 203
1.011281 -0.130710 3.930000 149 26 1
1.022861 -0.125248 3.975000 101 48 55
1.022861 -0.118290 3.975000 177 79 110
1.022861 -0.111332 3.975000 254 139 121
1.022861 -0.104373 3.975000 254 254 132
1.022861 -0.097415 3.975000 254 190 133
1.022861 0.090457 3.975000 97 47 21
1.022861 0.097415 3.975000 97 46 28
1.022861 0.104374 3.975000 97 45 34
1.022861 0.111332 3.975000 97 45 29
0.780462 0.748607 3.033000 164 129 158
0.773514 0.747204 3.006000 166 129 161
0.766824 0.745958 2.980000 169 130 164
0.766824 0.751175 2.980000 172 134 167
0.753958 0.743700 2.930000 176 145 171
0.747525 0.742440 2.905000 180 143 172
0.747525 0.747525 2.905000 183 142 174
0.741349 0.746392 2.881000 186 146 179
0.735173 0.745176 2.857000 187 153 184
0.729255 0.744138 2.834000 188 145 185
0.723079 0.742755 2.810000 188 140 186
0.717418 0.741820 2.788000 188 144 186
0.711499 0.740540 2.765000 191 150 187
0.695031 0.728128 2.701000 194 150 188
0.695031 0.732856 2.701000 193 155 189
0.689627 0.731849 2.680000 193 156 191
0.684223 0.730769 2.659000 194 160 193
0.679077 0.729892 2.639000 196 158 196
0.673930 0.728945 2.619000 199 158 200
0.668784 0.727928 2.599000 202 159 200
0.663895 0.727123 2.580000 203 161 201
0.654116 0.720863 2.542000 204 161 202
0.649227 0.719892 2.523000 206 161 204
0.644595 0.719141 2.505000 209 164 206
0.644595 0.723526 2.505000 207 172 208
0.639964 0.722680 2.487000 206 166 212
0.635332 0.721772 2.469000 207 168 217
0.630700 0.720800 2.451000 208 162 212
0.630700 0.725091 2.451000 208 159 208
0.626325 0.724322 2.434000 208 155 205
0.621951 0.723494 2.417000 206 154 202
0.609085 0.712671 2.367000 205 160 203
0.609085 0.716814 2.367000 205 166 205
0.604968 0.716084 2.351000 206 163 206
0.604968 0.720200 2.351000 207 162 208
0.596991 0.714764 2.320000 209 167 209
0.592873 0.713868 2.304000 209 169 210
0.589013 0.713227 2.289000 209 169 211
0.585154 0.712534 2.274000 205 171 213
0.585154 0.716515 2.274000 202 170 214
0.573831 0.706554 2.230000 211 168 215
0.573831 0.710458 2.230000 221 167 214
0.566369 0.705072 2.201000 218 172 213
0.562766 0.704415 2.187000 216 174 216
0.562766 0.708244 2.187000 213 173 220
0.559421 0.707839 2.174000 210 172 219
0.555819 0.707062 2.160000 213 171 218
0.552474 0.706565 2.147000 216 172 218
0.548871 0.705691 2.133000 212 170 219
0.542181 0.700778 2.107000 208 171 219
0.539093 0.700454 2.095000 209 174 219
0.535748 0.699752 2.082000 210 171 217
0.532402 0.699005 2.069000 206 171 216
0.532402 0.702626 2.069000 203 172 220
0.526227 0.698056 2.045000 207 174 224
0.523139 0.697518 2.033000 212 174 218
0.520051 0.696939 2.021000 217 172 212
0.520051 0.700477 2.021000 222 173 214
0.516963 0.699834 2.009000 219 182 216
0.514132 0.699500 1.998000 217 171 212
0.511045 0.698775 1.986000 218 166 209
0.505383 0.694473 1.964000 220 169 212
0.502295 0.693646 1.952000 217 178 215
0.499465 0.693135 1.941000 214 168 217
0.499465 0.696533 1.941000 213 164 219
0.496892 0.696325 1.931000 212 170 215
0.496892 0.699705 1.931000 210 177 212
0.494061 0.699080 1.920000 208 168 211
0.488657 0.694758 1.899000 208 167 211
0.480680 0.686686 1.868000 208 166 210
0.478107 0.686263 1.858000 203 166 209
0.475534 0.685804 1.848000 198 165 208
0.472961 0.685310 1.838000 203 162 208
0.470387 0.684782 1.828000 208 167 211
0.468071 0.684594 1.819000 207 175 214
0.468071 0.687779 1.819000 207 168 211
0.465498 0.687164 1.809000 208 166 208
0.465498 0.690331 1.809000 210 167 209
0.463182 0.690047 1.800000 207 168 211
0.458293 0.685881 1.781000 205 167 207
0.455977 0.685517 1.772000 202 174 204
0.453661 0.685121 1.763000 200 163 202
1.006503 -0.136014 3.885000 136 1 56
1.006503 -0.129213 3.885000 128 29 1
1.018161 -0.123830 3.930000 121 89 71
1.018161 -0.116951 3.930000 161 91 142
1.018161 -0.110071 3.930000 201 56 123
1.018161 -0.103192 3.930000 185 78 105
1.029819 -0.097415 3.975000 169 1 59
1.029819 0.076541 3.975000 99 48 39
1.029819 0.083499 3.975000 97 47 31
1.018161 0.089433 3.930000 98 45 24
1.018161 0.096313 3.930000 99 47 25
1.018161 0.103192 3.930000 98 45 27
1.029819 0.111332 3.975000 96 44 24
1.029819 0.118290 3.975000 97 45 21
1.029819 0.125248 3.975000 98 44 26
1.029819 0.132207 3.975000 96 43 32
1.029819 0.139165 3.975000 94 42 36
1.029819 0.146123 3.975000 94 41 41
1.029819 0.153081 3.975000 94 40 36
1.029819 0.160040 3.975000 96 41 31
1.029819 0.166998 3.975000 98 39 36
1.029819 0.173956 3.975000 96 41 41
1.029819 0.180914 3.975000 95 42 36
1.018161 0.185746 3.930000 97 40 31
1.018161 0.192625 3.930000 99 40 34
1.018161 0.199505 3.930000 99 47 38
1.018161 0.206384 3.930000 100 54 52
1.029819 0.215705 3.975000 102 64 66
1.029819 0.222664 3.975000 104 73 79
0.772041 0.740742 2.980000 165 126 159
0.772041 0.745958 2.980000 168 126 163
0.772041 0.751175 2.980000 171 125 166
0.759087 0.743700 2.930000 174 134 170
0.752610 0.742440 2.905000 178 142 171
0.752610 0.747525 2.905000 181 143 173
0.746392 0.746392 2.881000 183 145 178
0.740174 0.745176 2.857000 183 147 184
0.734216 0.744138 2.834000 184 148 183
0.727998 0.742755 2.810000 186 142 182
0.722298 0.741820 2.788000 188 140 184
0.710640 0.734648 2.743000 193 144 186
0.699759 0.728128 2.701000 198 145 186
0.699759 0.732856 2.701000 195 151 186
0.694318 0.731849 2.680000 192 154 189
0.688878 0.730769 2.659000 194 156 192
0.683696 0.729892 2.639000 196 157 195
0.678515 0.728945 2.619000 198 157 198
0.673333 0.727928 2.599000 200 160 199
0.668411 0.727123 2.580000 202 160 200
0.663230 0.725968 2.560000 204 161 201
0.653644 0.719892 2.523000 206 160 203
0.648980 0.719141 2.505000 209 158 207
0.648980 0.723526 2.505000 208 164 211
0.644317 0.722680 2.487000 207 163 216
0.639654 0.721772 2.469000 208 163 222
0.634990 0.720800 2.451000 210 162 217
0.630586 0.720061 2.434000 211 162 212
0.626182 0.719263 2.417000 213 163 206
0.626182 0.723494 2.417000 207 157 201
0.621778 0.722606 2.400000 202 153 202
0.613228 0.716814 2.367000 203 160 203
0.613228 0.720958 2.367000 205 163 205
0.609083 0.720200 2.351000 206 165 207
0.601052 0.714764 2.320000 207 168 209
0.596907 0.713868 2.304000 208 168 211
0.596907 0.717901 2.304000 209 168 212
0.593020 0.717234 2.289000 206 168 213
0.589134 0.716515 2.274000 204 168 214
0.577735 0.706554 2.230000 211 164 215
0.573849 0.705679 2.215000 217 159 214
0.570222 0.705072 2.201000 216 168 214
0.566595 0.704415 2.187000 214 174 220
0.563227 0.704034 2.174000 212 174 226
0.563227 0.707839 2.174000 210 170 222
0.559600 0.707062 2.160000 212 173 219
0.556232 0.706565 2.147000 215 177 217
0.552605 0.705691 2.133000 212 176 216
0.545869 0.700778 2.107000 210 174 217
0.542760 0.700454 2.095000 213 172 219
0.539392 0.699752 2.082000 215 171 219
0.536024 0.699005 2.069000 211 171 220
0.536024 0.702626 2.069000 207 173 220
0.529806 0.698056 2.045000 208 174 221
0.526697 0.697518 2.033000 210 176 218
0.526697 0.701077 2.033000 213 173 216
0.523589 0.700477 2.021000 216 170 218
0.520480 0.699834 2.009000 213 172 220
0.517630 0.699500 1.998000 209 170 216
0.514521 0.698775 1.986000 212 167 212
0.511671 0.698362 1.975000 214 163 213
0.505713 0.693646 1.952000 213 170 214
0.502863 0.693135 1.941000 213 173 214
0.502863 0.696533 1.941000 213 169 214
0.502863 0.699931 1.941000 213 171 213
0.500272 0.699705 1.931000 211 170 212
0.497422 0.699080 1.920000 210 162 211
0.491982 0.694758 1.899000 209 164 211
0.486541 0.690362 1.878000 208 168 209
0.483950 0.689956 1.868000 204 169 208
0.478769 0.685804 1.848000 201 168 206
0.476178 0.685310 1.838000 205 165 204
0.473587 0.684782 1.828000 209 165 207
0.471256 0.684594 1.819000 209 166 211
0.468665 0.683998 1.809000 210 163 209
0.468665 0.687164 1.809000 209 167 207
0.466333 0.686896 1.800000 209 170 209
0.463742 0.686214 1.790000 207 163 211
0.461411 0.685881 1.781000 206 155 207
0.459079 0.685517 1.772000 204 167 204
0.456747 0.685121 1.763000 203 164 201
0.991133 -0.139690 3.800000 88 34 61
1.002088 -0.134508 3.842000 74 14 34
1.002088 -0.127783 3.842000 107 1 7
1.002088 -0.121057 3.842000 141 89 76
1.013303 -0.115612 3.885000 144 140 146
1.013303 -0.108811 3.885000 148 70 99
1.013303 -0.102010 3.885000 116 1 53
1.025040 -0.096312 3.930000 85 1 30
1.036777 0.069583 3.975000 101 47 27
1.036777 0.076541 3.975000 99 48 34
1.036777 0.083499 3.975000 97 45 29
1.025040 0.089433 3.930000 99 42 25
1.025040 0.096313 3.930000 102 43 25
1.025040 0.103192 3.930000 99 44 26
1.025040 0.110072 3.930000 96 45 25
1.025040 0.116951 3.930000 95 46 25
1.025040 0.123830 3.930000 94 45 27
1.036777 0.132207 3.975000 93 45 29
1.036777 0.139165 3.975000 93 43 32
1.036777 0.146123 3.975000 93 44 35
1.025040 0.151348 3.930000 94 41 32
1.025040 0.158228 3.930000 97 41 29
1.025040 0.165107 3.930000 100 40 31
1.025040 0.171987 3.930000 98 39 33
1.025040 0.178866 3.930000 96 40 29
1.025040 0.185746 3.930000 97 42 24
1.025040 0.192625 3.930000 98 43 22
1.025040 0.199505 3.930000 98 47 21
1.025040 0.206384 3.930000 99 54 40
1.036777 0.215705 3.975000 101 64 59
1.036777 0.222664 3.975000 104 68 69
0.777257 0.751175 2.980000 170 124 162
0.764216 0.743700 2.930000 173 124 165
0.751435 0.736306 2.881000 177 134 166
0.751435 0.741349 2.881000 179 143 168
0.745176 0.740175 2.857000 181 143 173
0.745176 0.745176 2.857000 180 142 178
0.739177 0.744138 2.834000 180 142 179
0.732917 0.742755 2.810000 184 142 179
0.727179 0.741820 2.788000 188 141 180
0.721180 0.740540 2.765000 195 142 182
0.704487 0.728128 2.701000 202 144 182
0.699010 0.727158 2.680000 197 152 183
0.693532 0.726115 2.659000 192 153 186
0.693532 0.730769 2.659000 194 153 189
0.688316 0.729892 2.639000 196 155 191
0.688316 0.734512 2.639000 197 156 194
0.683100 0.733530 2.619000 199 156 195
0.672927 0.727123 2.580000 202 160 197
0.663016 0.720863 2.542000 205 159 199
0.658060 0.719892 2.523000 207 161 201
0.653365 0.719141 2.505000 209 161 204
0.648671 0.718327 2.487000 208 164 208
0.648671 0.722680 2.487000 208 164 211
0.643976 0.721772 2.469000 210 160 215
0.639281 0.720800 2.451000 213 162 212
0.634847 0.720061 2.434000 215 167 210
0.630413 0.719263 2.417000 218 162 207
0.625979 0.718405 2.400000 208 159 204
0.621806 0.717789 2.384000 199 158 205
0.617372 0.716814 2.367000 202 158 207
0.617372 0.720958 2.367000 205 161 199
0.613198 0.720200 2.351000 205 167 191
0.609025 0.719386 2.335000 206 167 199
0.605113 0.718825 2.320000 207 170 208
0.600940 0.717901 2.304000 209 169 209
0.597027 0.717234 2.289000 208 166 211
0.593115 0.716515 2.274000 207 165 212
0.581639 0.706554 2.230000 210 164 213
0.577726 0.705679 2.215000 214 164 213
0.574075 0.705072 2.201000 213 168 214
0.570423 0.704415 2.187000 213 171 217
0.567032 0.704034 2.174000 212 179 221
0.563381 0.703281 2.160000 211 173 219
0.563381 0.707062 2.160000 212 175 217
0.556339 0.701958 2.133000 214 177 215
0.552948 0.701391 2.120000 213 186 213
0.549557 0.700778 2.107000 213 174 214
0.546427 0.700454 2.095000 217 171 216
0.543037 0.699752 2.082000 221 171 217
0.539646 0.699005 2.069000 216 171 219
0.539646 0.702626 2.069000 212 173 219
0.533386 0.698056 2.045000 210 175 220
0.530256 0.697518 2.033000 208 174 218
0.530256 0.701077 2.033000 209 176 216
0.527126 0.700477 2.021000 211 171 215
0.523996 0.699834 2.009000 206 168 215
0.521127 0.699500 1.998000 202 170 213
0.517998 0.698775 1.986000 205 170 211
0.515128 0.698362 1.975000 209 167 212
0.509129 0.693646 1.952000 210 166 214
0.506260 0.693135 1.941000 212 169 213
0.506260 0.696533 1.941000 213 170 213
0.503652 0.696325 1.931000 214 170 212
0.500783 0.695719 1.920000 213 172 212
0.497914 0.695075 1.909000 213 163 211
0.495306 0.694758 1.899000 210 160 211
0.489828 0.690362 1.878000 208 167 210
0.487220 0.689956 1.868000 206 174 209
0.484612 0.689515 1.858000 205 169 210
0.482004 0.689039 1.848000 207 167 212
0.479395 0.688528 1.838000 210 165 212
0.474440 0.684594 1.819000 211 164 212
0.474440 0.687779 1.819000 213 166 212
0.471832 0.687164 1.809000 211 171 212
0.469484 0.686896 1.800000 209 168 212
0.466876 0.686214 1.790000 208 160 212
0.464528 0.685881 1.781000 207 162 208
0.462181 0.685517 1.772000 207 175 205
0.459834 0.685121 1.763000 207 166 203
0.997785 -0.139690 3.800000 89 38 12
1.008813 -0.134508 3.842000 80 21 13
1.008813 -0.127783 3.842000 120 46 14
1.008813 -0.121057 3.842000 161 128 82
1.008813 -0.114332 3.842000 141 126 150
1.008813 -0.107607 3.842000 121 84 75
1.008813 -0.100881 3.842000 106 25 1
1.024042 -0.095577 3.900000 92 4 1
1.031920 0.068795 3.930000 104 45 28
1.020104 0.074808 3.885000 100 46 30
1.020104 0.081608 3.885000 97 46 28
1.020104 0.088409 3.885000 96 43 26
1.020104 0.095210 3.885000 95 42 25
1.020104 0.102010 3.885000 95 44 25
1.020104 0.108811 3.885000 94 46 27
1.031920 0.116951 3.930000 94 45 30
1.031920 0.123830 3.930000 93 45 28
1.043736 0.132207 3.975000 92 45 26
1.043736 0.139165 3.975000 92 44 28
1.031920 0.144469 3.930000 91 43 30
1.031920 0.151348 3.930000 91 41 29
1.031920 0.158228 3.930000 94 42 28
1.031920 0.165107 3.930000 97 41 27
1.031920 0.171987 3.930000 95 40 26
1.031920 0.178866 3.930000 93 38 22
1.031920 0.185746 3.930000 92 43 18
1.020104 0.190419 3.885000 92 45 11
1.020104 0.197220 3.885000 94 47 4
1.020104 0.204021 3.885000 97 51 28
1.031920 0.213264 3.930000 102 60 52
1.031920 0.220143 3.930000 107 66 58
1.043736 0.229622 3.975000 101 62 65
0.782474 0.751175 2.980000 168 122 158
0.762780 0.737355 2.905000 172 124 160
0.756479 0.736306 2.881000 176 128 161
0.756479 0.741349 2.881000 177 138 163
0.750177 0.740175 2.857000 179 145 168
0.744138 0.739177 2.834000 178 141 173
0.737836 0.737836 2.810000 178 136 175
0.737836 0.742755 2.810000 181 139 177
0.732059 0.741820 2.788000 184 141 177
0.726020 0.740540 2.765000 189 140 178
0.709215 0.728128 2.701000 195 138 179
0.703701 0.727158 2.680000 192 146 181
0.698187 0.726115 2.659000 190 153 183
0.698187 0.730769 2.659000 192 154 186
0.698187 0.735424 2.659000 194 155 188
0.692936 0.734512 2.639000 195 153 190
0.687684 0.733530 2.619000 197 150 192
0.677444 0.727123 2.580000 200 154 194
0.672192 0.725968 2.560000 203 155 196
0.662477 0.719892 2.523000 204 158 199
0.657750 0.719141 2.505000 205 163 202
0.657750 0.723526 2.505000 205 165 205
0.653024 0.722680 2.487000 205 169 206
0.648298 0.721772 2.469000 207 164 208
0.643571 0.720800 2.451000 210 161 208
0.643571 0.725091 2.451000 211 162 208
0.634644 0.719263 2.417000 212 160 207
0.630180 0.718405 2.400000 207 160 207
0.625979 0.717789 2.384000 202 163 209
0.621515 0.716814 2.367000 204 160 211
0.617314 0.716084 2.351000 206 156 193
0.617314 0.720200 2.351000 206 162 176
0.613113 0.719386 2.335000 206 166 190
0.609174 0.718825 2.320000 206 169 205
0.604973 0.717901 2.304000 206 175 207
0.601034 0.717234 2.289000 206 168 209
0.597096 0.716515 2.274000 206 165 210
0.585542 0.706554 2.230000 209 164 211
0.581604 0.705679 2.215000 212 166 212
0.574252 0.700587 2.187000 212 166 214
0.570838 0.700228 2.174000 212 164 215
0.570838 0.704034 2.174000 212 167 217
0.567162 0.703281 2.160000 213 168 216
0.563749 0.702807 2.147000 217 171 216
0.560073 0.701958 2.133000 220 170 213
0.556659 0.701391 2.120000 217 175 211
0.556659 0.705102 2.120000 214 165 212
0.550095 0.700454 2.095000 215 169 213
0.546681 0.699752 2.082000 217 171 216
0.543268 0.699005 2.069000 215 171 219
0.543268 0.702626 2.069000 212 173 219
0.536966 0.698056 2.045000 210 173 219
0.533815 0.697518 2.033000 208 172 217
0.533815 0.701077 2.033000 211 172 216
0.530664 0.700477 2.021000 214 171 213
0.527513 0.699834 2.009000 210 170 211
0.524625 0.699500 1.998000 205 172 211
0.521474 0.698775 1.986000 208 171 211
0.518586 0.698362 1.975000 210 170 212
0.512546 0.693646 1.952000 211 167 214
0.509658 0.693135 1.941000 212 168 213
0.509658 0.696533 1.941000 214 169 213
0.507032 0.696325 1.931000 215 170 212
0.504144 0.695719 1.920000 213 168 212
0.501256 0.695075 1.909000 211 161 212
0.498630 0.694758 1.899000 207 163 212
0.493116 0.690362 1.878000 203 167 211
0.493116 0.693650 1.878000 204 171 210
0.487864 0.689515 1.858000 206 169 215
0.485239 0.689039 1.848000 208 166 220
0.482613 0.688528 1.838000 210 165 216
0.477624 0.684594 1.819000 210 165 213
0.477624 0.687779 1.819000 211 169 215
0.474998 0.687164 1.809000 209 170 217
0.472635 0.686896 1.800000 208 172 215
0.470009 0.686214 1.790000 206 166 213
0.467646 0.685881 1.781000 204 159 210
0.467646 0.688999 1.781000 205 165 207
0.462920 0.685121 1.763000 206 168 205
1.004437 -0.139690 3.800000 90 45 13
1.015539 -0.134508 3.842000 87 30 26
1.015539 -0.127783 3.842000 134 34 40
1.015539 -0.121057 3.842000 181 118 93
1.015539 -0.114332 3.842000 137 154 146
1.015539 -0.107607 3.842000 94 67 73
1.015539 -0.100881 3.842000 96 11 1
1.023204 -0.094867 3.871000 99 18 3
1.026905 0.061206 3.885000 101 45 19
1.026905 0.068007 3.885000 107 45 23
1.026905 0.074808 3.885000 102 45 26
1.026905 0.081608 3.885000 97 45 24
1.026905 0.088409 3.885000 93 45 23
1.026905 0.095210 3.885000 89 44 22
1.026905 0.102010 3.885000 91 45 21
1.026905 0.108811 3.885000 93 45 22
1.026905 0.115612 3.885000 93 45 23
1.038799 0.123830 3.930000 93 46 21
1.038799 0.130710 3.930000 92 47 19
1.038799 0.137589 3.930000 91 45 22
1.038799 0.144469 3.930000 89 44 25
1.038799 0.151348 3.930000 88 42 23
1.026905 0.156416 3.885000 91 45 21
1.026905 0.163217 3.885000 95 43 23
1.038799 0.171987 3.930000 93 44 26
1.038799 0.178866 3.930000 91 44 24
1.038799 0.185746 3.930000 88 48 22
1.026905 0.190419 3.885000 86 47 19
1.026905 0.197220 3.885000 91 47 17
1.026905 0.204021 3.885000 96 51 33
1.026905 0.210822 3.885000 103 59 50
1.026905 0.217622 3.885000 111 60 56
1.038799 0.227022 3.930000 102 59 62
1.050694 0.236580 3.975000 93 56 61
0.787690 0.751175 2.980000 167 123 151
0.761522 0.731263 2.881000 171 124 155
0.761522 0.736306 2.881000 176 128 157
0.761522 0.741349 2.881000 176 138 159
0.755178 0.740175 2.857000 177 138 164
0.749099 0.739177 2.834000 176 141 170
0.749099 0.744138 2.834000 176 138 171
0.742755 0.742755 2.810000 178 139 172
0.742755 0.747674 2.810000 181 139 174
0.730860 0.740540 2.765000 184 140 175
0.713943 0.728128 2.701000 188 140 176
0.708392 0.727158 2.680000 188 142 178
0.702842 0.726115 2.659000 188 148 180
0.702842 0.730769 2.659000 190 155 183
0.697555 0.729892 2.639000 193 154 184
0.692269 0.728945 2.619000 194 152 186
0.686982 0.727928 2.599000 195 152 189
0.681960 0.727123 2.580000 198 154 192
0.676673 0.725968 2.560000 201 154 194
0.671915 0.725313 2.542000 201 155 196
0.666893 0.724308 2.523000 202 159 199
0.662135 0.723526 2.505000 202 166 203
0.657378 0.722680 2.487000 202 164 204
0.652620 0.721772 2.469000 204 167 206
0.647862 0.720800 2.451000 207 160 206
0.643368 0.720061 2.434000 207 161 206
0.638875 0.719263 2.417000 207 161 206
0.634381 0.718405 2.400000 206 159 205
0.630152 0.717789 2.384000 205 162 206
0.630152 0.721962 2.384000 206 163 207
0.625659 0.720958 2.367000 207 160 198
0.621429 0.720200 2.351000 206 160 188
0.621429 0.724315 2.351000 206 162 196
0.617200 0.723473 2.335000 204 165 204
