ply
format ascii 1.0
element vertex 1254
property float x
property float y
property float z
property uchar red
property uchar green
property uchar blue
end_header
-0.922811 0.663028 2.215000 97 55 82
-0.916978 0.662690 2.201000 98 50 85
-0.905730 0.658367 2.174000 93 55 89
-0.905730 0.662172 2.174000 89 59 83
-0.899897 0.661689 2.160000 92 58 78
-0.894481 0.661465 2.147000 94 59 72
-0.894481 0.665223 2.147000 95 59 67
-0.883232 0.660569 2.120000 96 58 79
-0.883232 0.664280 2.120000 96 59 92
-0.877816 0.663895 2.107000 97 62 87
-0.877816 0.667583 2.107000 101 57 83
-0.867401 0.663307 2.082000 105 56 83
-0.861985 0.662787 2.069000 99 58 83
-0.856985 0.662543 2.057000 94 60 81
-0.851986 0.662258 2.045000 93 59 79
-0.841987 0.658024 2.021000 92 56 75
-0.836988 0.657633 2.009000 93 58 72
-0.822823 0.649961 1.975000 95 61 74
-0.822823 0.653418 1.975000 99 61 77
-0.818240 0.653217 1.964000 104 63 75
-0.813240 0.652643 1.952000 97 60 73
-0.813240 0.656060 1.952000 91 60 70
-0.808658 0.655760 1.941000 92 59 67
-0.804491 0.655762 1.931000 94 60 73
-0.799909 0.655387 1.920000 95 63 79
-0.795326 0.654974 1.909000 96 65 79
-0.795326 0.658316 1.909000 95 67 79
-0.786577 0.654379 1.888000 95 71 79
-0.782411 0.654201 1.878000 97 68 80
-0.782411 0.657488 1.878000 100 68 85
-0.778244 0.657257 1.868000 98 68 91
-0.769912 0.653455 1.848000 97 67 79
-0.769912 0.656690 1.848000 97 66 68
-0.761580 0.652783 1.828000 97 73 78
-0.753664 0.649164 1.809000 95 68 89
-0.753664 0.652331 1.809000 94 68 74
-0.749914 0.652236 1.800000 96 69 60
-0.745748 0.651746 1.790000 97 68 72
-0.741998 0.651587 1.781000 98 65 84
-0.738249 0.651396 1.772000 98 68 83
-0.738249 0.654498 1.772000 96 64 82
-0.734499 0.654260 1.763000 94 63 82
-0.727000 0.650635 1.745000 94 68 83
-0.727000 0.653689 1.745000 95 73 81
-0.723251 0.653357 1.736000 94 72 79
-0.727000 0.659799 1.745000 93 69 80
-0.719918 0.656396 1.728000 94 73 82
-0.716168 0.655986 1.719000 96 73 83
-0.709086 0.652478 1.702000 95 71 85
-0.698670 0.645830 1.677000 94 73 87
-0.698670 0.648765 1.677000 94 71 89
-0.698670 0.651701 1.677000 95 68 89
-0.695337 0.651513 1.669000 96 66 89
-1.559491 -1.467369 3.759000 97 47 35
-1.559491 -1.460789 3.759000 96 48 33
-1.559491 -1.454209 3.759000 98 47 31
-1.559491 -1.447628 3.759000 100 45 29
-1.559491 -1.441048 3.759000 100 46 28
-1.559491 -1.434468 3.759000 101 48 30
-1.559491 -1.427888 3.759000 100 53 33
-1.559491 -1.421308 3.759000 100 52 39
-1.559491 -1.414728 3.759000 101 49 46
-1.559491 -1.408148 3.759000 102 52 42
-1.559491 -1.401568 3.759000 105 58 38
-1.559491 -1.394987 3.759000 109 51 39
-1.559491 -1.388407 3.759000 101 47 41
-1.576501 -1.396899 3.800000 93 39 28
-1.576501 -1.390247 3.800000 94 34 15
-1.559491 -1.368667 3.759000 95 37 19
-1.542481 -1.347230 3.718000 96 40 23
-1.559491 -1.355507 3.759000 98 44 24
-1.542481 -1.334214 3.718000 99 53 26
-1.542481 -1.327705 3.718000 100 53 36
-1.542481 -1.321197 3.718000 99 51 46
-1.542481 -1.314689 3.718000 99 51 40
-1.526301 -1.294458 3.679000 99 55 34
-1.526301 -1.288018 3.679000 99 53 37
-1.542481 -1.295164 3.718000 101 50 40
-1.559491 -1.302866 3.759000 103 47 40
-1.559491 -1.296286 3.759000 102 46 40
-1.559491 -1.289705 3.759000 101 50 35
-1.559491 -1.283125 3.759000 99 54 30
-1.559491 -1.276545 3.759000 97 52 34
-1.559491 -1.269965 3.759000 92 52 38
-1.559491 -1.263385 3.759000 88 50 40
-1.559491 -1.256805 3.759000 95 49 42
-1.559491 -1.250225 3.759000 103 49 40
-1.559491 -1.243645 3.759000 103 46 39
-1.559491 -1.237064 3.759000 104 44 41
-1.559491 -1.230484 3.759000 103 42 43
-1.559491 -1.223904 3.759000 103 45 41
-1.559491 -1.217324 3.759000 102 47 39
-1.559491 -1.210744 3.759000 101 49 39
-1.559491 -1.204164 3.759000 100 53 39
-1.559491 -1.197584 3.759000 100 49 41
-1.559491 -1.191004 3.759000 103 45 44
-1.559491 -1.184423 3.759000 107 46 48
-1.559491 -1.177843 3.759000 104 49 52
-1.559491 -1.171263 3.759000 102 45 39
-1.559491 -1.164683 3.759000 105 46 27
-1.542481 -1.145471 3.718000 108 50 34
-1.542481 -1.138963 3.718000 108 49 42
-1.542481 -1.132455 3.718000 108 48 38
-1.559491 -1.138362 3.759000 114 51 34
-1.559491 -1.131782 3.759000 121 52 37
-1.559491 -1.125202 3.759000 117 53 40
-1.559491 -1.118622 3.759000 113 51 46
-1.559491 -1.112042 3.759000 116 53 52
-1.559491 -1.105462 3.759000 120 48 40
-1.559491 -1.098882 3.759000 114 42 27
-1.559491 -1.092302 3.759000 108 54 33
-1.559491 -1.085721 3.759000 108 58 39
-1.559491 -1.079141 3.759000 108 56 42
-1.559491 -1.072561 3.759000 106 55 45
-1.559491 -1.065981 3.759000 104 53 48
-1.559491 -1.059401 3.759000 101 52 50
-1.559491 -1.052821 3.759000 99 53 51
-1.559491 -1.046241 3.759000 104 54 51
-1.559491 -1.039660 3.759000 109 52 44
-1.576501 -1.044348 3.800000 108 54 37
-1.576501 -1.037696 3.800000 108 54 40
-1.559491 -1.019920 3.759000 107 54 43
-1.559491 -1.013340 3.759000 106 56 43
-1.559491 -1.006760 3.759000 107 55 44
-1.559491 -1.000180 3.759000 108 51 45
-1.559491 -0.993600 3.759000 108 47 46
-1.559491 -0.987019 3.759000 109 51 41
-1.542481 -0.969746 3.718000 108 51 36
-1.542481 -0.963237 3.718000 107 52 43
-1.559491 -0.967279 3.759000 101 56 50
-1.559491 -0.960699 3.759000 96 55 44
-1.559491 -0.954119 3.759000 103 54 39
-1.559491 -0.947539 3.759000 110 53 44
-1.559491 -0.940958 3.759000 108 52 50
-1.559491 -0.934378 3.759000 107 52 47
-1.559491 -0.927798 3.759000 111 54 44
-1.559491 -0.921218 3.759000 116 52 42
-1.559491 -0.914638 3.759000 121 51 40
-1.559491 -0.908058 3.759000 126 52 40
-1.542481 -0.891645 3.718000 119 53 41
-1.559491 -0.894898 3.759000 113 53 35
-1.559491 -0.888318 3.759000 111 56 30
-1.559491 -0.881737 3.759000 109 55 37
-1.559491 -0.875157 3.759000 112 52 44
-1.559491 -0.868577 3.759000 116 55 43
-1.559491 -0.861997 3.759000 112 62 41
-1.559491 -0.855417 3.759000 109 62 40
-1.542481 -0.839578 3.718000 111 62 38
-1.542481 -0.833070 3.718000 113 57 39
-1.526301 -0.817891 3.679000 116 58 41
-1.542481 -0.820053 3.718000 119 57 42
-1.542481 -0.813545 3.718000 115 55 44
-1.559491 -0.815936 3.759000 112 55 51
-1.559491 -0.809356 3.759000 112 55 58
-1.559491 -0.802776 3.759000 112 56 50
-1.559491 -0.796196 3.759000 110 55 41
-1.559491 -0.789616 3.759000 108 57 43
-1.559491 -0.783035 3.759000 107 56 45
-1.559491 -0.776455 3.759000 107 58 43
-1.559491 -0.769875 3.759000 110 60 41
-1.559491 -0.763295 3.759000 113 57 46
-1.542481 -0.748461 3.718000 113 55 52
-1.542481 -0.741953 3.718000 114 58 50
-1.542481 -0.735445 3.718000 113 63 49
-1.542481 -0.728936 3.718000 112 60 40
-1.542481 -0.722428 3.718000 112 56 32
-1.542481 -0.715920 3.718000 113 59 38
-1.542481 -0.709411 3.718000 114 61 45
-1.542481 -0.702903 3.718000 116 58 46
-1.542481 -0.696395 3.718000 116 56 46
-1.542481 -0.689886 3.718000 117 56 50
-1.542481 -0.683378 3.718000 118 56 54
-1.542481 -0.676869 3.718000 120 60 54
-1.542481 -0.670361 3.718000 115 59 54
-1.542481 -0.663853 3.718000 110 60 51
-1.542481 -0.657344 3.718000 113 63 48
-1.542481 -0.650836 3.718000 116 63 44
-1.542481 -0.644328 3.718000 117 64 41
-1.542481 -0.637819 3.718000 119 60 46
-1.542481 -0.631311 3.718000 119 53 50
-1.542481 -0.624802 3.718000 119 54 48
-1.542481 -0.618294 3.718000 118 60 46
-1.542481 -0.611786 3.718000 117 61 48
-1.542481 -0.605277 3.718000 114 59 51
-1.559491 -0.605372 3.759000 112 58 50
-1.559491 -0.598792 3.759000 114 57 50
-1.559491 -0.592212 3.759000 117 59 49
-1.559491 -0.585631 3.759000 116 62 49
-1.559491 -0.579051 3.759000 115 64 45
-1.559491 -0.572471 3.759000 112 66 41
-1.576501 -0.572063 3.800000 110 64 45
-1.576501 -0.565412 3.800000 114 63 49
-1.576501 -0.558760 3.800000 119 62 49
-1.559491 -0.546151 3.759000 122 62 50
-1.559491 -0.539571 3.759000 126 62 47
-1.559491 -0.532990 3.759000 120 61 45
-1.559491 -0.526410 3.759000 115 61 48
-1.559491 -0.519830 3.759000 114 56 51
-1.559491 -0.513250 3.759000 114 55 51
-1.559491 -0.506670 3.759000 114 56 51
-1.559491 -0.500090 3.759000 114 50 50
-1.559491 -0.493510 3.759000 114 33 49
-1.559491 -0.486930 3.759000 114 50 46
-1.559491 -0.480349 3.759000 119 56 44
-1.559491 -0.473769 3.759000 124 55 44
-1.559491 -0.467189 3.759000 118 54 44
-1.559491 -0.460609 3.759000 113 55 40
-1.559491 -0.454029 3.759000 114 59 37
-1.559491 -0.447449 3.759000 116 57 38
-1.559491 -0.440869 3.759000 115 60 40
-1.559491 -0.434289 3.759000 115 57 43
-1.559491 -0.427708 3.759000 113 54 46
-1.559491 -0.421128 3.759000 112 56 54
-1.559491 -0.414548 3.759000 112 71 62
-1.559491 -0.407968 3.759000 113 60 55
-1.559491 -0.401388 3.759000 119 56 49
-1.559491 -0.394808 3.759000 125 56 49
-1.559491 -0.388228 3.759000 128 63 50
-1.559491 -0.381647 3.759000 131 64 51
-1.559491 -0.375067 3.759000 127 64 52
-1.559491 -0.368487 3.759000 124 66 54
-1.559491 -0.361907 3.759000 123 66 57
-1.559491 -0.355327 3.759000 122 67 51
-1.559491 -0.348747 3.759000 121 68 44
-1.559491 -0.342167 3.759000 121 70 50
-1.559491 -0.335587 3.759000 121 73 56
-1.559491 -0.329006 3.759000 121 72 58
-1.559491 -0.322426 3.759000 122 73 61
-1.559491 -0.315846 3.759000 124 73 57
-1.559491 -0.309266 3.759000 123 76 54
-1.559491 -0.302686 3.759000 123 72 63
-1.559491 -0.296106 3.759000 127 71 72
-1.559491 -0.289526 3.759000 132 68 65
-1.559491 -0.282946 3.759000 128 68 58
-1.559491 -0.276365 3.759000 124 69 56
-1.559491 -0.269785 3.759000 124 69 54
-1.559491 -0.263205 3.759000 124 66 50
-1.559491 -0.256625 3.759000 124 64 47
-1.559491 -0.250045 3.759000 124 68 49
-1.559491 -0.243465 3.759000 123 68 52
-1.559491 -0.236885 3.759000 122 68 54
-1.559491 -0.230305 3.759000 118 69 56
-1.559491 -0.223724 3.759000 114 71 52
-1.559491 -0.217144 3.759000 117 74 49
-1.559491 -0.210564 3.759000 121 71 54
-1.559491 -0.203984 3.759000 121 67 58
-1.559491 -0.197404 3.759000 122 64 58
-1.576501 -0.192905 3.800000 122 62 57
-1.576501 -0.186253 3.800000 122 65 56
-1.559491 -0.177663 3.759000 121 69 55
-1.559491 -0.171083 3.759000 121 69 51
-1.559491 -0.164503 3.759000 115 69 47
-1.559491 -0.157923 3.759000 109 69 48
-1.559491 -0.151343 3.759000 115 69 49
-1.559491 -0.144763 3.759000 121 67 49
-1.559491 -0.138183 3.759000 121 65 50
-1.559491 -0.131603 3.759000 122 69 49
-1.559491 -0.125022 3.759000 120 71 49
-1.559491 -0.118442 3.759000 119 66 51
-1.559491 -0.111862 3.759000 120 64 53
-1.559491 -0.105282 3.759000 122 64 49
-1.559491 -0.098702 3.759000 121 68 45
-1.559491 -0.092122 3.759000 120 65 50
-1.559491 -0.085542 3.759000 119 63 55
-1.559491 -0.078961 3.759000 119 63 58
-1.559491 -0.072381 3.759000 118 64 61
-1.559491 -0.065801 3.759000 118 60 59
-1.559491 -0.059221 3.759000 119 56 57
-1.559491 -0.052641 3.759000 121 59 54
-1.559491 -0.046061 3.759000 119 56 52
-1.559491 -0.039481 3.759000 117 59 50
-1.559491 -0.032901 3.759000 116 57 48
-1.559491 -0.026320 3.759000 116 58 45
-1.559491 -0.019740 3.759000 114 56 41
-1.559491 -0.013160 3.759000 112 61 45
-1.559491 -0.006580 3.759000 114 65 50
-1.559491 -0.000000 3.759000 117 62 54
-1.559491 0.006580 3.759000 115 62 58
-1.576501 0.013304 3.800000 113 61 60
-1.576501 0.019956 3.800000 112 62 63
-1.576501 0.026608 3.800000 112 63 54
-1.576501 0.033260 3.800000 111 64 46
-1.576501 0.039912 3.800000 111 62 51
-1.576501 0.046563 3.800000 111 60 57
-1.576501 0.053215 3.800000 111 61 54
-1.576501 0.059867 3.800000 112 63 51
-1.559491 0.065801 3.759000 113 59 44
-1.559491 0.072381 3.759000 113 56 37
-1.559491 0.078962 3.759000 114 55 40
-1.559491 0.085542 3.759000 111 53 43
-1.576501 0.093127 3.800000 108 53 35
-1.576501 0.099779 3.800000 106 54 28
-1.576501 0.106431 3.800000 104 57 34
-1.576501 0.113082 3.800000 107 60 40
-1.576501 0.119734 3.800000 110 57 41
-1.576501 0.126386 3.800000 109 60 43
-1.559491 0.131603 3.759000 109 56 35
-1.559491 0.138183 3.759000 110 55 27
-1.559491 0.144763 3.759000 111 56 31
-1.559491 0.151343 3.759000 107 57 35
-1.559491 0.157923 3.759000 103 56 38
-1.559491 0.164503 3.759000 109 58 42
-1.559491 0.171083 3.759000 116 55 42
-1.559491 0.177664 3.759000 109 54 43
-1.559491 0.184244 3.759000 103 51 43
-1.559491 0.190824 3.759000 109 49 44
-1.559491 0.197404 3.759000 115 48 50
-1.559491 0.203984 3.759000 110 48 56
-1.559491 0.210564 3.759000 106 48 46
-1.559491 0.217144 3.759000 103 49 36
-1.559491 0.223725 3.759000 101 51 45
-1.576501 0.232817 3.800000 98 49 55
-1.576501 0.239469 3.800000 96 49 47
-1.576501 0.246120 3.800000 101 54 39
-1.559491 0.250045 3.759000 107 52 39
-1.559491 0.256625 3.759000 105 50 39
-1.576501 0.266076 3.800000 104 50 41
-1.559491 0.269785 3.759000 103 51 42
-1.559491 0.276366 3.759000 103 50 50
-1.559491 0.282946 3.759000 102 51 57
-1.559491 0.289526 3.759000 101 53 43
-1.559491 0.296106 3.759000 101 54 29
-1.559491 0.302686 3.759000 102 50 35
-1.559491 0.309266 3.759000 99 46 42
-1.559491 0.315846 3.759000 97 48 41
-1.559491 0.322427 3.759000 99 46 40
-1.559491 0.329007 3.759000 101 48 31
-1.559491 0.335587 3.759000 101 49 22
-1.576501 0.345899 3.800000 101 49 26
-1.576501 0.352551 3.800000 103 47 31
-1.576501 0.359203 3.800000 106 46 38
-1.576501 0.365855 3.800000 102 46 45
-1.576501 0.372506 3.800000 98 45 38
-1.576501 0.379158 3.800000 97 42 31
-1.593925 0.390074 3.842000 96 44 37
-1.576501 0.392462 3.800000 95 47 44
-1.576501 0.399114 3.800000 94 47 46
-1.576501 0.405766 3.800000 89 46 49
-1.576501 0.412418 3.800000 84 45 45
-1.559491 0.414548 3.759000 88 46 41
-1.576501 0.425722 3.800000 93 43 37
-1.559491 0.427708 3.759000 91 42 34
-1.576501 0.439026 3.800000 89 43 33
-1.576501 0.445677 3.800000 92 44 32
-1.576501 0.452329 3.800000 95 42 33
-1.576501 0.458981 3.800000 94 43 35
-1.576501 0.465633 3.800000 93 43 32
-1.576501 0.472285 3.800000 91 38 29
-1.576501 0.478937 3.800000 89 42 29
-1.576501 0.485589 3.800000 88 42 30
-1.576501 0.492241 3.800000 88 42 27
-1.576501 0.498893 3.800000 87 45 25
-1.576501 0.505545 3.800000 86 43 27
-1.576501 0.512197 3.800000 86 42 29
-1.576501 0.518848 3.800000 86 41 24
-1.593925 0.531309 3.842000 88 37 19
-1.576501 0.532152 3.800000 91 40 22
-1.576501 0.538804 3.800000 88 42 25
-1.576501 0.545456 3.800000 86 38 25
-1.576501 0.552108 3.800000 86 35 26
-1.576501 0.558760 3.800000 86 35 22
-1.576501 0.565412 3.800000 86 35 18
-1.559491 0.565891 3.759000 86 31 17
-1.559491 0.572471 3.759000 89 31 17
-1.559491 0.579052 3.759000 93 36 16
-1.542481 0.579244 3.718000 88 40 15
-1.542481 0.585753 3.718000 83 38 13
-1.542481 0.592261 3.718000 82 34 12
-1.542481 0.598769 3.718000 81 38 18
-1.542481 0.605278 3.718000 68 38 24
-1.559491 0.618532 3.759000 56 22 13
-1.559491 0.625112 3.759000 34 7 3
-1.576501 0.638583 3.800000 12 5 6
-1.576501 0.645234 3.800000 20 5 9
-1.576501 0.651886 3.800000 28 5 8
-1.292316 0.692507 3.115000 51 9 13
-1.292316 0.697960 3.115000 59 33 23
-1.292316 0.703412 3.115000 68 44 34
-1.280699 0.702493 3.087000 78 44 43
-1.269083 0.701476 3.059000 80 42 53
-1.258296 0.700823 3.033000 83 43 45
-1.247095 0.699847 3.006000 86 42 38
-1.236308 0.699010 2.980000 90 43 42
-1.201874 0.684612 2.897000 87 45 47
-1.195236 0.685874 2.881000 85 47 45
-1.195236 0.690917 2.881000 84 51 44
-1.195236 0.695960 2.881000 84 47 53
-1.185279 0.695164 2.857000 85 47 62
-1.175738 0.694528 2.834000 87 48 57
-1.165781 0.693566 2.810000 86 49 53
-1.156653 0.693016 2.788000 86 50 55
-1.137984 0.686632 2.743000 87 52 58
-1.111848 0.675553 2.680000 89 53 57
-1.111848 0.680244 2.680000 88 58 56
-1.094838 0.674457 2.639000 88 61 58
-1.086541 0.673930 2.619000 87 60 60
-1.078243 0.673334 2.599000 86 58 68
-1.078243 0.677883 2.599000 84 56 77
-1.070361 0.677444 2.580000 83 56 73
-1.054596 0.671916 2.542000 87 55 70
-1.054596 0.676365 2.542000 91 56 67
-1.039246 0.670905 2.505000 93 60 65
-1.039246 0.675291 2.505000 96 56 66
-1.031778 0.674792 2.487000 94 54 68
-1.024310 0.674230 2.469000 92 56 68
-1.016843 0.673605 2.451000 91 56 69
-1.009790 0.673193 2.434000 91 59 68
-1.002737 0.672723 2.417000 93 63 67
-0.995685 0.672192 2.400000 95 64 66
-0.989047 0.671884 2.384000 99 64 66
-0.989047 0.676057 2.384000 103 64 70
-0.981994 0.675380 2.367000 98 69 74
-0.968718 0.670337 2.335000 93 67 71
-0.962495 0.670092 2.320000 93 66 69
-0.962495 0.674153 2.320000 94 63 69
-0.949634 0.669152 2.289000 95 61 70
-0.937188 0.664336 2.259000 96 56 69
-0.930965 0.663853 2.244000 95 55 68
-0.925157 0.663615 2.230000 95 55 74
-0.918934 0.663028 2.215000 95 52 80
-0.907317 0.658475 2.187000 95 52 82
-0.901924 0.658367 2.174000 94 55 85
-0.901924 0.662172 2.174000 93 57 81
-0.896116 0.661689 2.160000 94 58 78
-0.896116 0.665470 2.160000 96 59 75
-0.890723 0.665223 2.147000 98 59 73
-0.884915 0.664620 2.133000 100 56 80
-0.879521 0.664280 2.120000 98 57 87
-0.874128 0.663895 2.107000 97 57 79
-0.874128 0.667583 2.107000 97 56 72
-0.863756 0.663307 2.082000 98 57 76
-0.863756 0.666951 2.082000 96 60 79
-0.858363 0.666408 2.069000 94 60 77
-0.833471 0.650600 2.009000 93 62 75
-0.838449 0.658024 2.021000 93 59 75
-0.833471 0.657633 2.009000 94 57 75
-0.823929 0.653581 1.986000 95 58 79
-0.823929 0.657057 1.986000 96 61 82
-0.823929 0.660534 1.986000 97 60 78
-0.809823 0.652643 1.952000 91 58 73
-0.805260 0.652362 1.941000 86 59 73
-0.801111 0.652382 1.931000 89 58 73
-0.796548 0.652026 1.920000 93 62 79
-0.791984 0.651632 1.909000 94 66 85
-0.791984 0.654974 1.909000 96 65 81
-0.787835 0.654867 1.899000 96 66 78
-0.787835 0.658192 1.899000 97 67 78
-0.783272 0.657684 1.888000 98 65 79
-0.779123 0.657488 1.878000 99 65 83
-0.766677 0.650220 1.848000 98 67 87
-0.762528 0.649919 1.838000 97 65 82
-0.762528 0.653136 1.838000 96 63 77
-0.758380 0.652783 1.828000 96 67 81
-0.750497 0.649164 1.809000 95 67 86
-0.750497 0.652331 1.809000 95 68 77
-0.746763 0.652236 1.800000 96 71 69
-0.742615 0.651746 1.790000 97 67 75
-0.738881 0.651587 1.781000 97 63 82
-0.735147 0.651396 1.772000 97 63 82
-0.731413 0.651174 1.763000 94 62 82
-0.731413 0.654260 1.763000 92 65 85
-0.723946 0.650635 1.745000 91 68 89
-0.723946 0.653689 1.745000 91 70 80
-0.720212 0.653357 1.736000 91 73 72
-0.720212 0.656396 1.736000 91 72 76
-0.716893 0.656396 1.728000 89 75 80
-0.713159 0.655986 1.719000 87 71 82
-0.706106 0.652478 1.702000 89 67 84
-0.699468 0.649296 1.686000 92 70 88
-0.692416 0.645670 1.669000 95 74 91
-0.689097 0.645483 1.661000 98 67 90
-0.692416 0.651513 1.669000 98 62 89
-1.569849 -1.483374 3.800000 93 47 38
-1.552911 -1.460789 3.759000 89 54 35
-1.552911 -1.454209 3.759000 96 49 33
-1.552911 -1.447628 3.759000 104 45 31
-1.552911 -1.441048 3.759000 99 45 30
-1.552911 -1.434468 3.759000 95 47 29
-1.552911 -1.427888 3.759000 97 52 28
-1.552911 -1.421308 3.759000 98 56 34
-1.552911 -1.414728 3.759000 99 53 40
-1.552911 -1.408148 3.759000 100 55 39
-1.552911 -1.401568 3.759000 102 53 39
-1.552911 -1.394987 3.759000 104 51 47
-1.552911 -1.388407 3.759000 99 49 55
-1.569849 -1.396899 3.800000 95 51 42
-1.569849 -1.390247 3.800000 94 43 30
-1.552911 -1.368667 3.759000 93 37 28
-1.535973 -1.347230 3.718000 91 37 27
-1.552911 -1.355507 3.759000 89 39 28
-1.552911 -1.348927 3.759000 93 47 30
-1.535973 -1.327705 3.718000 98 60 43
-1.552911 -1.335766 3.759000 99 53 56
-1.552911 -1.329186 3.759000 101 47 46
-1.535973 -1.308180 3.718000 98 53 37
-1.535973 -1.301672 3.718000 95 56 38
-1.552911 -1.309446 3.759000 98 50 39
-1.552911 -1.302866 3.759000 102 47 40
-1.552911 -1.296286 3.759000 99 48 41
-1.552911 -1.289705 3.759000 96 49 37
-1.552911 -1.283125 3.759000 98 51 34
-1.552911 -1.276545 3.759000 99 53 37
-1.552911 -1.269965 3.759000 96 51 41
-1.552911 -1.263385 3.759000 93 48 43
-1.552911 -1.256805 3.759000 98 50 46
-1.552911 -1.250225 3.759000 104 54 42
-1.552911 -1.243645 3.759000 107 49 39
-1.552911 -1.237064 3.759000 109 45 40
-1.552911 -1.230484 3.759000 103 45 42
-1.552911 -1.223904 3.759000 98 48 34
-1.552911 -1.217324 3.759000 100 48 26
-1.552911 -1.210744 3.759000 103 50 32
-1.569849 -1.217298 3.800000 104 49 38
-1.552911 -1.197584 3.759000 104 47 41
-1.552911 -1.191004 3.759000 108 44 45
-1.552911 -1.184423 3.759000 112 44 52
-1.552911 -1.177843 3.759000 108 45 60
-1.552911 -1.171263 3.759000 104 42 47
-1.552911 -1.164683 3.759000 106 45 34
-1.552911 -1.158103 3.759000 108 49 36
-1.552911 -1.151523 3.759000 106 49 39
-1.552911 -1.144943 3.759000 105 49 32
-1.552911 -1.138362 3.759000 109 51 26
-1.552911 -1.131782 3.759000 114 54 32
-1.569849 -1.137475 3.800000 111 53 39
-1.569849 -1.130823 3.800000 108 48 41
-1.569849 -1.124171 3.800000 111 51 44
-1.569849 -1.117519 3.800000 114 51 41
-1.569849 -1.110867 3.800000 109 54 38
-1.552911 -1.092302 3.759000 105 66 37
-1.552911 -1.085721 3.759000 106 60 36
-1.552911 -1.079141 3.759000 108 59 41
-1.552911 -1.072561 3.759000 106 55 46
-1.552911 -1.065981 3.759000 105 51 49
-1.552911 -1.059401 3.759000 104 53 52
-1.552911 -1.052821 3.759000 104 56 52
-1.552911 -1.046241 3.759000 108 53 53
-1.569849 -1.051000 3.800000 113 51 41
-1.569849 -1.044348 3.800000 111 52 30
-1.569849 -1.037696 3.800000 109 55 37
-1.569849 -1.031045 3.800000 108 54 44
-1.552911 -1.013340 3.759000 107 56 41
-1.552911 -1.006760 3.759000 106 55 39
-1.552911 -1.000180 3.759000 105 51 42
-1.552911 -0.993600 3.759000 107 53 45
-1.535973 -0.976254 3.718000 109 55 35
-1.552911 -0.980439 3.759000 108 53 26
-1.552911 -0.973859 3.759000 107 52 32
-1.552911 -0.967279 3.759000 103 54 39
-1.552911 -0.960699 3.759000 100 55 34
-1.552911 -0.954119 3.759000 105 54 30
-1.552911 -0.947539 3.759000 110 54 38
-1.552911 -0.940958 3.759000 108 52 47
-1.552911 -0.934378 3.759000 107 53 45
-1.552911 -0.927798 3.759000 110 50 44
-1.552911 -0.921218 3.759000 113 50 50
-1.552911 -0.914638 3.759000 117 52 57
-1.552911 -0.908058 3.759000 122 53 50
-1.552911 -0.901478 3.759000 118 52 43
-1.552911 -0.894898 3.759000 115 53 38
-1.552911 -0.888318 3.759000 112 55 34
-1.552911 -0.881737 3.759000 109 55 39
-1.552911 -0.875157 3.759000 111 53 45
-1.569849 -0.878051 3.800000 112 55 44
-1.569849 -0.871399 3.800000 107 60 44
-1.569849 -0.864747 3.800000 101 62 42
-1.535973 -0.839578 3.718000 107 59 40
-1.552911 -0.842257 3.759000 113 53 41
-1.535973 -0.826562 3.718000 114 56 43
-1.552911 -0.829096 3.759000 115 58 45
-1.552911 -0.822516 3.759000 113 56 48
-1.569849 -0.824836 3.800000 112 56 59
-1.569849 -0.818184 3.800000 111 55 70
-1.569849 -0.811532 3.800000 111 56 60
-1.569849 -0.804880 3.800000 109 57 51
-1.569849 -0.798228 3.800000 107 60 47
-1.552911 -0.783035 3.759000 103 60 44
-1.552911 -0.776455 3.759000 99 60 38
-1.552911 -0.769875 3.759000 105 59 32
-1.552911 -0.763295 3.759000 112 54 37
-1.552911 -0.756715 3.759000 113 56 42
-1.552911 -0.750135 3.759000 114 60 45
-1.552911 -0.743555 3.759000 113 61 48
-1.552911 -0.736974 3.759000 112 63 33
-1.552911 -0.730394 3.759000 113 61 19
-1.552911 -0.723814 3.759000 113 64 30
-1.552911 -0.717234 3.759000 115 63 42
-1.552911 -0.710654 3.759000 117 63 46
-1.552911 -0.704074 3.759000 117 59 51
-1.552911 -0.697494 3.759000 117 59 52
-1.552911 -0.690914 3.759000 118 60 53
-1.552911 -0.684333 3.759000 119 67 48
-1.552911 -0.677753 3.759000 118 61 43
-1.552911 -0.671173 3.759000 117 58 46
-1.552911 -0.664593 3.759000 117 60 49
-1.552911 -0.658013 3.759000 118 62 46
-1.552911 -0.651433 3.759000 119 61 44
-1.552911 -0.644853 3.759000 121 59 49
-1.552911 -0.638273 3.759000 120 55 54
-1.552911 -0.631692 3.759000 120 51 52
-1.552911 -0.625112 3.759000 118 57 51
-1.552911 -0.618532 3.759000 116 64 51
-1.552911 -0.611952 3.759000 116 63 51
-1.552911 -0.605372 3.759000 116 65 55
-1.552911 -0.598792 3.759000 116 59 60
-1.552911 -0.592212 3.759000 116 57 57
-1.552911 -0.585631 3.759000 115 60 54
-1.569849 -0.585367 3.800000 114 63 50
-1.569849 -0.578715 3.800000 113 64 47
-1.569849 -0.572063 3.800000 113 63 48
-1.569849 -0.565412 3.800000 116 62 50
-1.569849 -0.558760 3.800000 120 62 48
-1.569849 -0.552108 3.800000 121 62 46
-1.569849 -0.545456 3.800000 123 63 42
-1.569849 -0.538804 3.800000 120 60 38
-1.569849 -0.532152 3.800000 117 58 47
-1.569849 -0.525500 3.800000 118 57 56
-1.552911 -0.513250 3.759000 118 61 53
-1.552911 -0.506670 3.759000 116 63 50
-1.552911 -0.500090 3.759000 115 70 49
-1.552911 -0.493510 3.759000 115 60 49
-1.552911 -0.486930 3.759000 116 68 48
-1.552911 -0.480349 3.759000 118 63 47
-1.552911 -0.473769 3.759000 121 60 50
-1.552911 -0.467189 3.759000 118 58 53
-1.552911 -0.460609 3.759000 116 60 48
-1.552911 -0.454029 3.759000 117 62 43
-1.552911 -0.447449 3.759000 118 62 45
-1.552911 -0.440869 3.759000 118 62 48
-1.552911 -0.434289 3.759000 118 63 52
-1.569849 -0.432374 3.800000 117 60 56
-1.569849 -0.425722 3.800000 117 62 67
-1.552911 -0.414548 3.759000 116 66 78
-1.552911 -0.407968 3.759000 116 68 64
-1.552911 -0.401388 3.759000 120 61 51
-1.569849 -0.399114 3.800000 123 60 50
-1.552911 -0.388228 3.759000 125 64 50
-1.552911 -0.381647 3.759000 126 66 53
-1.552911 -0.375067 3.759000 124 65 56
-1.552911 -0.368487 3.759000 122 68 59
-1.569849 -0.365854 3.800000 122 68 62
-1.569849 -0.359203 3.800000 122 68 61
-1.569849 -0.352551 3.800000 123 69 60
-1.569849 -0.345899 3.800000 125 71 61
-1.569849 -0.339247 3.800000 124 68 63
-1.569849 -0.332595 3.800000 124 68 65
-1.569849 -0.325943 3.800000 124 72 68
-1.569849 -0.319291 3.800000 124 74 66
-1.569849 -0.312639 3.800000 124 72 65
-1.569849 -0.305987 3.800000 123 71 74
-1.569849 -0.299335 3.800000 126 69 84
-1.569849 -0.292684 3.800000 129 68 71
-1.569849 -0.286032 3.800000 126 68 59
-1.552911 -0.276365 3.759000 124 69 58
-1.552911 -0.269785 3.759000 125 67 57
-1.552911 -0.263205 3.759000 126 66 53
-1.552911 -0.256625 3.759000 125 67 49
-1.552911 -0.250045 3.759000 125 71 50
-1.552911 -0.243465 3.759000 123 71 51
-1.552911 -0.236885 3.759000 121 72 53
-1.552911 -0.230305 3.759000 118 72 56
-1.552911 -0.223724 3.759000 116 74 56
-1.552911 -0.217144 3.759000 118 73 57
-1.552911 -0.210564 3.759000 120 75 60
-1.552911 -0.203984 3.759000 121 69 64
-1.569849 -0.199557 3.800000 122 67 60
-1.569849 -0.192905 3.800000 122 63 57
-1.569849 -0.186253 3.800000 122 62 55
-1.569849 -0.179601 3.800000 124 66 53
-1.569849 -0.172949 3.800000 125 68 52
-1.569849 -0.166297 3.800000 119 67 51
-1.569849 -0.159646 3.800000 113 69 50
-1.569849 -0.152994 3.800000 116 69 49
-1.569849 -0.146342 3.800000 120 71 50
-1.552911 -0.138183 3.759000 121 70 51
-1.569849 -0.133038 3.800000 122 71 51
-1.569849 -0.126386 3.800000 120 69 51
-1.569849 -0.119734 3.800000 119 68 51
-1.569849 -0.113082 3.800000 122 65 51
-1.569849 -0.106430 3.800000 125 62 44
-1.569849 -0.099778 3.800000 122 65 38
-1.552911 -0.092122 3.759000 118 67 47
-1.552911 -0.085542 3.759000 119 65 56
-1.552911 -0.078961 3.759000 119 65 61
-1.569849 -0.073171 3.800000 119 62 66
-1.569849 -0.066519 3.800000 119 59 62
-1.569849 -0.059867 3.800000 120 59 58
-1.569849 -0.053215 3.800000 121 62 55
-1.569849 -0.046563 3.800000 119 61 53
-1.569849 -0.039911 3.800000 116 64 49
-1.569849 -0.033259 3.800000 117 61 45
-1.569849 -0.026607 3.800000 118 60 39
-1.569849 -0.019956 3.800000 115 62 34
-1.569849 -0.013304 3.800000 113 65 40
-1.569849 -0.006652 3.800000 115 65 47
-1.569849 -0.000000 3.800000 116 65 51
-1.569849 0.006652 3.800000 117 62 55
-1.569849 0.013304 3.800000 117 61 55
-1.569849 0.019956 3.800000 115 61 56
-1.569849 0.026608 3.800000 112 61 50
-1.569849 0.033260 3.800000 111 64 44
-1.569849 0.039912 3.800000 110 65 49
-1.569849 0.046563 3.800000 109 62 55
-1.569849 0.053215 3.800000 108 63 55
-1.569849 0.059867 3.800000 109 62 56
-1.569849 0.066519 3.800000 109 62 50
-1.569849 0.073171 3.800000 113 58 44
-1.569849 0.079823 3.800000 118 57 46
-1.569849 0.086475 3.800000 114 54 48
-1.569849 0.093127 3.800000 110 54 46
-1.569849 0.099779 3.800000 108 54 45
-1.569849 0.106431 3.800000 107 58 43
-1.569849 0.113082 3.800000 108 57 42
-1.569849 0.119734 3.800000 110 57 41
-1.569849 0.126386 3.800000 108 56 40
-1.569849 0.133038 3.800000 107 53 32
-1.569849 0.139690 3.800000 108 55 24
-1.569849 0.146342 3.800000 110 58 29
-1.569849 0.152994 3.800000 107 55 34
-1.569849 0.159646 3.800000 104 53 39
-1.569849 0.166298 3.800000 108 53 44
-1.569849 0.172949 3.800000 112 54 44
-1.569849 0.179601 3.800000 107 51 44
-1.569849 0.186253 3.800000 102 49 45
-1.569849 0.192905 3.800000 105 50 46
-1.569849 0.199557 3.800000 109 51 55
-1.569849 0.206209 3.800000 107 50 65
-1.569849 0.212861 3.800000 105 49 54
-1.569849 0.219513 3.800000 104 51 44
-1.569849 0.226165 3.800000 103 53 53
-1.569849 0.232817 3.800000 101 51 63
-1.569849 0.239469 3.800000 100 49 48
-1.569849 0.246120 3.800000 103 53 33
-1.569849 0.252772 3.800000 106 55 35
-1.569849 0.259424 3.800000 107 51 38
-1.569849 0.266076 3.800000 108 49 39
-1.569849 0.272728 3.800000 105 51 40
-1.569849 0.279380 3.800000 103 50 45
-1.569849 0.286032 3.800000 103 49 50
-1.552911 0.289526 3.759000 103 49 43
-1.569849 0.299336 3.800000 103 51 37
-1.569849 0.305988 3.800000 103 52 38
-1.569849 0.312640 3.800000 100 50 40
-1.569849 0.319291 3.800000 98 50 42
-1.569849 0.325943 3.800000 99 48 44
-1.569849 0.332595 3.800000 100 50 37
-1.569849 0.339247 3.800000 100 50 30
-1.569849 0.345899 3.800000 100 50 31
-1.569849 0.352551 3.800000 101 48 32
-1.569849 0.359203 3.800000 102 46 42
-1.569849 0.365855 3.800000 100 46 52
-1.587200 0.376624 3.842000 98 46 47
-1.587200 0.383349 3.842000 97 43 43
-1.587200 0.390074 3.842000 97 42 45
-1.569849 0.392462 3.800000 97 46 47
-1.569849 0.399114 3.800000 96 50 45
-1.569849 0.405766 3.800000 96 46 44
-1.569849 0.412418 3.800000 96 44 42
-1.569849 0.419070 3.800000 96 44 41
-1.569849 0.425722 3.800000 95 45 35
-1.569849 0.432374 3.800000 95 42 30
-1.569849 0.439026 3.800000 96 44 22
-1.569849 0.445677 3.800000 95 42 14
-1.569849 0.452329 3.800000 94 41 22
-1.569849 0.458981 3.800000 93 43 30
-1.569849 0.465633 3.800000 92 45 27
-1.569849 0.472285 3.800000 89 42 24
-1.569849 0.478937 3.800000 86 44 18
-1.569849 0.485589 3.800000 86 41 13
-1.587200 0.497681 3.842000 87 39 20
-1.569849 0.498893 3.800000 87 41 27
-1.587200 0.511132 3.842000 87 41 26
-1.587200 0.517858 3.842000 87 43 26
-1.587200 0.524583 3.842000 87 45 18
-1.587200 0.531309 3.842000 90 42 10
-1.587200 0.538034 3.842000 92 43 14
-1.587200 0.544759 3.842000 88 41 19
-1.587200 0.551485 3.842000 85 38 22
-1.569849 0.552108 3.800000 85 37 26
-1.569849 0.558760 3.800000 85 37 26
-1.569849 0.565412 3.800000 84 34 26
-1.569849 0.572064 3.800000 84 28 23
-1.569849 0.578716 3.800000 86 33 21
-1.552911 0.579052 3.759000 88 36 19
-1.552911 0.585632 3.759000 84 37 17
-1.552911 0.592212 3.759000 81 40 17
-1.552911 0.598792 3.759000 80 36 17
-1.552911 0.605372 3.759000 79 42 25
-1.552911 0.611952 3.759000 64 36 34
-1.552911 0.618532 3.759000 50 17 17
-1.552911 0.625112 3.759000 34 7 1
-1.569849 0.638583 3.800000 18 4 3
-1.569849 0.645234 3.800000 21 5 6
-1.569849 0.651886 3.800000 24 7 8
-1.286863 0.697960 3.115000 67 51 28
-1.286863 0.703412 3.115000 74 47 37
-1.286863 0.708865 3.115000 80 44 40
-1.275295 0.707897 3.087000 81 43 44
-1.252987 0.700823 3.033000 83 44 38
-1.252987 0.706133 3.033000 82 44 32
-1.190193 0.675788 2.881000 82 47 40
-1.193498 0.682721 2.889000 83 44 49
-1.190193 0.685874 2.881000 84 42 49
-1.190193 0.690917 2.881000 84 45 50
-1.180278 0.690163 2.857000 84 44 53
-1.180278 0.695164 2.857000 85 46 56
-1.170777 0.694528 2.834000 86 47 56
-1.160862 0.693566 2.810000 86 48 57
-1.151773 0.693016 2.788000 87 46 57
-1.133183 0.686632 2.743000 88 49 58
-1.115832 0.680847 2.701000 89 53 57
-1.107157 0.680244 2.680000 89 59 56
-1.098481 0.679569 2.659000 90 64 59
-1.090219 0.679077 2.639000 89 59 63
-1.081956 0.678515 2.619000 89 57 71
-1.073694 0.677883 2.599000 90 57 80
-1.065845 0.677444 2.580000 92 58 75
-1.057582 0.676673 2.560000 92 55 71
-1.050146 0.676365 2.542000 92 55 68
-1.034861 0.670905 2.505000 93 58 65
-1.027425 0.670438 2.487000 94 59 66
-1.027425 0.674792 2.487000 92 57 68
-1.019989 0.674230 2.469000 90 56 69
-1.012552 0.673605 2.451000 90 57 71
-1.012552 0.677895 2.451000 91 59 68
-0.998506 0.672723 2.417000 93 62 66
-0.991483 0.672192 2.400000 95 65 63
-0.984873 0.671884 2.384000 96 63 61
-0.977850 0.671236 2.367000 98 61 64
-0.977850 0.675380 2.367000 93 65 67
-0.964631 0.670337 2.335000 89 68 64
-0.958434 0.670092 2.320000 91 65 62
-0.951824 0.669503 2.304000 94 65 65
-0.945627 0.669152 2.289000 95 61 69
-0.933234 0.664336 2.259000 97 56 69
-0.927037 0.663853 2.244000 96 55 69
-0.927037 0.667781 2.244000 95 54 73
-0.909273 0.658838 2.201000 95 52 78
-0.903489 0.658475 2.187000 94 52 79
-0.903489 0.662304 2.187000 94 56 81
-0.898119 0.662172 2.174000 94 58 79
-0.892335 0.661689 2.160000 95 59 78
-0.886964 0.661465 2.147000 97 63 78
-0.886964 0.665223 2.147000 101 57 79
-0.875810 0.660569 2.120000 106 52 80
-0.870440 0.660206 2.107000 101 55 82
-0.870440 0.663895 2.107000 96 55 72
-0.860112 0.659662 2.082000 96 58 62
-0.860112 0.663307 2.082000 95 59 69
-0.854741 0.662787 2.069000 94 59 76
-0.854741 0.666408 2.069000 92 60 73
-0.844826 0.662258 2.045000 91 60 71
-0.834912 0.658024 2.021000 90 61 75
-0.829954 0.657633 2.009000 92 58 79
-0.825410 0.657530 1.998000 95 56 83
-0.825410 0.661027 1.998000 98 60 88
-0.820453 0.660534 1.986000 101 58 81
-0.811364 0.656655 1.964000 95 59 74
-0.801862 0.652362 1.941000 90 61 76
-0.797731 0.652382 1.931000 92 61 79
-0.793187 0.652026 1.920000 94 64 85
-0.788642 0.651632 1.909000 95 64 91
-0.788642 0.654974 1.909000 96 65 84
-0.784511 0.654867 1.899000 97 67 77
-0.784511 0.658192 1.899000 98 69 78
-0.779967 0.657684 1.888000 100 65 79
-0.771705 0.653987 1.868000 103 62 81
-0.763442 0.650220 1.848000 98 63 83
-0.759311 0.649919 1.838000 94 64 84
-0.759311 0.653136 1.838000 94 64 86
-0.755180 0.652783 1.828000 95 65 85
-0.747331 0.649164 1.809000 93 66 84
-0.747331 0.652331 1.809000 92 68 81
-0.743613 0.652236 1.800000 96 68 78
-0.743613 0.655387 1.800000 101 67 79
-0.735763 0.651587 1.781000 100 62 81
-0.732045 0.651396 1.772000 99 59 81
-0.732045 0.654498 1.772000 96 65 82
-0.728327 0.654260 1.763000 94 69 88
-0.720891 0.650635 1.745000 93 67 95
-0.717173 0.650318 1.736000 93 68 80
-0.717173 0.653357 1.736000 93 71 65
-0.717173 0.656396 1.736000 93 71 72
-0.710150 0.652977 1.719000 91 71 79
-0.706845 0.652933 1.711000 90 71 81
-0.703127 0.652478 1.702000 92 68 84
-0.699822 0.652376 1.694000 95 68 89
-0.696517 0.652247 1.686000 97 70 94
-0.692799 0.651701 1.677000 99 66 91
-0.689494 0.651513 1.669000 102 66 89
-1.546330 -1.467369 3.759000 89 49 36
-1.563197 -1.476722 3.800000 83 51 32
-1.563197 -1.470070 3.800000 95 53 29
-1.546330 -1.447628 3.759000 108 47 23
-1.546330 -1.441048 3.759000 99 45 18
-1.546330 -1.434468 3.759000 90 48 24
-1.546330 -1.427888 3.759000 93 53 30
-1.546330 -1.421308 3.759000 97 53 36
-1.546330 -1.414728 3.759000 97 53 42
-1.546330 -1.408148 3.759000 98 51 41
-1.546330 -1.401568 3.759000 98 50 40
-1.546330 -1.394987 3.759000 99 48 44
-1.546330 -1.388407 3.759000 98 47 49
-1.563197 -1.396899 3.800000 97 49 42
-1.563197 -1.390247 3.800000 94 50 34
-1.546330 -1.368667 3.759000 91 43 30
-1.546330 -1.362087 3.759000 85 32 26
-1.546330 -1.355507 3.759000 80 36 28
-1.546330 -1.348927 3.759000 88 39 30
-1.546330 -1.342346 3.759000 96 47 36
-1.546330 -1.335766 3.759000 100 54 43
-1.546330 -1.329186 3.759000 104 51 37
-1.546330 -1.322606 3.759000 98 57 32
-1.563197 -1.330380 3.800000 92 54 35
-1.563197 -1.323728 3.800000 96 49 38
-1.563197 -1.317076 3.800000 101 49 39
-1.563197 -1.310424 3.800000 96 53 40
-1.563197 -1.303773 3.800000 92 51 38
-1.563197 -1.297121 3.800000 97 51 36
-1.546330 -1.276545 3.759000 102 52 39
-1.546330 -1.269965 3.759000 100 53 42
-1.546330 -1.263385 3.759000 98 52 45
-1.546330 -1.256805 3.759000 102 51 49
-1.546330 -1.250225 3.759000 106 52 44
-1.546330 -1.243645 3.759000 110 53 40
-1.546330 -1.237064 3.759000 115 49 46
-1.546330 -1.230484 3.759000 104 47 52
-1.546330 -1.223904 3.759000 93 50 42
-1.546330 -1.217324 3.759000 99 49 33
-1.546330 -1.210744 3.759000 106 48 36
-1.563197 -1.217298 3.800000 107 48 40
-1.563197 -1.210646 3.800000 109 47 42
-1.563197 -1.203994 3.800000 113 42 44
-1.563197 -1.197342 3.800000 118 45 49
-1.563197 -1.190690 3.800000 112 46 54
-1.546330 -1.171263 3.759000 107 46 47
-1.546330 -1.164683 3.759000 107 45 40
-1.546330 -1.158103 3.759000 108 48 42
-1.546330 -1.151523 3.759000 105 49 44
-1.546330 -1.144943 3.759000 102 49 40
-1.546330 -1.138362 3.759000 105 51 35
-1.546330 -1.131782 3.759000 108 54 38
-1.563197 -1.137475 3.800000 105 58 40
-1.546330 -1.118622 3.759000 103 54 41
-1.546330 -1.112042 3.759000 106 54 43
-1.563197 -1.117519 3.800000 109 55 41
-1.563197 -1.110867 3.800000 105 59 40
-1.563197 -1.104216 3.800000 102 60 42
-1.546330 -1.085721 3.759000 105 58 43
-1.546330 -1.079141 3.759000 108 55 48
-1.546330 -1.072561 3.759000 107 56 54
-1.546330 -1.065981 3.759000 106 54 52
-1.546330 -1.059401 3.759000 107 55 50
-1.546330 -1.052821 3.759000 109 54 49
-1.563197 -1.057652 3.800000 113 53 49
-1.563197 -1.051000 3.800000 117 52 43
-1.563197 -1.044348 3.800000 113 50 37
-1.563197 -1.037696 3.800000 110 52 40
-1.563197 -1.031045 3.800000 109 53 43
-1.563197 -1.024393 3.800000 108 55 34
-1.563197 -1.017741 3.800000 105 60 26
-1.546330 -1.000180 3.759000 103 58 42
-1.546330 -0.993600 3.759000 106 59 59
-1.546330 -0.987019 3.759000 109 57 48
-1.546330 -0.980439 3.759000 108 55 37
-1.546330 -0.973859 3.759000 107 54 39
-1.546330 -0.967279 3.759000 106 55 41
-1.563197 -0.971177 3.800000 105 54 37
-1.563197 -0.964525 3.800000 107 55 33
-1.563197 -0.957874 3.800000 110 53 42
-1.563197 -0.951222 3.800000 108 52 51
-1.563197 -0.944570 3.800000 107 51 45
-1.563197 -0.937918 3.800000 108 46 40
-1.563197 -0.931266 3.800000 110 52 43
-1.563197 -0.924614 3.800000 114 55 46
-1.546330 -0.908058 3.759000 118 54 45
-1.546330 -0.901478 3.759000 117 52 44
-1.546330 -0.894898 3.759000 117 53 41
-1.546330 -0.888318 3.759000 113 57 38
-1.546330 -0.881737 3.759000 110 55 43
-1.546330 -0.875157 3.759000 109 53 48
-1.563197 -0.878051 3.800000 109 57 46
-1.563197 -0.871399 3.800000 101 63 45
-1.546330 -0.855417 3.759000 94 60 43
-1.546330 -0.848837 3.759000 103 59 41
-1.546330 -0.842257 3.759000 113 56 43
-1.546330 -0.835676 3.759000 112 55 45
-1.546330 -0.829096 3.759000 112 57 46
-1.563197 -0.831488 3.800000 112 56 47
-1.563197 -0.824836 3.800000 112 55 53
-1.563197 -0.818184 3.800000 111 56 59
-1.563197 -0.811532 3.800000 111 59 54
-1.563197 -0.804880 3.800000 109 60 50
-1.563197 -0.798228 3.800000 107 61 51
-1.563197 -0.791576 3.800000 99 64 52
-1.546330 -0.776455 3.759000 91 61 45
-1.546330 -0.769875 3.759000 101 62 38
-1.546330 -0.763295 3.759000 111 58 42
-1.546330 -0.756715 3.759000 112 56 45
-1.546330 -0.750135 3.759000 114 59 51
-1.546330 -0.743555 3.759000 113 61 56
-1.546330 -0.736974 3.759000 113 62 47
-1.546330 -0.730394 3.759000 113 64 38
-1.546330 -0.723814 3.759000 114 64 43
-1.546330 -0.717234 3.759000 116 65 48
-1.546330 -0.710654 3.759000 118 61 55
-1.563197 -0.711753 3.800000 117 58 61
-1.546330 -0.697494 3.759000 117 58 58
-1.546330 -0.690914 3.759000 118 59 55
-1.546330 -0.684333 3.759000 119 62 54
-1.546330 -0.677753 3.759000 121 60 54
-1.546330 -0.671173 3.759000 124 58 50
-1.546330 -0.664593 3.759000 122 59 47
-1.546330 -0.658013 3.759000 121 61 45
-1.546330 -0.651433 3.759000 122 60 43
-1.563197 -0.651886 3.800000 123 59 48
-1.546330 -0.638273 3.759000 122 58 53
-1.563197 -0.638582 3.800000 121 55 55
-1.563197 -0.631931 3.800000 118 55 57
-1.546330 -0.618532 3.759000 116 61 55
-1.546330 -0.611952 3.759000 118 66 53
-1.563197 -0.611975 3.800000 120 63 58
-1.563197 -0.605323 3.800000 117 60 64
-1.563197 -0.598671 3.800000 115 60 60
-1.563197 -0.592019 3.800000 114 61 56
-1.563197 -0.585367 3.800000 114 61 53
-1.563197 -0.578715 3.800000 115 64 51
-1.563197 -0.572063 3.800000 116 63 55
-1.563197 -0.565412 3.800000 118 63 59
-1.563197 -0.558760 3.800000 121 62 54
-1.563197 -0.552108 3.800000 121 63 50
-1.563197 -0.545456 3.800000 121 61 46
-1.563197 -0.538804 3.800000 120 58 43
-1.563197 -0.532152 3.800000 120 57 50
-1.563197 -0.525500 3.800000 121 55 58
-1.563197 -0.518848 3.800000 123 60 55
-1.546330 -0.506670 3.759000 119 67 52
-1.563197 -0.505544 3.800000 116 68 52
-1.563197 -0.498892 3.800000 117 71 52
-1.563197 -0.492241 3.800000 118 69 52
-1.546330 -0.480349 3.759000 118 68 51
-1.563197 -0.478937 3.800000 118 63 58
-1.546330 -0.467189 3.759000 118 60 66
-1.546330 -0.460609 3.759000 119 63 58
-1.563197 -0.458981 3.800000 119 67 50
-1.563197 -0.452329 3.800000 120 64 53
-1.563197 -0.445677 3.800000 120 66 56
-1.563197 -0.439025 3.800000 121 64 56
-1.563197 -0.432374 3.800000 121 64 56
-1.563197 -0.425722 3.800000 122 62 62
-1.563197 -0.419070 3.800000 121 65 68
-1.563197 -0.412418 3.800000 120 64 59
-1.563197 -0.405766 3.800000 121 63 51
-1.563197 -0.399114 3.800000 122 63 49
-1.563197 -0.392462 3.800000 122 70 46
-1.563197 -0.385810 3.800000 122 66 51
-1.546330 -0.375067 3.759000 121 65 56
-1.546330 -0.368487 3.759000 120 68 59
-1.563197 -0.365854 3.800000 121 71 62
-1.563197 -0.359203 3.800000 122 68 65
-1.563197 -0.352551 3.800000 125 71 69
-1.563197 -0.345899 3.800000 129 67 64
-1.563197 -0.339247 3.800000 128 63 60
-1.563197 -0.332595 3.800000 127 66 61
-1.563197 -0.325943 3.800000 126 73 62
-1.563197 -0.319291 3.800000 125 70 62
-1.563197 -0.312639 3.800000 124 67 63
-1.563197 -0.305987 3.800000 124 67 68
-1.563197 -0.299335 3.800000 125 67 73
-1.563197 -0.292684 3.800000 126 67 65
-1.563197 -0.286032 3.800000 125 68 58
-1.563197 -0.279380 3.800000 124 67 63
-1.563197 -0.272728 3.800000 126 64 69
-1.546330 -0.263205 3.759000 129 67 51
-1.546330 -0.256625 3.759000 127 67 33
-1.546330 -0.250045 3.759000 126 70 42
-1.546330 -0.243465 3.759000 123 75 51
-1.546330 -0.236885 3.759000 121 73 50
-1.546330 -0.230305 3.759000 119 74 50
-1.546330 -0.223724 3.759000 118 74 51
-1.563197 -0.219513 3.800000 118 71 53
-1.563197 -0.212861 3.800000 119 72 53
-1.563197 -0.206209 3.800000 121 68 53
-1.580474 -0.201763 3.842000 123 65 54
-1.580474 -0.195037 3.842000 123 62 55
-1.580474 -0.188312 3.842000 123 63 54
-1.580474 -0.181586 3.842000 126 65 54
-1.580474 -0.174861 3.842000 130 65 53
-1.563197 -0.166297 3.800000 123 63 52
-1.580474 -0.161410 3.842000 117 66 49
-1.563197 -0.152994 3.800000 118 67 45
-1.563197 -0.146342 3.800000 119 72 49
-1.563197 -0.139690 3.800000 120 76 52
-1.563197 -0.133038 3.800000 122 71 51
-1.580474 -0.127783 3.842000 120 69 51
-1.580474 -0.121057 3.842000 119 69 50
-1.563197 -0.113082 3.800000 124 68 50
-1.563197 -0.106430 3.800000 129 65 46
-1.563197 -0.099778 3.800000 123 65 43
-1.563197 -0.093127 3.800000 117 67 48
-1.563197 -0.086475 3.800000 118 68 54
-1.563197 -0.079823 3.800000 120 65 57
-1.563197 -0.073171 3.800000 120 63 61
-1.563197 -0.066519 3.800000 121 61 56
-1.563197 -0.059867 3.800000 121 61 52
-1.563197 -0.053215 3.800000 122 63 47
-1.563197 -0.046563 3.800000 119 65 42
-1.563197 -0.039911 3.800000 116 65 43
-1.563197 -0.033259 3.800000 118 65 45
-1.563197 -0.026607 3.800000 120 65 42
-1.563197 -0.019956 3.800000 117 68 39
-1.563197 -0.013304 3.800000 115 67 43
-1.563197 -0.006652 3.800000 115 67 48
-1.563197 -0.000000 3.800000 116 64 51
-1.563197 0.006652 3.800000 119 63 55
-1.563197 0.013304 3.800000 122 61 53
-1.563197 0.019956 3.800000 117 60 52
-1.563197 0.026608 3.800000 113 61 48
-1.563197 0.033260 3.800000 111 67 44
-1.563197 0.039912 3.800000 109 64 48
-1.563197 0.046563 3.800000 107 61 53
-1.563197 0.053215 3.800000 106 61 57
-1.563197 0.059867 3.800000 106 63 62
-1.563197 0.066519 3.800000 106 61 54
-1.563197 0.073171 3.800000 114 59 47
-1.563197 0.079823 3.800000 122 56 50
-1.563197 0.086475 3.800000 117 55 53
-1.563197 0.093127 3.800000 112 53 51
-1.563197 0.099779 3.800000 111 52 49
-1.563197 0.106431 3.800000 110 54 46
-1.563197 0.113082 3.800000 110 55 43
-1.563197 0.119734 3.800000 110 56 42
-1.563197 0.126386 3.800000 107 56 41
-1.563197 0.133038 3.800000 105 54 37
-1.563197 0.139690 3.800000 107 54 33
-1.563197 0.146342 3.800000 110 54 36
-1.563197 0.152994 3.800000 108 53 40
-1.563197 0.159646 3.800000 106 51 42
-1.563197 0.166298 3.800000 107 49 45
-1.563197 0.172949 3.800000 108 50 44
-1.563197 0.179601 3.800000 104 49 44
-1.563197 0.186253 3.800000 101 51 44
-1.563197 0.192905 3.800000 102 54 44
-1.563197 0.199557 3.800000 103 52 41
-1.563197 0.206209 3.800000 103 53 39
-1.563197 0.212861 3.800000 104 52 38
-1.563197 0.219513 3.800000 104 53 38
-1.563197 0.226165 3.800000 105 52 43
-1.563197 0.232817 3.800000 105 53 48
-1.563197 0.239469 3.800000 105 53 36
-1.563197 0.246120 3.800000 105 56 25
-1.563197 0.252772 3.800000 105 54 30
-1.563197 0.259424 3.800000 108 50 36
-1.563197 0.266076 3.800000 112 50 39
-1.563197 0.272728 3.800000 108 54 43
-1.563197 0.279380 3.800000 104 51 46
-1.563197 0.286032 3.800000 104 46 49
-1.563197 0.292684 3.800000 105 49 45
-1.563197 0.299336 3.800000 104 51 40
-1.563197 0.305988 3.800000 104 53 39
-1.563197 0.312640 3.800000 101 55 38
-1.563197 0.319291 3.800000 99 52 43
-1.563197 0.325943 3.800000 99 49 48
-1.563197 0.332595 3.800000 99 50 38
-1.563197 0.339247 3.800000 99 53 28
-1.563197 0.345899 3.800000 100 51 28
-1.563197 0.352551 3.800000 99 49 29
-1.580474 0.363173 3.842000 98 46 31
-1.580474 0.369898 3.842000 98 46 33
-1.580474 0.376624 3.842000 98 44 37
-1.580474 0.383349 3.842000 98 43 41
-1.580474 0.390074 3.842000 99 42 45
-1.580474 0.396800 3.842000 99 46 48
-1.563197 0.399114 3.800000 99 46 43
-1.563197 0.405766 3.800000 104 46 39
-1.563197 0.412418 3.800000 109 44 38
-1.563197 0.419070 3.800000 103 42 37
-1.563197 0.425722 3.800000 98 42 34
-1.563197 0.432374 3.800000 100 39 31
-1.563197 0.439026 3.800000 103 39 25
-1.580474 0.450603 3.842000 98 39 20
-1.580474 0.457329 3.842000 93 40 27
-1.580474 0.464054 3.842000 92 45 34
-1.580474 0.470780 3.842000 92 45 31
-1.563197 0.472285 3.800000 87 44 28
-1.580474 0.484230 3.842000 83 44 25
-1.580474 0.490956 3.842000 84 42 22
-1.580474 0.497681 3.842000 86 42 27
-1.580474 0.504407 3.842000 87 40 33
-1.580474 0.511132 3.842000 89 44 30
-1.580474 0.517858 3.842000 89 45 28
-1.580474 0.524583 3.842000 89 44 23
-1.580474 0.531309 3.842000 91 45 18
-1.580474 0.538034 3.842000 94 43 18
-1.580474 0.544759 3.842000 89 44 19
-1.580474 0.551485 3.842000 84 40 22
-1.563197 0.552108 3.800000 84 40 25
-1.563197 0.558760 3.800000 85 37 25
-1.563197 0.565412 3.800000 83 36 26
-1.563197 0.572064 3.800000 82 34 26
-1.563197 0.578716 3.800000 82 39 27
-1.563197 0.585368 3.800000 83 38 22
-1.546330 0.585632 3.759000 81 35 17
-1.546330 0.592212 3.759000 79 36 15
-1.546330 0.598792 3.759000 78 30 14
-1.546330 0.605372 3.759000 77 38 17
-1.546330 0.611952 3.759000 61 47 20
-1.546330 0.618532 3.759000 45 18 11
-1.546330 0.625112 3.759000 35 3 2
-1.563197 0.638583 3.800000 25 4 5
-1.281410 0.703412 3.115000 79 50 40
-1.281410 0.708865 3.115000 83 46 43
-1.269892 0.707897 3.087000 83 45 45
-1.258373 0.706831 3.059000 83 45 46
-1.247678 0.706133 3.033000 78 46 46
-1.185150 0.675788 2.881000 74 44 47
-1.185150 0.680831 2.881000 79 42 48
-1.185150 0.685874 2.881000 84 43 45
-1.175277 0.685162 2.857000 84 44 43
-1.175277 0.690163 2.857000 84 47 51
-1.165816 0.689568 2.834000 84 49 59
-1.155943 0.688647 2.810000 85 49 58
-1.155943 0.693566 2.810000 86 50 57
-1.146893 0.693016 2.788000 88 48 58
-1.128381 0.686632 2.743000 89 48 60
-1.111104 0.680847 2.701000 90 54 59
-1.102465 0.680244 2.680000 91 62 59
-1.093826 0.679569 2.659000 92 60 60
-1.085599 0.679077 2.639000 92 58 62
-1.077372 0.678515 2.619000 92 57 67
-1.077372 0.683100 2.619000 97 59 72
-1.069144 0.682433 2.599000 102 58 69
-1.053101 0.676673 2.560000 97 53 67
-1.045696 0.676365 2.542000 93 57 66
-1.037880 0.675726 2.523000 92 61 64
-1.030476 0.675291 2.505000 92 59 65
-1.023071 0.674792 2.487000 90 59 65
-1.015666 0.674230 2.469000 89 57 68
-1.008262 0.673605 2.451000 90 59 71
-1.008262 0.677895 2.451000 91 60 70
-0.994275 0.672723 2.417000 93 63 68
-0.987282 0.672192 2.400000 95 63 67
-0.980700 0.671884 2.384000 94 63 66
-0.973707 0.671236 2.367000 93 63 70
-0.967125 0.670815 2.351000 89 64 74
-0.960543 0.670337 2.335000 85 64 70
-0.954373 0.670092 2.320000 89 63 66
-0.947791 0.669503 2.304000 94 63 67
-0.935450 0.664767 2.274000 96 63 68
-0.929279 0.664336 2.259000 99 58 69
-0.923109 0.663853 2.244000 97 55 70
-0.917350 0.663615 2.230000 96 53 74
-0.905420 0.658838 2.201000 95 50 78
-0.905420 0.662690 2.201000 94 55 79
