ply
format ascii 1.0
element vertex 1195
property float x
property float y
property float z
property uchar red
property uchar green
property uchar blue
end_header
0.142625 0.700162 2.469000 211 181 235
0.140604 0.694497 2.434000 208 177 231
0.138640 0.688997 2.400000 206 179 229
0.137715 0.688577 2.384000 203 181 227
0.136733 0.687810 2.367000 201 180 225
0.136733 0.691954 2.367000 206 180 224
0.135809 0.691392 2.351000 211 182 226
0.135809 0.695507 2.351000 211 183 229
0.134018 0.690397 2.320000 211 181 232
0.133094 0.689669 2.304000 211 180 234
0.132227 0.689186 2.289000 212 176 233
0.131361 0.688650 2.274000 217 175 232
0.130495 0.688062 2.259000 222 179 232
0.129628 0.687422 2.244000 214 190 231
0.128819 0.687036 2.230000 206 175 231
0.127953 0.686292 2.215000 208 169 230
0.127144 0.685808 2.201000 210 173 229
0.126335 0.685274 2.187000 210 176 228
0.125584 0.685006 2.174000 210 178 230
0.124776 0.684376 2.160000 209 178 232
0.124025 0.684015 2.147000 209 178 228
0.123216 0.683289 2.133000 205 190 225
0.122465 0.682835 2.120000 202 186 226
0.122465 0.686546 2.120000 211 184 227
0.121714 0.686025 2.107000 221 187 225
0.121714 0.689713 2.107000 212 190 223
0.121021 0.689452 2.095000 204 185 224
0.118132 0.676577 2.045000 206 181 226
0.117439 0.676166 2.033000 209 180 225
0.116746 0.675712 2.021000 208 178 224
0.116053 0.675217 2.009000 208 173 229
0.115706 0.676707 2.003000 208 174 233
0.115417 0.678515 1.998000 209 177 229
0.114724 0.677916 1.986000 211 178 225
0.114724 0.681393 1.986000 213 175 230
0.113453 0.677283 1.964000 213 170 235
0.112760 0.676561 1.952000 213 170 234
0.112125 0.676147 1.941000 211 171 234
0.110912 0.672192 1.920000 209 177 232
0.110912 0.675553 1.920000 209 191 230
0.110276 0.675024 1.909000 210 180 231
0.109063 0.670904 1.888000 209 172 232
0.108485 0.670638 1.878000 209 173 232
0.107330 0.666748 1.858000 207 175 233
0.106752 0.666394 1.848000 205 179 231
0.106752 0.669629 1.848000 206 181 230
0.106175 0.669223 1.838000 208 181 233
0.106175 0.672441 1.838000 208 184 235
0.105597 0.671982 1.828000 208 180 234
0.105077 0.671858 1.819000 208 177 233
0.104500 0.671331 1.809000 208 178 234
0.104500 0.674497 1.809000 209 184 236
0.103980 0.674293 1.800000 210 183 232
0.103402 0.673680 1.790000 209 189 228
0.102882 0.673410 1.781000 209 179 228
0.102362 0.673109 1.772000 214 176 229
0.100803 0.665908 1.745000 219 177 228
0.100803 0.668962 1.745000 214 179 227
0.100283 0.668551 1.736000 209 178 228
0.099820 0.668495 1.728000 211 178 229
0.226165 0.751665 3.800000 203 173 212
0.226165 0.758317 3.800000 201 165 213
0.223724 0.756715 3.759000 200 166 214
0.218963 0.747051 3.679000 199 160 214
0.216642 0.745503 3.640000 201 169 214
0.214380 0.744026 3.602000 203 171 216
0.214380 0.750331 3.602000 203 170 218
0.209976 0.741092 3.528000 203 171 218
0.209976 0.747268 3.528000 204 171 218
0.207893 0.745969 3.493000 205 174 219
0.205810 0.744547 3.458000 209 173 220
0.203727 0.743003 3.423000 214 174 218
0.199799 0.734554 3.357000 212 177 216
0.199799 0.740430 3.357000 210 179 217
0.195989 0.732078 3.293000 209 179 218
0.194144 0.730897 3.262000 208 180 222
0.194144 0.736607 3.262000 207 177 227
0.192299 0.735263 3.231000 206 176 226
0.190514 0.734039 3.201000 205 173 226
0.188788 0.732942 3.172000 204 173 222
0.187062 0.731743 3.143000 202 175 219
0.185395 0.730676 3.115000 200 178 220
0.183729 0.729512 3.087000 204 177 222
0.180515 0.722060 3.033000 208 177 224
0.178908 0.720895 3.006000 210 176 227
0.175873 0.713836 2.955000 212 175 227
0.174385 0.712926 2.930000 212 178 227
0.172897 0.711928 2.905000 212 179 229
0.172897 0.717014 2.905000 215 178 231
0.171468 0.716133 2.881000 218 179 226
0.170040 0.715169 2.857000 212 178 222
0.167243 0.708323 2.810000 205 180 226
0.167243 0.713241 2.810000 208 180 230
0.165933 0.712538 2.788000 210 179 231
0.163255 0.705838 2.743000 208 179 233
0.163255 0.710640 2.743000 207 177 230
0.162005 0.709964 2.722000 212 182 228
0.160755 0.709215 2.701000 218 188 228
0.158256 0.702842 2.659000 214 184 229
0.157065 0.702175 2.639000 211 181 233
0.155875 0.701438 2.619000 210 186 238
0.154685 0.700631 2.599000 209 185 234
0.152364 0.694599 2.560000 210 179 231
0.152364 0.699080 2.560000 211 171 232
0.151292 0.698614 2.542000 210 181 233
0.149090 0.692831 2.505000 210 182 231
0.149090 0.697216 2.505000 209 183 229
0.148019 0.696559 2.487000 208 185 232
0.148019 0.700913 2.487000 209 186 236
0.146947 0.700162 2.469000 210 183 233
0.144864 0.694497 2.434000 209 186 230
0.142841 0.688997 2.400000 208 182 228
0.141889 0.688577 2.384000 206 181 226
0.140877 0.687810 2.367000 205 182 226
0.140877 0.691954 2.367000 207 181 226
0.139924 0.691392 2.351000 210 182 229
0.138972 0.690774 2.335000 211 182 232
0.138079 0.690397 2.320000 212 182 236
0.137127 0.689669 2.304000 212 180 240
0.136234 0.689186 2.289000 212 178 237
0.135342 0.688650 2.274000 214 178 234
0.134449 0.688062 2.259000 217 180 234
0.133556 0.687422 2.244000 213 181 235
0.132723 0.687036 2.230000 209 176 233
0.131830 0.686292 2.215000 210 174 231
0.130164 0.681445 2.187000 211 176 232
0.130164 0.685274 2.187000 210 177 233
0.129390 0.685006 2.174000 209 180 234
0.128557 0.684376 2.160000 209 180 236
0.126950 0.679555 2.133000 209 179 229
0.126950 0.683289 2.133000 209 184 223
0.126176 0.682835 2.120000 210 190 225
0.126176 0.686546 2.120000 215 185 228
0.125402 0.686025 2.107000 220 186 225
0.124688 0.685785 2.095000 217 187 223
0.123914 0.685174 2.082000 215 185 224
0.121712 0.676577 2.045000 213 184 225
0.120998 0.676166 2.033000 211 181 222
0.120284 0.675712 2.021000 210 176 219
0.119570 0.675217 2.009000 209 163 228
0.119570 0.678734 2.009000 210 173 238
0.118915 0.678515 1.998000 211 177 233
0.118201 0.677916 1.986000 214 179 229
0.118201 0.681393 1.986000 217 180 232
0.117546 0.681076 1.975000 215 175 236
0.116891 0.680721 1.964000 214 171 235
0.115523 0.676147 1.941000 211 175 234
0.114927 0.676043 1.931000 209 179 233
0.114273 0.675553 1.920000 209 182 232
0.113618 0.675024 1.909000 208 181 233
0.112368 0.670904 1.888000 208 175 234
0.112368 0.674209 1.888000 208 172 233
0.110583 0.666748 1.858000 208 178 233
0.110583 0.670000 1.858000 207 182 229
0.109987 0.669629 1.848000 208 181 226
0.109987 0.672864 1.848000 209 179 231
0.109392 0.672441 1.838000 209 182 236
0.108797 0.671982 1.828000 209 185 235
0.108261 0.671858 1.819000 207 180 234
0.107666 0.671331 1.809000 206 175 234
0.107666 0.674497 1.809000 207 182 234
0.107131 0.674293 1.800000 209 186 231
0.106535 0.673680 1.790000 208 184 228
0.106000 0.673410 1.781000 208 175 229
0.105464 0.673109 1.772000 210 175 230
0.103857 0.665908 1.745000 213 176 229
0.103857 0.668962 1.745000 209 178 229
0.103322 0.668551 1.736000 204 178 231
0.102310 0.665013 1.719000 210 178 233
0.232817 0.758317 3.800000 201 170 214
0.230305 0.756715 3.759000 200 171 214
0.225403 0.747051 3.679000 199 170 214
0.223014 0.745503 3.640000 201 175 215
0.223014 0.751875 3.640000 204 171 217
0.220686 0.750331 3.602000 205 168 220
0.218419 0.748864 3.565000 206 170 221
0.216152 0.747268 3.528000 206 172 223
0.214007 0.745969 3.493000 206 172 221
0.211863 0.744547 3.458000 216 174 220
0.209719 0.743003 3.423000 226 176 219
0.207697 0.741774 3.390000 219 182 218
0.203653 0.733152 3.324000 213 181 218
0.201754 0.732078 3.293000 210 183 218
0.199855 0.730897 3.262000 207 178 219
0.199855 0.736607 3.262000 207 178 220
0.197955 0.735263 3.231000 208 174 223
0.196117 0.734039 3.201000 207 169 226
0.194341 0.732942 3.172000 206 171 221
0.192564 0.731743 3.143000 205 175 216
0.190848 0.730676 3.115000 205 177 218
0.187417 0.722896 3.059000 207 179 221
0.185824 0.722060 3.033000 209 177 224
0.184170 0.720895 3.006000 209 177 227
0.181045 0.713836 2.955000 210 177 228
0.179514 0.712926 2.930000 211 178 228
0.177982 0.711928 2.905000 213 178 231
0.177982 0.717014 2.905000 218 179 233
0.176512 0.716133 2.881000 223 179 229
0.173632 0.709411 2.834000 211 179 225
0.172162 0.708323 2.810000 200 180 229
0.172162 0.713241 2.810000 204 180 233
0.170814 0.712538 2.788000 209 180 234
0.169405 0.711500 2.765000 206 180 236
0.168057 0.710640 2.743000 204 180 230
0.166770 0.709964 2.722000 214 183 223
0.165484 0.709215 2.701000 224 186 225
0.162910 0.702842 2.659000 218 188 227
0.161685 0.702175 2.639000 212 181 232
0.160460 0.701438 2.619000 210 184 236
0.158070 0.695509 2.580000 208 183 233
0.156845 0.694599 2.560000 210 184 230
0.155742 0.694164 2.542000 213 183 229
0.154578 0.693392 2.523000 211 189 229
0.153475 0.692831 2.505000 210 185 227
0.153475 0.697216 2.505000 209 183 225
0.153475 0.701601 2.505000 208 187 228
0.152372 0.700913 2.487000 208 194 231
0.151269 0.700162 2.469000 209 190 229
0.148084 0.689646 2.417000 210 202 228
0.147042 0.688997 2.400000 211 186 226
0.146062 0.688577 2.384000 210 182 225
0.145020 0.687810 2.367000 209 180 223
0.144040 0.687276 2.351000 209 181 221
0.144040 0.691392 2.351000 210 181 226
0.143060 0.690774 2.335000 211 182 231
0.142141 0.690397 2.320000 213 182 233
0.141160 0.689669 2.304000 213 183 235
0.140241 0.689186 2.289000 213 181 232
0.139322 0.688650 2.274000 212 180 228
0.138403 0.688062 2.259000 212 180 230
0.137484 0.687422 2.244000 212 179 232
0.136627 0.687036 2.230000 212 178 231
0.135708 0.686292 2.215000 212 178 230
0.134850 0.685808 2.201000 212 178 230
0.133992 0.685274 2.187000 210 178 230
0.133196 0.685006 2.174000 209 180 231
0.132338 0.684376 2.160000 209 184 231
0.130684 0.679555 2.133000 209 179 228
0.130684 0.683289 2.133000 214 178 226
0.129887 0.682835 2.120000 219 182 227
0.129091 0.682336 2.107000 219 182 229
0.128355 0.682117 2.095000 219 183 228
0.128355 0.685785 2.095000 223 190 227
0.127559 0.685174 2.082000 227 184 227
0.126027 0.680547 2.057000 220 191 228
0.124557 0.676166 2.033000 213 185 225
0.124557 0.679725 2.033000 212 185 223
0.123822 0.679250 2.021000 211 179 229
0.123086 0.678734 2.009000 212 181 235
0.122412 0.678515 1.998000 213 180 232
0.121677 0.677916 1.986000 217 183 230
0.121677 0.681393 1.986000 221 181 232
0.121003 0.681076 1.975000 218 180 235
0.120329 0.680721 1.964000 215 178 234
0.119594 0.679978 1.952000 212 181 233
0.117634 0.672192 1.920000 210 179 232
0.117634 0.675553 1.920000 208 179 230
0.116960 0.675024 1.909000 207 178 229
0.115673 0.670904 1.888000 207 176 228
0.115673 0.674209 1.888000 208 178 229
0.113835 0.666748 1.858000 209 183 231
0.113835 0.670000 1.858000 210 183 229
0.113222 0.669629 1.848000 210 185 227
0.113222 0.672864 1.848000 210 182 230
0.112610 0.672441 1.838000 210 181 233
0.111997 0.671982 1.828000 211 184 232
0.111446 0.671858 1.819000 207 186 232
0.110833 0.671331 1.809000 204 182 233
0.110833 0.674497 1.809000 206 183 233
0.110281 0.674293 1.800000 209 184 231
0.109669 0.673680 1.790000 208 186 229
0.109117 0.673410 1.781000 207 176 230
0.108566 0.673109 1.772000 207 174 231
0.107463 0.669342 1.754000 208 177 230
0.106912 0.668962 1.745000 204 180 229
0.106360 0.668551 1.736000 200 179 231
0.105319 0.665013 1.719000 210 175 233
0.236885 0.750135 3.759000 202 174 215
0.234301 0.748461 3.718000 202 172 215
0.231843 0.747051 3.679000 201 174 215
0.229386 0.745503 3.640000 203 172 216
0.229386 0.751875 3.640000 205 171 219
0.226991 0.750331 3.602000 207 169 223
0.224659 0.748864 3.565000 210 170 225
0.222328 0.747268 3.528000 208 171 228
0.220122 0.745969 3.493000 207 170 224
0.215711 0.743003 3.423000 220 176 220
0.213631 0.741774 3.390000 216 178 220
0.211551 0.740430 3.357000 212 180 219
0.207518 0.732078 3.293000 210 177 219
0.205565 0.730897 3.262000 209 172 216
0.205565 0.736607 3.262000 211 174 214
0.203611 0.735263 3.231000 214 176 220
0.201721 0.734039 3.201000 211 173 226
0.199893 0.732942 3.172000 208 168 219
0.199893 0.738494 3.172000 205 173 213
0.196301 0.730676 3.115000 203 178 217
0.192772 0.722896 3.059000 207 179 221
0.191134 0.722060 3.033000 211 178 224
0.189432 0.720895 3.006000 211 178 228
0.186218 0.713836 2.955000 211 180 229
0.184643 0.712926 2.930000 211 179 230
0.183067 0.711928 2.905000 212 179 233
0.181555 0.711090 2.881000 215 179 236
0.180042 0.710167 2.857000 218 181 232
0.178593 0.709411 2.834000 212 182 228
0.177081 0.708323 2.810000 206 183 232
0.175694 0.707657 2.788000 208 181 236
0.175694 0.712538 2.788000 211 182 238
0.174245 0.711500 2.765000 209 182 240
0.172858 0.710640 2.743000 208 183 229
0.171535 0.709964 2.722000 214 184 219
0.170212 0.709215 2.701000 221 187 222
0.167565 0.702842 2.659000 216 185 226
0.166305 0.702175 2.639000 212 172 230
0.166305 0.706794 2.639000 211 180 235
0.163784 0.700631 2.599000 210 179 232
0.162586 0.700025 2.580000 212 184 229
0.161326 0.699080 2.560000 213 189 227
0.158994 0.693392 2.523000 213 187 225
0.157860 0.692831 2.505000 213 188 223
0.157860 0.697216 2.505000 215 186 221
0.156726 0.696559 2.487000 217 189 223
0.156726 0.700913 2.487000 214 189 226
0.155591 0.700162 2.469000 211 184 226
0.153386 0.694497 2.434000 211 185 227
0.151243 0.688997 2.400000 210 179 225
0.150235 0.688577 2.384000 210 179 224
0.149164 0.687810 2.367000 210 177 220
0.148155 0.687276 2.351000 210 179 217
0.148155 0.691392 2.351000 210 182 224
0.147147 0.690774 2.335000 211 182 231
0.146202 0.690397 2.320000 212 182 231
0.144248 0.685179 2.289000 213 182 231
0.144248 0.689186 2.289000 214 183 227
0.143303 0.688650 2.274000 213 182 223
0.142358 0.688062 2.259000 212 182 226
0.141412 0.687422 2.244000 212 181 230
0.140530 0.687036 2.230000 212 182 230
0.139585 0.686292 2.215000 213 181 230
0.137820 0.681445 2.187000 214 181 229
0.137820 0.685274 2.187000 212 179 228
0.137001 0.685006 2.174000 210 178 227
0.135300 0.680257 2.147000 210 178 227
0.134417 0.679555 2.133000 210 177 228
0.133598 0.679124 2.120000 210 177 229
0.133598 0.682835 2.120000 210 178 229
0.132779 0.682336 2.107000 212 178 230
0.132023 0.682117 2.095000 215 177 231
0.132023 0.685785 2.095000 216 182 232
0.131204 0.685174 2.082000 217 173 231
0.129628 0.680547 2.057000 215 183 231
0.128116 0.676166 2.033000 213 183 229
0.128116 0.679725 2.033000 212 184 228
0.127359 0.679250 2.021000 211 187 230
0.126603 0.678734 2.009000 212 182 232
0.125910 0.678515 1.998000 213 181 231
0.125154 0.677916 1.986000 214 180 231
0.124461 0.677619 1.975000 216 181 232
0.124461 0.681076 1.975000 214 179 234
0.123767 0.680721 1.964000 211 180 233
0.123011 0.679978 1.952000 210 180 233
0.121688 0.676043 1.931000 210 180 231
0.120995 0.675553 1.920000 208 178 229
0.120301 0.675024 1.909000 207 178 225
0.119671 0.674813 1.899000 205 182 222
0.118978 0.674209 1.888000 204 183 225
0.117718 0.670337 1.868000 209 183 229
0.117087 0.670000 1.858000 214 185 228
0.117087 0.673253 1.858000 213 185 228
0.116457 0.672864 1.848000 211 185 229
0.115827 0.672441 1.838000 211 184 230
0.115197 0.671982 1.828000 212 186 230
0.114000 0.668164 1.809000 210 185 231
0.114000 0.671331 1.809000 208 184 232
0.114000 0.674497 1.809000 208 182 233
0.113432 0.674293 1.800000 209 183 232
0.112802 0.673680 1.790000 206 180 231
0.112235 0.673410 1.781000 204 171 231
0.111668 0.673109 1.772000 206 175 232
0.110534 0.669342 1.754000 207 179 231
0.109966 0.668962 1.745000 206 182 230
0.109399 0.668551 1.736000 205 183 231
0.108895 0.668495 1.728000 209 180 233
0.243465 0.750135 3.759000 204 171 215
0.240809 0.748461 3.718000 204 169 215
0.238283 0.747051 3.679000 204 170 216
0.238283 0.753491 3.679000 205 170 218
0.235757 0.751875 3.640000 207 170 220
0.230900 0.748864 3.565000 214 171 221
0.228503 0.747268 3.528000 211 175 220
0.226236 0.745969 3.493000 209 173 220
0.219565 0.735840 3.390000 215 176 220
0.219565 0.741774 3.390000 213 177 220
0.217428 0.740430 3.357000 212 176 220
0.215290 0.738970 3.324000 211 173 221
0.213283 0.737843 3.293000 211 172 219
0.211275 0.736607 3.262000 215 173 218
0.209267 0.735263 3.231000 220 175 222
0.207324 0.734039 3.201000 215 179 226
0.205446 0.732942 3.172000 210 175 222
0.203567 0.731743 3.143000 206 174 218
0.201754 0.730676 3.115000 202 177 219
0.198127 0.722896 3.059000 207 181 221
0.194694 0.715633 3.006000 213 179 224
0.194694 0.720895 3.006000 212 177 228
0.193010 0.719876 2.980000 212 179 229
0.189772 0.712926 2.930000 211 181 231
0.189772 0.718055 2.930000 211 180 231
0.188152 0.717014 2.905000 212 179 231
0.186598 0.716133 2.881000 213 182 229
0.183554 0.709411 2.834000 212 186 227
0.181999 0.708323 2.810000 212 182 230
0.180575 0.707657 2.788000 212 182 233
0.180575 0.712538 2.788000 213 183 234
0.179085 0.711500 2.765000 213 184 236
0.177660 0.710640 2.743000 213 183 230
0.176300 0.709964 2.722000 215 183 224
0.174940 0.709215 2.701000 218 186 226
0.172219 0.702842 2.659000 215 195 229
0.170924 0.702175 2.639000 212 183 231
0.170924 0.706794 2.639000 212 186 233
0.168333 0.700631 2.599000 213 182 229
0.167103 0.700025 2.580000 213 187 226
0.165807 0.699080 2.560000 214 186 226
0.164641 0.698614 2.542000 215 184 227
0.163411 0.697809 2.523000 216 186 225
0.162245 0.697216 2.505000 221 186 224
0.162245 0.701601 2.505000 226 186 227
0.161079 0.700913 2.487000 220 192 230
0.161079 0.705266 2.487000 214 180 229
0.157646 0.694497 2.434000 212 177 229
0.156545 0.693877 2.417000 210 179 230
0.155444 0.693198 2.400000 210 178 231
0.153307 0.687810 2.367000 211 178 226
0.153307 0.691954 2.367000 210 178 222
0.152271 0.691392 2.351000 210 181 227
0.151234 0.690774 2.335000 211 182 232
0.149227 0.685636 2.304000 212 183 233
0.148255 0.685179 2.289000 214 183 234
0.148255 0.689186 2.289000 216 182 230
0.147284 0.688650 2.274000 214 183 227
0.146312 0.688062 2.259000 213 185 228
0.145340 0.687422 2.244000 213 183 230
0.143462 0.682415 2.215000 213 182 228
0.142555 0.681955 2.201000 214 185 227
0.141649 0.681445 2.187000 216 182 228
0.141649 0.685274 2.187000 213 181 229
0.140807 0.685006 2.174000 211 178 228
0.139900 0.684376 2.160000 211 176 227
0.138151 0.679555 2.133000 211 178 230
0.137309 0.679124 2.120000 206 178 234
0.137309 0.682835 2.120000 201 179 227
0.136467 0.682336 2.107000 206 178 221
0.135690 0.682117 2.095000 211 180 226
0.135690 0.685785 2.095000 209 188 232
0.134848 0.685174 2.082000 208 183 232
0.132452 0.676577 2.045000 210 185 232
0.131674 0.676166 2.033000 213 184 231
0.131674 0.679725 2.033000 212 183 230
0.130897 0.679250 2.021000 212 184 232
0.130120 0.678734 2.009000 212 182 235
0.129407 0.678515 1.998000 213 180 234
0.128630 0.677916 1.986000 212 177 234
0.127918 0.677619 1.975000 212 178 236
0.127918 0.681076 1.975000 210 178 238
0.127205 0.680721 1.964000 208 179 235
0.126428 0.679978 1.952000 209 181 233
0.125068 0.676043 1.931000 210 181 231
0.124355 0.675553 1.920000 208 178 230
0.123643 0.675024 1.909000 207 180 227
0.122995 0.674813 1.899000 204 191 225
0.122283 0.674209 1.888000 201 182 230
0.122283 0.677514 1.888000 210 184 236
0.120340 0.670000 1.858000 219 183 233
0.120340 0.673253 1.858000 216 186 230
0.119692 0.672864 1.848000 213 187 231
0.119044 0.672441 1.838000 213 186 231
0.117814 0.668674 1.819000 213 185 232
0.117166 0.668164 1.809000 212 187 233
0.117166 0.671331 1.809000 212 184 235
0.116583 0.671142 1.800000 210 180 238
0.115936 0.670547 1.790000 209 181 235
0.115353 0.670293 1.781000 205 181 231
0.115353 0.673410 1.781000 202 176 231
0.114770 0.673109 1.772000 204 176 231
0.113604 0.669342 1.754000 207 178 231
0.113021 0.668962 1.745000 208 186 231
0.112438 0.668551 1.736000 210 186 231
0.112438 0.671590 1.736000 209 181 231
0.244723 0.747051 3.679000 205 170 218
0.242129 0.745503 3.640000 206 170 221
0.242129 0.751875 3.640000 208 171 221
0.231154 0.736042 3.475000 211 173 213
0.230023 0.738494 3.458000 210 176 217
0.225499 0.735840 3.390000 216 178 220
0.225499 0.741774 3.390000 214 177 220
0.223304 0.740430 3.357000 213 174 221
0.221109 0.738970 3.324000 212 174 223
0.219047 0.737843 3.293000 211 173 223
0.216985 0.736607 3.262000 214 173 223
0.216985 0.742317 3.262000 217 174 224
0.212927 0.734039 3.201000 214 176 226
0.210998 0.732942 3.172000 211 179 225
0.208138 0.728483 3.129000 209 176 224
0.204479 0.721059 3.074000 207 175 222
0.199956 0.710371 3.006000 213 181 221
0.199956 0.715633 3.006000 218 183 224
0.199956 0.720895 3.006000 216 179 228
0.198227 0.719876 2.980000 214 179 230
0.194901 0.712926 2.930000 214 183 232
0.194901 0.718055 2.930000 214 182 229
0.193238 0.717014 2.905000 213 181 227
0.193238 0.722099 2.905000 212 182 227
0.190045 0.715169 2.857000 212 184 227
0.188515 0.714372 2.834000 213 178 228
0.186918 0.713241 2.810000 216 182 230
0.185455 0.712538 2.788000 219 186 231
0.183925 0.711500 2.765000 217 183 232
0.182462 0.710640 2.743000 215 182 230
0.181065 0.709964 2.722000 218 179 229
0.178271 0.703701 2.680000 221 181 230
0.176874 0.702842 2.659000 217 183 232
0.175544 0.702175 2.639000 213 182 231
0.175544 0.706794 2.639000 213 182 231
0.172883 0.700631 2.599000 213 179 227
0.171619 0.700025 2.580000 212 183 223
0.170289 0.699080 2.560000 212 186 226
0.170289 0.703561 2.560000 213 185 229
0.166630 0.692831 2.505000 214 186 228
0.166630 0.697216 2.505000 216 183 228
0.166630 0.701601 2.505000 218 179 231
0.165433 0.700913 2.487000 216 180 234
0.165433 0.705266 2.487000 215 169 232
0.161907 0.694497 2.434000 213 180 231
0.161907 0.698758 2.434000 211 182 234
0.158581 0.688577 2.384000 212 179 238
0.158581 0.692750 2.384000 212 179 232
0.157450 0.691954 2.367000 211 179 227
0.156386 0.691392 2.351000 211 182 230
0.155322 0.690774 2.335000 212 183 233
0.154324 0.690397 2.320000 213 187 235
0.153260 0.689669 2.304000 214 183 238
0.152262 0.689186 2.289000 216 180 234
0.151264 0.688650 2.274000 214 185 231
0.150266 0.688062 2.259000 213 193 230
0.149269 0.687422 2.244000 212 186 230
0.147340 0.682415 2.215000 212 180 227
0.146408 0.681955 2.201000 213 182 224
0.145477 0.681445 2.187000 214 184 227
0.145477 0.685274 2.187000 213 181 230
0.144612 0.685006 2.174000 211 177 229
0.142816 0.680257 2.147000 212 177 228
0.141885 0.679555 2.133000 214 181 233
0.141020 0.679124 2.120000 210 181 239
0.140156 0.678648 2.107000 207 182 225
0.140156 0.682336 2.107000 209 179 212
0.139357 0.682117 2.095000 212 177 222
0.139357 0.685785 2.095000 210 182 232
0.138493 0.685174 2.082000 209 187 232
0.136031 0.676577 2.045000 211 187 233
0.135233 0.676166 2.033000 213 188 233
0.134435 0.675712 2.021000 213 186 233
0.134435 0.679250 2.021000 213 187 235
0.133637 0.678734 2.009000 213 183 238
0.132905 0.678515 1.998000 214 180 237
0.132107 0.677916 1.986000 213 178 237
0.131375 0.677619 1.975000 212 177 240
0.131375 0.681076 1.975000 210 178 243
0.129845 0.676561 1.952000 209 178 238
0.129113 0.676147 1.941000 210 184 233
0.129113 0.679544 1.941000 212 188 232
0.127716 0.675553 1.920000 210 182 232
0.126985 0.675024 1.909000 208 173 230
0.125588 0.670904 1.888000 206 181 228
0.125588 0.674209 1.888000 205 173 235
0.124923 0.673925 1.878000 211 178 243
0.123592 0.670000 1.858000 216 179 238
0.122927 0.669629 1.848000 214 184 233
0.122927 0.672864 1.848000 212 191 233
0.122262 0.672441 1.838000 212 185 233
0.121597 0.671982 1.828000 213 184 234
0.120333 0.668164 1.809000 212 184 235
0.119734 0.667991 1.800000 212 186 239
0.119734 0.671142 1.800000 211 183 244
0.119069 0.670547 1.790000 211 181 238
0.118470 0.670293 1.781000 208 179 232
0.117872 0.670007 1.772000 205 179 231
0.117273 0.669691 1.763000 207 176 230
0.116076 0.665908 1.745000 209 171 231
0.115477 0.665512 1.736000 209 183 232
0.115477 0.668551 1.736000 210 195 230
0.114945 0.668495 1.728000 208 188 229
0.251163 0.747051 3.679000 207 169 216
0.248501 0.745503 3.640000 208 171 219
0.245907 0.744026 3.602000 209 174 220
0.233686 0.725027 3.423000 210 174 218
0.233686 0.731019 3.423000 211 176 220
0.231434 0.735840 3.390000 217 174 221
0.229181 0.734554 3.357000 215 180 221
0.229181 0.740430 3.357000 214 177 221
0.224811 0.732078 3.293000 212 176 222
0.224811 0.737843 3.293000 211 175 222
0.222695 0.736607 3.262000 213 174 223
0.220579 0.735263 3.231000 215 175 225
0.218531 0.734039 3.201000 214 175 227
0.214571 0.726241 3.143000 213 178 226
0.212659 0.725224 3.115000 213 178 226
0.207061 0.711442 3.033000 213 179 225
0.207061 0.716751 3.033000 218 185 224
0.205218 0.715633 3.006000 224 183 226
0.203443 0.714659 2.980000 220 179 229
0.201736 0.713836 2.955000 216 183 230
0.200030 0.712926 2.930000 217 191 231
0.198323 0.711928 2.905000 218 185 227
0.198323 0.717014 2.905000 215 183 224
0.196684 0.716133 2.881000 212 185 225
0.195046 0.715169 2.857000 213 191 227
0.193476 0.714372 2.834000 214 185 229
0.191837 0.713241 2.810000 219 185 231
0.191837 0.718160 2.810000 225 184 232
0.190335 0.717418 2.788000 221 183 233
0.187263 0.710640 2.743000 218 179 232
0.185830 0.709964 2.722000 221 171 231
0.182962 0.703701 2.680000 224 178 231
0.181529 0.702842 2.659000 219 177 232
0.180163 0.702175 2.639000 215 182 232
0.180163 0.706794 2.639000 214 184 232
0.178798 0.706022 2.619000 213 182 230
0.176135 0.700025 2.580000 211 181 228
0.174770 0.699080 2.560000 210 183 230
0.174770 0.703561 2.560000 211 184 233
0.171015 0.692831 2.505000 213 183 232
0.171015 0.697216 2.505000 211 184 231
0.169786 0.696559 2.487000 210 183 235
0.168557 0.695840 2.469000 213 181 238
0.167329 0.695057 2.451000 216 179 234
0.166168 0.694497 2.434000 214 192 230
0.165007 0.693877 2.417000 213 184 232
0.162754 0.688577 2.384000 213 180 234
0.161594 0.687810 2.367000 214 180 230
0.161594 0.691954 2.367000 213 179 227
0.160502 0.691392 2.351000 212 181 230
0.160502 0.695507 2.351000 213 183 232
0.158385 0.690397 2.320000 214 183 233
0.157293 0.689669 2.304000 215 183 233
0.156269 0.689186 2.289000 216 183 232
0.156269 0.693193 2.289000 215 184 231
0.154221 0.688062 2.259000 214 187 232
0.153197 0.687422 2.244000 212 188 233
0.150261 0.678102 2.201000 211 184 231
0.150261 0.681955 2.201000 212 180 229
0.149305 0.681445 2.187000 213 182 230
0.148418 0.681200 2.174000 212 184 231
0.148418 0.685006 2.174000 212 178 229
0.146575 0.680257 2.147000 214 177 227
0.145619 0.679555 2.133000 217 181 231
0.144731 0.679124 2.120000 215 186 234
0.143844 0.678648 2.107000 213 182 229
0.143844 0.682336 2.107000 213 179 225
0.142137 0.677885 2.082000 213 178 229
0.142137 0.681529 2.082000 212 176 234
0.141250 0.680896 2.069000 211 184 235
0.140430 0.680547 2.057000 212 189 235
0.138792 0.676166 2.033000 213 188 234
0.138792 0.679725 2.033000 214 188 233
0.137973 0.679250 2.021000 215 186 232
0.137153 0.678734 2.009000 215 185 231
0.135583 0.674440 1.986000 215 182 233
0.135583 0.677916 1.986000 213 179 236
0.134832 0.677619 1.975000 212 178 237
0.134832 0.681076 1.975000 211 180 239
0.134081 0.680721 1.964000 211 182 236
0.132511 0.676147 1.941000 212 190 233
0.132511 0.679544 1.941000 214 189 232
0.131077 0.675553 1.920000 211 191 231
0.129644 0.671488 1.899000 209 184 227
0.128893 0.670904 1.888000 209 189 223
0.128893 0.674209 1.888000 210 179 230
0.128210 0.673925 1.878000 212 177 237
0.127527 0.673607 1.868000 214 183 233
0.126845 0.673253 1.858000 212 183 230
0.126162 0.672864 1.848000 211 185 231
0.126162 0.676099 1.848000 212 181 232
0.124797 0.671982 1.828000 213 182 232
0.124182 0.671858 1.819000 212 182 233
0.123500 0.671331 1.809000 212 182 236
0.122885 0.671142 1.800000 212 188 239
0.122202 0.670547 1.790000 213 181 235
0.120974 0.666906 1.772000 211 176 232
0.120974 0.670007 1.772000 209 178 230
0.120359 0.669691 1.763000 210 178 228
0.119130 0.665908 1.745000 211 179 231
0.118516 0.665512 1.736000 211 183 233
0.118516 0.668551 1.736000 211 189 232
0.117970 0.668495 1.728000 206 194 231
0.257604 0.747051 3.679000 203 169 214
0.254873 0.745503 3.640000 205 173 218
0.252212 0.744026 3.602000 208 177 220
0.238908 0.722698 3.412000 210 176 223
0.239678 0.731019 3.423000 211 179 223
0.239678 0.737011 3.423000 212 174 223
0.237368 0.735840 3.390000 213 163 222
0.235057 0.734554 3.357000 214 175 222
0.235057 0.740430 3.357000 214 179 222
0.230576 0.732078 3.293000 214 177 222
0.230576 0.737843 3.293000 215 178 222
0.228405 0.736607 3.262000 214 179 223
0.226235 0.735263 3.231000 213 177 225
0.224134 0.734039 3.201000 212 177 228
0.220073 0.726241 3.143000 211 180 228
0.218112 0.725224 3.115000 212 180 228
0.216152 0.724108 3.087000 213 180 228
0.212371 0.716751 3.033000 216 183 228
0.210480 0.715633 3.006000 220 185 229
0.210480 0.720895 3.006000 218 183 230
0.206909 0.713836 2.955000 216 183 230
0.203408 0.706843 2.905000 216 183 230
0.203408 0.711928 2.905000 216 184 225
0.201728 0.711090 2.881000 212 183 221
0.201728 0.716133 2.881000 208 186 224
0.198437 0.709411 2.834000 211 188 228
0.198437 0.714372 2.834000 215 188 230
0.196756 0.713241 2.810000 218 189 233
0.195216 0.712538 2.788000 222 183 233
0.193605 0.711500 2.765000 220 182 234
0.192065 0.710640 2.743000 218 182 233
0.190594 0.709964 2.722000 219 182 233
0.189124 0.709215 2.701000 220 186 232
0.186183 0.702842 2.659000 215 183 232
0.186183 0.707496 2.659000 211 185 233
0.184783 0.706794 2.639000 212 184 234
0.183382 0.706022 2.619000 214 184 233
0.181982 0.705180 2.599000 215 183 233
0.179251 0.699080 2.560000 217 181 235
0.179251 0.703561 2.560000 216 181 237
0.175400 0.692831 2.505000 216 179 236
0.175400 0.697216 2.505000 216 184 235
0.174140 0.696559 2.487000 216 188 239
0.172879 0.695840 2.469000 215 183 243
0.171619 0.695057 2.451000 215 176 236
0.170429 0.694497 2.434000 214 185 230
0.168048 0.688997 2.400000 212 182 230
0.168048 0.693198 2.400000 212 185 230
0.165737 0.687810 2.367000 213 184 229
0.165737 0.691954 2.367000 211 183 228
0.164617 0.691392 2.351000 210 182 230
0.163497 0.690774 2.335000 212 184 232
0.162446 0.690397 2.320000 214 182 230
0.161326 0.689669 2.304000 217 185 229
0.160276 0.689186 2.289000 220 186 230
0.160276 0.693193 2.289000 218 186 232
0.159225 0.692631 2.274000 216 186 234
0.157125 0.687422 2.244000 216 187 236
0.154114 0.678102 2.201000 216 188 235
0.153134 0.677617 2.187000 215 185 234
0.152223 0.677395 2.174000 214 181 233
0.151243 0.676813 2.160000 214 179 233
0.151243 0.680595 2.160000 214 177 230
0.150333 0.680257 2.147000 216 178 227
0.148442 0.675413 2.120000 219 181 228
0.148442 0.679124 2.120000 216 183 230
0.147532 0.678648 2.107000 213 181 234
0.146692 0.678450 2.095000 212 181 238
0.145782 0.677885 2.082000 211 181 237
0.145782 0.681529 2.082000 209 181 237
0.144871 0.680896 2.069000 207 185 237
0.143191 0.676577 2.045000 211 187 238
0.142351 0.676166 2.033000 216 189 235
0.142351 0.679725 2.033000 215 187 233
0.141510 0.679250 2.021000 215 187 229
0.140670 0.678734 2.009000 217 186 225
0.139060 0.674440 1.986000 218 185 230
0.139060 0.677916 1.986000 215 184 235
0.138290 0.677619 1.975000 213 179 235
0.138290 0.681076 1.975000 212 182 235
0.137519 0.680721 1.964000 211 181 234
0.135909 0.676147 1.941000 211 185 233
0.135909 0.679544 1.941000 212 189 231
0.135209 0.679423 1.931000 209 187 230
0.132968 0.671488 1.899000 207 185 224
0.132198 0.670904 1.888000 206 185 219
0.132198 0.674209 1.888000 206 180 225
0.130797 0.670337 1.868000 210 185 231
0.130097 0.670000 1.858000 215 194 229
0.130097 0.673253 1.858000 213 188 227
0.129397 0.672864 1.848000 212 187 229
0.128697 0.672441 1.838000 210 183 231
0.127997 0.671982 1.828000 208 183 231
0.127366 0.671858 1.819000 211 181 232
0.126666 0.671331 1.809000 214 174 233
0.126036 0.671142 1.800000 215 180 235
0.125336 0.670547 1.790000 217 179 233
0.124706 0.670293 1.781000 214 179 232
0.124075 0.670007 1.772000 212 181 229
0.123445 0.669691 1.763000 213 184 227
0.122185 0.665908 1.745000 214 186 231
0.121555 0.665512 1.736000 213 185 235
0.120995 0.665470 1.728000 213 186 234
0.120995 0.668495 1.728000 209 185 234
0.269785 0.763295 3.759000 199 172 217
0.264044 0.753491 3.679000 203 177 220
0.261245 0.751875 3.640000 207 175 221
0.244092 0.720368 3.401000 210 177 223
0.245670 0.731019 3.423000 212 177 224
0.245670 0.737011 3.423000 211 178 224
0.243302 0.735840 3.390000 210 175 226
0.240934 0.734554 3.357000 212 179 227
0.238565 0.733152 3.324000 215 179 225
0.236340 0.732078 3.293000 217 178 223
0.234115 0.730897 3.262000 219 181 223
0.234115 0.736607 3.262000 215 190 223
0.231891 0.735263 3.231000 212 182 228
0.229737 0.734039 3.201000 210 178 233
0.225575 0.726241 3.143000 209 180 231
0.223565 0.725224 3.115000 211 183 229
0.221556 0.724108 3.087000 213 181 230
0.217680 0.716751 3.033000 215 182 232
0.215742 0.715633 3.006000 217 183 233
0.213876 0.714659 2.980000 216 186 234
0.212082 0.713836 2.955000 216 180 234
0.208493 0.706843 2.905000 215 177 233
0.208493 0.711928 2.905000 215 180 233
0.205048 0.705166 2.857000 209 182 234
0.205048 0.710167 2.857000 204 183 232
0.205048 0.715169 2.857000 210 188 230
0.203398 0.714372 2.834000 216 191 232
0.201675 0.713241 2.810000 217 200 234
0.200096 0.712538 2.788000 219 187 235
0.198445 0.711500 2.765000 218 183 237
0.196867 0.710640 2.743000 218 184 236
0.195359 0.709964 2.722000 217 190 235
0.193852 0.709215 2.701000 216 184 235
0.190838 0.702842 2.659000 212 186 236
0.190838 0.707496 2.659000 208 182 235
0.189402 0.706794 2.639000 211 186 234
0.187967 0.706022 2.619000 215 186 232
0.185168 0.700025 2.580000 219 186 230
0.183733 0.699080 2.560000 224 185 236
0.183733 0.703561 2.560000 221 180 242
0.179785 0.692831 2.505000 219 182 238
0.178493 0.692206 2.487000 220 185 235
0.178493 0.696559 2.487000 222 186 237
0.177201 0.695840 2.469000 218 187 240
0.175910 0.695057 2.451000 215 182 235
0.173469 0.689646 2.417000 213 190 231
0.172249 0.688997 2.400000 212 189 230
0.172249 0.693198 2.400000 212 194 230
0.171101 0.692750 2.384000 212 187 230
0.169881 0.691954 2.367000 210 190 230
0.168732 0.691392 2.351000 209 188 231
0.167584 0.690774 2.335000 211 191 231
0.166508 0.690397 2.320000 214 186 230
0.165359 0.689669 2.304000 219 189 230
0.164283 0.689186 2.289000 224 186 230
0.164283 0.693193 2.289000 221 188 231
0.163206 0.692631 2.274000 218 187 235
0.161053 0.687422 2.244000 220 187 239
0.157967 0.678102 2.201000 222 189 235
0.156962 0.677617 2.187000 218 191 232
0.156029 0.677395 2.174000 215 181 234
0.156029 0.681200 2.174000 215 177 236
0.155024 0.680595 2.160000 216 177 237
0.154091 0.680257 2.147000 219 177 238
0.153086 0.679555 2.133000 222 181 235
0.152153 0.679124 2.120000 217 185 232
0.152153 0.682835 2.120000 213 180 235
0.150359 0.678450 2.095000 211 183 238
0.149426 0.677885 2.082000 210 182 237
0.148493 0.677274 2.069000 207 182 236
0.148493 0.680896 2.069000 204 183 236
0.147632 0.680547 2.057000 211 185 235
0.145909 0.676166 2.033000 219 187 234
0.145909 0.679725 2.033000 217 187 232
0.145048 0.679250 2.021000 216 184 230
0.144187 0.678734 2.009000 219 187 229
0.142536 0.674440 1.986000 222 188 232
0.141747 0.674161 1.975000 218 195 235
0.141747 0.677619 1.975000 214 187 235
0.140957 0.677283 1.964000 213 189 235
0.140096 0.676561 1.952000 212 183 235
0.139307 0.676147 1.941000 211 182 236
0.138589 0.676043 1.931000 210 183 235
0.137799 0.675553 1.920000 208 183 234
0.136292 0.671488 1.899000 206 185 229
0.135503 0.670904 1.888000 204 188 224
0.135503 0.674209 1.888000 202 188 227
0.134785 0.673925 1.878000 209 192 230
0.133350 0.670000 1.858000 217 187 230
0.132632 0.669629 1.848000 215 190 230
0.132632 0.672864 1.848000 213 184 227
0.131914 0.672441 1.838000 208 182 225
0.131914 0.675658 1.838000 203 180 227
0.131196 0.675182 1.828000 209 186 230
0.129833 0.671331 1.809000 216 181 232
0.129187 0.671142 1.800000 218 181 234
0.128469 0.670547 1.790000 221 180 233
0.127823 0.670293 1.781000 218 182 232
0.127177 0.670007 1.772000 215 185 231
0.126531 0.669691 1.763000 216 191 229
0.125240 0.665908 1.745000 217 185 234
0.124594 0.665512 1.736000 216 188 239
0.124019 0.665470 1.728000 215 184 234
0.123374 0.665013 1.719000 212 180 229
0.279380 0.771621 3.800000 205 174 221
0.273351 0.761478 3.718000 207 174 222
0.267616 0.751875 3.640000 209 171 222
0.267616 0.758247 3.640000 210 175 223
0.249236 0.712104 3.390000 210 179 223
0.249236 0.718038 3.390000 214 176 224
0.249236 0.723972 3.390000 217 176 225
0.249236 0.729906 3.390000 212 179 226
0.249236 0.735840 3.390000 207 183 229
0.246810 0.734554 3.357000 210 177 233
0.246810 0.740430 3.357000 213 180 229
0.244384 0.738970 3.324000 214 180 225
0.239825 0.730897 3.262000 215 179 224
0.239825 0.736607 3.262000 213 185 224
0.237546 0.735263 3.231000 211 185 231
0.233209 0.727389 3.172000 211 182 239
0.231076 0.726241 3.143000 211 181 235
0.229018 0.725224 3.115000 212 182 231
0.226959 0.724108 3.087000 213 182 233
0.222989 0.716751 3.033000 214 181 236
0.221004 0.715633 3.006000 215 182 237
0.219093 0.714659 2.980000 216 183 239
0.217255 0.713836 2.955000 217 174 238
0.213578 0.706843 2.905000 217 176 237
0.211814 0.706047 2.881000 216 179 242
0.210049 0.705166 2.857000 213 179 247
0.210049 0.710167 2.857000 210 177 239
0.208358 0.709411 2.834000 213 184 232
0.208358 0.714372 2.834000 216 189 233
0.206594 0.713241 2.810000 215 189 235
0.204976 0.712538 2.788000 214 185 237
0.203286 0.711500 2.765000 215 183 240
0.201668 0.710640 2.743000 216 183 238
0.198580 0.704487 2.701000 216 183 237
0.197036 0.703701 2.680000 216 177 239
0.195492 0.702842 2.659000 213 179 241
0.195492 0.707496 2.659000 210 173 237
0.194022 0.706794 2.639000 211 183 234
0.191081 0.700631 2.599000 213 188 231
0.189684 0.700025 2.580000 213 189 228
0.188214 0.699080 2.560000 214 196 238
0.184170 0.688446 2.505000 215 185 248
0.182847 0.687852 2.487000 216 184 241
0.184170 0.697216 2.505000 218 184 235
0.181523 0.691518 2.469000 219 186 236
0.181523 0.695840 2.469000 217 183 238
0.180200 0.695057 2.451000 215 178 235
0.177700 0.689646 2.417000 214 187 232
0.177700 0.693877 2.417000 213 190 231
0.176450 0.693198 2.400000 213 188 230
0.175274 0.692750 2.384000 213 183 231
0.174024 0.691954 2.367000 212 186 233
0.172848 0.691392 2.351000 211 189 232
0.171672 0.690774 2.335000 211 186 231
0.170569 0.690397 2.320000 212 183 231
0.169392 0.689669 2.304000 212 184 231
0.168290 0.689186 2.289000 212 183 231
0.168290 0.693193 2.289000 213 186 231
0.167187 0.692631 2.274000 215 188 236
0.164981 0.687422 2.244000 215 188 242
0.161820 0.678102 2.201000 216 192 236
0.160790 0.677617 2.187000 215 187 231
0.160790 0.681445 2.187000 213 176 235
0.159835 0.681200 2.174000 214 181 239
0.157850 0.676498 2.147000 215 178 244
0.156820 0.675821 2.133000 216 179 250
0.155864 0.675413 2.120000 217 183 242
0.155864 0.679124 2.120000 215 181 234
0.155864 0.682835 2.120000 213 174 236
0.154909 0.682336 2.107000 213 180 238
0.153071 0.677885 2.082000 213 182 237
0.153071 0.681529 2.082000 210 181 236
0.152115 0.680896 2.069000 207 181 234
0.150350 0.676577 2.045000 212 183 233
0.149468 0.676166 2.033000 216 187 232
0.148586 0.675712 2.021000 215 184 232
0.146895 0.671520 1.998000 214 175 232
0.146013 0.670963 1.986000 214 182 233
0.146013 0.674440 1.986000 214 186 234
0.145204 0.674161 1.975000 214 188 235
0.145204 0.677619 1.975000 214 188 235
0.144395 0.677283 1.964000 214 186 235
0.143513 0.676561 1.952000 213 182 237
0.142704 0.676147 1.941000 212 181 239
0.141969 0.676043 1.931000 212 180 238
0.141160 0.675553 1.920000 210 184 238
0.139616 0.671488 1.899000 208 184 234
0.138808 0.670904 1.888000 207 188 230
0.138808 0.674209 1.888000 205 192 230
0.138072 0.673925 1.878000 210 187 230
0.136602 0.670000 1.858000 214 173 231
0.136602 0.673253 1.858000 213 182 233
0.135867 0.672864 1.848000 213 180 226
0.135132 0.672441 1.838000 210 181 219
0.134396 0.671982 1.828000 207 171 223
0.133735 0.671858 1.819000 211 181 228
0.132999 0.671331 1.809000 215 186 230
0.132338 0.671142 1.800000 216 182 233
0.131603 0.670547 1.790000 217 178 233
0.130941 0.670293 1.781000 215 182 233
0.130279 0.670007 1.772000 213 186 232
0.129617 0.669691 1.763000 214 183 232
0.127632 0.662473 1.736000 215 175 238
0.127044 0.662445 1.728000 214 182 244
0.127044 0.665470 1.728000 214 184 234
0.125794 0.661918 1.711000 211 182 225
0.282946 0.763295 3.759000 211 173 221
0.279859 0.761478 3.718000 211 176 222
0.276924 0.759931 3.679000 212 175 222
0.273988 0.758247 3.640000 212 178 223
0.257654 0.719036 3.423000 212 178 223
0.257654 0.725027 3.423000 217 175 224
0.257654 0.731019 3.423000 223 176 225
0.255170 0.729906 3.390000 213 182 226
0.255170 0.735840 3.390000 204 178 228
0.252686 0.734554 3.357000 208 166 230
0.250202 0.733152 3.324000 212 174 227
0.247869 0.732078 3.293000 212 184 224
0.247869 0.737843 3.293000 212 184 224
0.245536 0.736607 3.262000 211 187 225
0.240944 0.728436 3.201000 211 187 229
0.238761 0.727389 3.172000 212 186 233
0.236578 0.726241 3.143000 213 184 231
0.234471 0.725224 3.115000 213 183 230
0.232363 0.724108 3.087000 213 184 232
0.230256 0.722896 3.059000 213 180 235
0.230256 0.728250 3.059000 214 182 234
0.224309 0.714659 2.980000 216 191 234
0.220545 0.707797 2.930000 219 181 233
0.218664 0.706843 2.905000 218 174 232
0.216857 0.706047 2.881000 218 179 237
0.215051 0.705166 2.857000 217 180 242
0.213319 0.704450 2.834000 217 180 238
0.213319 0.709411 2.834000 216 183 235
0.213319 0.714372 2.834000 216 184 235
0.211513 0.713241 2.810000 213 182 235
0.209857 0.712538 2.788000 210 183 236
0.206470 0.705838 2.743000 212 184 238
0.204889 0.705200 2.722000 214 184 236
0.203308 0.704487 2.701000 215 182 233
0.201728 0.703701 2.680000 216 181 237
0.200147 0.702842 2.659000 214 180 240
0.200147 0.707496 2.659000 212 183 238
0.198641 0.706794 2.639000 211 187 236
0.197136 0.706022 2.619000 211 187 235
0.192695 0.694599 2.560000 207 188 234
0.192695 0.699080 2.560000 204 188 239
0.191340 0.698614 2.542000 209 183 244
0.188555 0.692831 2.505000 214 183 238
0.188555 0.697216 2.505000 215 184 231
0.187200 0.696559 2.487000 217 186 234
0.185845 0.695840 2.469000 216 183 237
0.183211 0.690236 2.434000 215 184 235
0.181931 0.689646 2.417000 214 191 234
0.180652 0.688997 2.400000 214 187 233
0.180652 0.693198 2.400000 214 188 233
0.179447 0.692750 2.384000 215 185 234
0.178168 0.691954 2.367000 214 182 235
0.176963 0.691392 2.351000 213 185 233
0.175759 0.690774 2.335000 212 184 232
0.174630 0.690397 2.320000 211 183 231
0.173426 0.689669 2.304000 206 184 231
0.173426 0.693702 2.304000 201 184 228
0.172296 0.693193 2.289000 206 186 226
0.171167 0.692631 2.274000 212 186 233
0.170038 0.692017 2.259000 211 187 240
0.166726 0.682415 2.215000 211 187 237
0.165673 0.681955 2.201000 211 190 234
0.164619 0.681445 2.187000 212 186 234
0.163640 0.681200 2.174000 213 193 234
0.161608 0.676498 2.147000 215 183 239
0.161608 0.680257 2.147000 214 180 243
0.159576 0.675413 2.120000 213 183 239
0.159576 0.679124 2.120000 213 185 234
0.158597 0.678648 2.107000 213 181 235
0.157694 0.678450 2.095000 214 182 236
0.156715 0.677885 2.082000 216 181 235
0.156715 0.681529 2.082000 213 180 234
0.155737 0.680896 2.069000 211 181 232
0.153930 0.676577 2.045000 212 182 230
0.153027 0.676166 2.033000 214 184 228
0.151220 0.671700 2.009000 213 187 227
0.150392 0.671520 1.998000 212 182 228
0.149489 0.670963 1.986000 209 182 230
0.149489 0.674440 1.986000 207 184 229
0.148661 0.674161 1.975000 211 185 229
0.148661 0.677619 1.975000 215 186 231
0.147833 0.677283 1.964000 215 186 234
0.146930 0.676561 1.952000 215 184 237
0.146102 0.676147 1.941000 214 181 240
0.145349 0.676043 1.931000 214 185 238
0.144521 0.675553 1.920000 212 192 236
0.143693 0.675024 1.909000 211 187 232
0.142113 0.670904 1.888000 210 188 229
0.141360 0.670638 1.878000 209 192 231
0.141360 0.673925 1.878000 210 193 233
0.139854 0.670000 1.858000 212 186 233
0.139102 0.669629 1.848000 212 188 234
0.139102 0.672864 1.848000 213 187 231
0.138349 0.672441 1.838000 212 192 228
0.137596 0.671982 1.828000 212 181 229
0.136919 0.671858 1.819000 213 182 230
0.136919 0.675042 1.819000 214 183 232
0.136166 0.674497 1.809000 213 183 234
0.134736 0.670547 1.790000 213 182 235
0.134059 0.670293 1.781000 212 183 236
0.133381 0.670007 1.772000 212 183 234
0.132026 0.666272 1.754000 213 180 232
0.130671 0.662473 1.736000 214 179 236
0.130069 0.662445 1.728000 213 184 240
0.130069 0.665470 1.728000 213 183 234
0.128790 0.661918 1.711000 210 182 228
0.287908 0.759031 3.738000 213 173 222
0.283364 0.753491 3.679000 214 176 223
0.280360 0.751875 3.640000 216 177 223
0.280360 0.758247 3.640000 214 179 223
0.274583 0.748864 3.565000 212 180 224
0.263646 0.725027 3.423000 215 178 225
0.263646 0.731019 3.423000 219 173 226
0.261105 0.729906 3.390000 214 177 227
0.261105 0.735840 3.390000 209 181 227
0.258563 0.734554 3.357000 211 180 228
0.256021 0.733152 3.324000 213 166 225
0.253633 0.732078 3.293000 213 179 223
0.251246 0.730897 3.262000 214 187 224
0.248858 0.729607 3.231000 213 187 226
0.246547 0.728436 3.201000 212 190 226
0.244314 0.727389 3.172000 213 188 227
0.242080 0.726241 3.143000 215 186 228
0.239924 0.725224 3.115000 214 186 229
0.239924 0.730676 3.115000 213 193 231
0.237767 0.729512 3.087000 214 186 234
0.235610 0.728250 3.059000 215 177 232
0.231528 0.720895 3.006000 216 185 230
0.225674 0.707797 2.930000 218 186 228
0.223749 0.706843 2.905000 216 184 227
0.221900 0.706047 2.881000 215 184 232
0.220052 0.705166 2.857000 216 183 237
0.218280 0.704450 2.834000 217 183 237
0.218280 0.709411 2.834000 217 183 238
0.218280 0.714372 2.834000 216 184 236
0.216432 0.713241 2.810000 214 185 235
0.214737 0.712538 2.788000 212 181 236
0.211271 0.705838 2.743000 213 185 237
0.209654 0.705200 2.722000 215 187 233
0.208036 0.704487 2.701000 216 184 230
0.206419 0.703701 2.680000 217 186 235
0.204801 0.702842 2.659000 216 188 240
0.204801 0.707496 2.659000 215 192 239
0.203261 0.706794 2.639000 214 188 238
0.201721 0.706022 2.619000 213 187 239
0.198717 0.700025 2.580000 213 186 241
0.197176 0.699080 2.560000 213 185 241
0.195790 0.698614 2.542000 214 187 241
0.194327 0.697809 2.523000 216 182 234
0.192940 0.697216 2.505000 217 187 228
0.191554 0.696559 2.487000 219 193 232
0.191554 0.700913 2.487000 217 187 236
0.190167 0.700162 2.469000 216 187 236
0.186162 0.689646 2.417000 216 184 237
0.184853 0.688997 2.400000 216 179 236
0.183620 0.688577 2.384000 215 186 236
0.183620 0.692750 2.384000 215 187 236
0.182311 0.691954 2.367000 215 185 237
0.181079 0.691392 2.351000 215 187 235
0.179846 0.690774 2.335000 214 184 233
0.178691 0.690397 2.320000 213 181 232
0.178691 0.694459 2.320000 211 184 231
0.177459 0.693702 2.304000 208 184 226
0.176303 0.693193 2.289000 211 185 221
0.176303 0.697200 2.289000 214 186 230
0.173993 0.692017 2.259000 214 185 239
0.170604 0.682415 2.215000 213 182 238
0.169525 0.681955 2.201000 213 187 238
0.168447 0.681445 2.187000 213 186 234
0.167446 0.681200 2.174000 216 190 230
0.165366 0.676498 2.147000 218 182 233
0.165366 0.680257 2.147000 216 183 237
0.164288 0.679555 2.133000 214 185 236
0.163287 0.679124 2.120000 213 184 235
0.163287 0.682835 2.120000 213 185 234
0.161361 0.678450 2.095000 213 184 234
0.160360 0.677885 2.082000 214 181 233
0.160360 0.681529 2.082000 210 180 232
0.158434 0.676947 2.057000 206 181 229
0.156586 0.672607 2.033000 210 182 227
0.155661 0.672175 2.021000 214 183 224
0.154737 0.671700 2.009000 214 184 222
0.153890 0.671520 1.998000 213 185 224
0.153890 0.675017 1.998000 212 185 227
0.152966 0.674440 1.986000 212 186 225
