ply
format ascii 1.0
element vertex 1195
property float x
property float y
property float z
property uchar red
property uchar green
property uchar blue
end_header
-0.066500 0.674497 1.809000 190 154 196
-0.066169 0.674293 1.800000 189 156 198
-0.065801 0.673680 1.790000 189 160 200
-0.065471 0.673410 1.781000 190 161 199
-0.065140 0.673109 1.772000 188 162 199
-0.064478 0.669342 1.754000 187 157 198
-0.064147 0.668962 1.745000 190 155 198
-0.063816 0.668551 1.736000 193 156 200
-0.063522 0.668495 1.728000 193 159 202
-0.105240 0.720895 3.006000 186 154 191
-0.105240 0.726157 3.006000 184 152 192
-0.105240 0.731419 3.006000 189 154 194
-0.102579 0.718055 2.930000 194 157 195
-0.101704 0.717014 2.905000 194 158 196
-0.101704 0.722099 2.905000 193 160 195
-0.100864 0.721176 2.881000 196 158 194
-0.100024 0.720170 2.857000 199 157 189
-0.098378 0.713241 2.810000 197 158 184
-0.098378 0.718160 2.810000 195 161 189
-0.097608 0.717418 2.788000 194 160 194
-0.096803 0.716340 2.765000 192 159 196
-0.095297 0.709964 2.722000 194 159 198
-0.094562 0.709215 2.701000 195 158 199
-0.093092 0.702842 2.659000 198 156 201
-0.092391 0.702175 2.639000 201 155 201
-0.092391 0.706794 2.639000 198 155 202
-0.091691 0.706022 2.619000 195 157 200
-0.091691 0.710607 2.619000 193 160 198
-0.090991 0.709730 2.599000 192 161 196
-0.090326 0.709058 2.580000 190 159 194
-0.089626 0.708042 2.560000 189 158 197
-0.088330 0.702226 2.523000 191 155 201
-0.087700 0.701601 2.505000 194 155 201
-0.087070 0.700913 2.487000 193 157 201
-0.087070 0.705266 2.487000 192 154 199
-0.086440 0.704484 2.469000 192 158 197
-0.085214 0.698758 2.434000 193 161 198
-0.084619 0.698108 2.417000 193 157 199
-0.084619 0.702339 2.417000 193 156 199
-0.084024 0.701601 2.400000 192 158 199
-0.082869 0.696097 2.367000 192 160 200
-0.082309 0.695507 2.351000 190 160 201
-0.082309 0.699623 2.351000 189 160 200
-0.081748 0.698949 2.335000 190 162 199
-0.080663 0.693702 2.304000 192 165 205
-0.080138 0.693193 2.289000 192 165 211
-0.080138 0.697200 2.289000 193 164 206
-0.079613 0.696612 2.274000 193 160 202
-0.078562 0.691350 2.244000 194 161 203
-0.078072 0.690940 2.230000 194 162 204
-0.077547 0.690170 2.215000 195 163 207
-0.076567 0.685274 2.187000 197 161 211
-0.076112 0.685006 2.174000 199 161 204
-0.075622 0.684376 2.160000 192 160 197
-0.075622 0.688157 2.160000 185 160 195
-0.075622 0.691938 2.160000 188 158 194
-0.075166 0.691532 2.147000 192 159 196
-0.074676 0.690756 2.133000 193 158 198
-0.074676 0.694490 2.133000 195 157 197
-0.073766 0.689713 2.107000 194 155 196
-0.073766 0.693401 2.107000 193 150 194
-0.071595 0.676577 2.045000 194 153 193
-0.071175 0.676166 2.033000 195 159 195
-0.070755 0.675712 2.021000 193 161 197
-0.070755 0.679250 2.021000 192 162 197
-0.070755 0.682788 2.021000 190 160 198
-0.070335 0.682250 2.009000 188 157 199
-0.070335 0.685767 2.009000 191 161 201
-0.069950 0.685510 1.998000 195 164 207
-0.069145 0.681076 1.975000 191 164 213
-0.068760 0.680721 1.964000 187 164 207
-0.068340 0.679978 1.952000 188 161 202
-0.067954 0.679544 1.941000 189 153 194
-0.067604 0.679423 1.931000 190 160 186
-0.067219 0.678914 1.920000 191 162 198
-0.066834 0.678366 1.909000 192 160 210
-0.066099 0.674209 1.888000 194 159 207
-0.065749 0.673925 1.878000 193 159 205
-0.064698 0.666394 1.848000 193 161 206
-0.065049 0.673253 1.858000 195 165 208
-0.065049 0.676505 1.858000 196 160 205
-0.064698 0.676099 1.848000 195 159 203
-0.064348 0.675658 1.838000 194 159 200
-0.064348 0.678876 1.838000 192 161 198
-0.063683 0.675042 1.819000 191 163 199
-0.063333 0.674497 1.809000 190 159 201
-0.063018 0.674293 1.800000 190 160 201
-0.062668 0.673680 1.790000 193 161 201
-0.062353 0.673410 1.781000 196 161 200
-0.062038 0.673109 1.772000 193 160 199
-0.061408 0.669342 1.754000 191 159 197
-0.061092 0.668962 1.745000 192 158 196
-0.060777 0.668551 1.736000 193 156 199
-0.060497 0.668495 1.728000 194 156 203
-0.099978 0.720895 3.006000 185 155 188
-0.099978 0.726157 3.006000 181 154 191
-0.096619 0.717014 2.905000 193 157 197
-0.095821 0.716133 2.881000 195 158 197
-0.095821 0.721176 2.881000 199 159 197
-0.095022 0.720170 2.857000 204 158 194
-0.094258 0.719333 2.834000 200 158 191
-0.093459 0.718160 2.810000 196 161 194
-0.092728 0.717418 2.788000 195 166 197
-0.091231 0.710640 2.743000 194 161 197
-0.090532 0.709964 2.722000 196 160 198
-0.089834 0.709215 2.701000 198 158 197
-0.088437 0.702842 2.659000 202 155 196
-0.088437 0.707496 2.659000 207 155 199
-0.087772 0.706794 2.639000 202 154 203
-0.087107 0.706022 2.619000 197 157 201
-0.087107 0.710607 2.619000 195 160 199
-0.086442 0.709730 2.599000 193 160 198
-0.085810 0.709058 2.580000 190 160 196
-0.085144 0.708042 2.560000 187 158 198
-0.083914 0.702226 2.523000 192 154 201
-0.083315 0.701601 2.505000 197 156 201
-0.082716 0.700913 2.487000 195 164 201
-0.082716 0.705266 2.487000 193 160 200
-0.082118 0.704484 2.469000 193 161 200
-0.080388 0.693877 2.417000 194 159 200
-0.080388 0.698108 2.417000 194 156 200
-0.079823 0.697399 2.400000 194 159 200
-0.079823 0.701601 2.400000 193 159 200
-0.078193 0.691392 2.351000 192 160 200
-0.078193 0.695507 2.351000 189 164 200
-0.078193 0.699623 2.351000 186 161 198
-0.077162 0.694459 2.320000 189 161 197
-0.076630 0.693702 2.304000 193 164 201
-0.076131 0.693193 2.289000 193 171 206
-0.076131 0.697200 2.289000 194 165 204
-0.075632 0.696612 2.274000 195 162 202
-0.074634 0.691350 2.244000 197 163 202
-0.074169 0.690940 2.230000 195 167 202
-0.073670 0.690170 2.215000 194 161 203
-0.073204 0.689660 2.201000 195 162 204
-0.072306 0.685006 2.174000 197 162 197
-0.071841 0.684376 2.160000 196 165 189
-0.071841 0.688157 2.160000 196 159 192
-0.071841 0.691938 2.160000 195 159 195
-0.071408 0.691532 2.147000 194 160 197
-0.070943 0.690756 2.133000 194 161 199
-0.070943 0.694490 2.133000 194 159 198
-0.070510 0.693968 2.120000 194 160 198
-0.070078 0.693401 2.107000 195 152 198
-0.067617 0.672607 2.033000 198 149 198
-0.067617 0.676166 2.033000 201 158 197
-0.067218 0.675712 2.021000 196 161 196
-0.067218 0.679250 2.021000 191 161 195
-0.067218 0.682788 2.021000 187 160 195
-0.066818 0.682250 2.009000 183 161 197
-0.066818 0.685767 2.009000 188 166 199
-0.066453 0.685510 1.998000 193 164 204
-0.065322 0.677283 1.964000 192 166 209
-0.065322 0.680721 1.964000 192 166 205
-0.064923 0.679978 1.952000 190 169 201
-0.064557 0.679544 1.941000 189 163 197
-0.064224 0.679423 1.931000 190 163 193
-0.063858 0.678914 1.920000 191 161 199
-0.063160 0.674813 1.899000 193 160 205
-0.062794 0.674209 1.888000 196 159 203
-0.062129 0.670337 1.868000 195 160 202
-0.062129 0.673607 1.868000 194 162 203
-0.061796 0.673253 1.858000 196 174 204
-0.061796 0.676505 1.858000 199 162 203
-0.061464 0.676099 1.848000 197 157 202
-0.061131 0.675658 1.838000 195 158 202
-0.061131 0.678876 1.838000 193 159 201
-0.060166 0.671331 1.809000 192 160 204
-0.060166 0.674497 1.809000 191 161 207
-0.059867 0.674293 1.800000 191 158 203
-0.059535 0.673680 1.790000 197 163 198
-0.059235 0.673410 1.781000 203 160 199
-0.058936 0.673109 1.772000 199 158 200
-0.058337 0.669342 1.754000 195 160 199
-0.057739 0.665512 1.736000 194 163 199
-0.057472 0.665470 1.728000 194 157 200
-0.057472 0.668495 1.728000 195 155 201
-0.091534 0.717014 2.905000 192 158 198
-0.090777 0.716133 2.881000 194 158 199
-0.090021 0.715169 2.857000 196 159 200
-0.090021 0.720170 2.857000 199 160 199
-0.089296 0.719333 2.834000 196 159 198
-0.088540 0.718160 2.810000 194 161 199
-0.087847 0.717418 2.788000 194 163 200
-0.086429 0.710640 2.743000 195 161 199
-0.085767 0.709964 2.722000 196 159 198
-0.085106 0.709215 2.701000 198 159 195
-0.084444 0.708392 2.680000 200 157 192
-0.083782 0.707496 2.659000 203 157 198
-0.083152 0.706794 2.639000 200 156 204
-0.082522 0.706022 2.619000 197 158 202
-0.082522 0.710607 2.619000 195 159 201
-0.081892 0.709730 2.599000 194 159 200
-0.081293 0.709058 2.580000 192 159 199
-0.080663 0.708042 2.560000 191 160 200
-0.080096 0.707514 2.542000 193 155 201
-0.078930 0.701601 2.505000 195 151 201
-0.078363 0.700913 2.487000 194 158 202
-0.078363 0.705266 2.487000 194 163 202
-0.077796 0.704484 2.469000 194 162 203
-0.076693 0.698758 2.434000 195 161 202
-0.076157 0.698108 2.417000 194 160 201
-0.075622 0.697399 2.400000 194 165 201
-0.075117 0.696923 2.384000 193 160 202
-0.074078 0.691392 2.351000 193 159 200
-0.074078 0.695507 2.351000 192 161 199
-0.073573 0.694861 2.335000 190 161 197
-0.073573 0.698949 2.335000 192 161 195
-0.073101 0.698520 2.320000 194 162 198
-0.072597 0.697735 2.304000 194 164 202
-0.072124 0.697200 2.289000 195 164 202
-0.071651 0.696612 2.274000 197 163 202
-0.070706 0.691350 2.244000 199 165 201
-0.070265 0.690940 2.230000 197 160 201
-0.069792 0.690170 2.215000 195 153 199
-0.069351 0.689660 2.201000 195 158 198
-0.068910 0.689102 2.187000 195 163 190
-0.068059 0.684376 2.160000 194 162 182
-0.068059 0.688157 2.160000 193 155 189
-0.067650 0.687773 2.147000 193 159 197
-0.067650 0.691532 2.147000 193 161 198
-0.067209 0.690756 2.133000 193 161 200
-0.066799 0.690257 2.120000 194 161 200
-0.066389 0.689713 2.107000 194 157 200
-0.066389 0.693401 2.107000 195 149 201
-0.064814 0.680547 2.057000 197 156 203
-0.064058 0.676166 2.033000 199 164 199
-0.063680 0.675712 2.021000 196 162 196
-0.063680 0.679250 2.021000 192 162 194
-0.063680 0.682788 2.021000 190 162 192
-0.063302 0.682250 2.009000 188 163 195
-0.063302 0.685767 2.009000 193 162 198
-0.062577 0.681393 1.986000 198 163 201
-0.062230 0.681076 1.975000 195 163 205
-0.061884 0.680721 1.964000 192 165 202
-0.061159 0.676147 1.941000 189 166 200
-0.060844 0.676043 1.931000 185 168 200
-0.060497 0.675553 1.920000 188 164 200
-0.060497 0.678914 1.920000 191 162 200
-0.060151 0.678366 1.909000 195 160 200
-0.059489 0.674209 1.888000 200 160 200
-0.059174 0.673925 1.878000 195 158 200
-0.058859 0.673607 1.868000 191 156 200
-0.058859 0.676876 1.868000 194 164 200
-0.058544 0.676505 1.858000 197 158 201
-0.058229 0.676099 1.848000 194 157 202
-0.057598 0.671982 1.828000 191 158 203
-0.057598 0.675182 1.828000 192 157 205
-0.057000 0.671331 1.809000 193 157 209
-0.056716 0.671142 1.800000 192 155 214
-0.056716 0.674293 1.800000 191 148 205
-0.056401 0.673680 1.790000 195 157 196
-0.056118 0.673410 1.781000 200 159 198
-0.055834 0.673109 1.772000 197 159 201
-0.054983 0.665908 1.745000 194 160 202
-0.054700 0.665512 1.736000 193 158 203
-0.054448 0.665470 1.728000 193 155 201
-0.054448 0.668495 1.728000 192 157 200
-0.086448 0.717014 2.905000 192 161 199
-0.085734 0.716133 2.881000 193 159 200
-0.085020 0.715169 2.857000 194 159 201
-0.085020 0.720170 2.857000 195 158 201
-0.085020 0.725171 2.857000 193 159 201
-0.083621 0.718160 2.810000 192 162 203
-0.083621 0.723079 2.810000 194 165 205
-0.081628 0.710640 2.743000 196 161 202
-0.081003 0.709964 2.722000 197 158 200
-0.081003 0.714729 2.722000 199 159 198
-0.080378 0.713943 2.701000 199 158 197
-0.079128 0.707496 2.659000 199 158 203
-0.078533 0.706794 2.639000 198 157 209
-0.077938 0.706022 2.619000 198 158 206
-0.077342 0.705180 2.599000 196 159 203
-0.077342 0.709730 2.599000 195 159 202
-0.076777 0.709058 2.580000 195 160 201
-0.076182 0.708042 2.560000 195 159 202
-0.075646 0.707514 2.542000 194 156 203
-0.075081 0.706642 2.523000 193 155 203
-0.074545 0.705986 2.505000 194 156 203
-0.074009 0.705266 2.487000 196 159 205
-0.074009 0.709620 2.487000 196 166 206
-0.072432 0.698758 2.434000 196 162 204
-0.071926 0.698108 2.417000 195 161 202
-0.071420 0.697399 2.400000 194 162 202
-0.070438 0.691954 2.367000 194 160 203
-0.069962 0.691392 2.351000 195 159 202
-0.069962 0.695507 2.351000 195 161 201
-0.069486 0.694861 2.335000 195 161 202
-0.069040 0.694459 2.320000 195 161 202
-0.068564 0.693702 2.304000 195 163 202
-0.068117 0.693193 2.289000 195 162 203
-0.068117 0.697200 2.289000 196 162 202
-0.067671 0.696612 2.274000 199 161 202
-0.067224 0.695971 2.259000 202 161 201
-0.066778 0.695278 2.244000 199 158 201
-0.066361 0.694844 2.230000 196 157 201
-0.065915 0.694047 2.215000 194 155 202
-0.065498 0.693513 2.201000 193 158 196
-0.064695 0.688811 2.174000 192 165 191
-0.064278 0.688157 2.160000 191 159 196
-0.063892 0.687773 2.147000 192 164 201
-0.063892 0.691532 2.147000 193 162 201
-0.063475 0.690756 2.133000 193 161 201
-0.063088 0.690257 2.120000 194 161 201
-0.062701 0.689713 2.107000 195 160 202
-0.062701 0.693401 2.107000 196 158 203
-0.061570 0.684517 2.069000 197 162 204
-0.060856 0.680157 2.045000 198 163 201
-0.060499 0.679725 2.033000 196 161 199
-0.060142 0.679250 2.021000 194 160 197
-0.060142 0.682788 2.021000 194 165 195
-0.059785 0.682250 2.009000 194 163 197
-0.059458 0.682012 1.998000 198 159 200
-0.059100 0.681393 1.986000 203 161 204
-0.058446 0.677283 1.964000 198 161 208
-0.058446 0.680721 1.964000 193 160 202
-0.058089 0.679978 1.952000 187 162 195
-0.057464 0.676043 1.931000 182 164 199
-0.057464 0.679423 1.931000 187 165 204
-0.057136 0.678914 1.920000 192 162 201
-0.056511 0.674813 1.899000 198 161 198
-0.056184 0.674209 1.888000 204 160 199
-0.055886 0.673925 1.878000 196 158 200
-0.055589 0.673607 1.868000 188 162 201
-0.055291 0.673253 1.858000 191 170 202
-0.055291 0.676505 1.858000 195 160 202
-0.054994 0.676099 1.848000 191 155 203
-0.054399 0.671982 1.828000 188 156 203
-0.054399 0.675182 1.828000 191 156 204
-0.053833 0.671331 1.809000 194 157 207
-0.053565 0.671142 1.800000 192 157 209
-0.053268 0.670547 1.790000 191 155 205
-0.053268 0.673680 1.790000 194 159 200
-0.053000 0.673410 1.781000 197 159 202
-0.052732 0.673109 1.772000 195 160 203
-0.051929 0.665908 1.745000 193 159 204
-0.051661 0.665512 1.736000 193 156 204
-0.051423 0.665470 1.728000 193 157 203
-0.051423 0.668495 1.728000 190 158 203
-0.081363 0.717014 2.905000 189 160 200
-0.080691 0.716133 2.881000 192 161 201
-0.080019 0.715169 2.857000 193 159 202
-0.080019 0.720170 2.857000 195 156 203
-0.079375 0.719333 2.834000 194 160 204
-0.078703 0.718160 2.810000 194 164 207
-0.078703 0.723079 2.810000 196 163 210
-0.077442 0.716340 2.765000 197 163 206
-0.076238 0.709964 2.722000 199 162 203
-0.076238 0.714729 2.722000 200 161 202
-0.075650 0.713943 2.701000 199 161 202
-0.073913 0.702175 2.639000 198 162 208
-0.073913 0.706794 2.639000 197 160 214
-0.073353 0.706022 2.619000 197 158 210
-0.072261 0.700025 2.580000 195 159 206
-0.072261 0.704541 2.580000 193 161 204
-0.071701 0.703561 2.560000 195 162 203
-0.071701 0.708042 2.560000 198 162 204
-0.071196 0.707514 2.542000 193 158 205
-0.070664 0.706642 2.523000 188 160 205
-0.070160 0.705986 2.505000 191 156 205
-0.069656 0.705266 2.487000 195 152 207
-0.069152 0.704484 2.469000 195 161 210
-0.068172 0.698758 2.434000 196 162 207
-0.067695 0.698108 2.417000 196 162 204
-0.067219 0.697399 2.400000 195 163 204
-0.066771 0.696923 2.384000 196 160 204
-0.065847 0.691392 2.351000 196 159 204
-0.065847 0.695507 2.351000 197 160 204
-0.065399 0.694861 2.335000 199 163 207
-0.064979 0.694459 2.320000 197 165 210
-0.064531 0.693702 2.304000 195 168 207
-0.064110 0.693193 2.289000 195 165 204
-0.064110 0.697200 2.289000 196 162 203
-0.063690 0.696612 2.274000 198 160 202
-0.062850 0.691350 2.244000 200 161 201
-0.062458 0.690940 2.230000 198 161 201
-0.062038 0.690170 2.215000 196 165 203
-0.061646 0.689660 2.201000 194 160 206
-0.061646 0.693513 2.201000 193 152 203
-0.060889 0.688811 2.174000 192 154 200
-0.060497 0.688157 2.160000 191 152 203
-0.060133 0.687773 2.147000 192 160 206
-0.060133 0.691532 2.147000 194 164 204
-0.059741 0.690756 2.133000 194 162 203
-0.059377 0.690257 2.120000 195 163 203
-0.059013 0.689713 2.107000 196 162 204
-0.059013 0.693401 2.107000 197 161 205
-0.058313 0.688818 2.082000 198 161 206
-0.057276 0.680157 2.045000 198 165 204
-0.056940 0.679725 2.033000 197 161 202
-0.056604 0.679250 2.021000 195 155 200
-0.056604 0.682788 2.021000 195 164 199
-0.056268 0.682250 2.009000 194 167 200
-0.055960 0.682012 1.998000 196 162 202
-0.055624 0.681393 1.986000 198 162 207
-0.055316 0.681076 1.975000 196 158 212
-0.055008 0.680721 1.964000 194 152 201
-0.054364 0.676147 1.941000 189 157 191
-0.054084 0.676043 1.931000 185 162 199
-0.054084 0.679423 1.931000 188 162 208
-0.053775 0.678914 1.920000 191 162 202
-0.053187 0.674813 1.899000 195 160 197
-0.052879 0.674209 1.888000 198 162 198
-0.052599 0.673925 1.878000 195 162 200
-0.052319 0.673607 1.868000 192 164 202
-0.052039 0.673253 1.858000 196 163 205
-0.051759 0.672864 1.848000 201 159 204
-0.051759 0.676099 1.848000 196 160 204
-0.051479 0.675658 1.838000 191 158 204
-0.050947 0.671858 1.819000 193 158 204
-0.050667 0.671331 1.809000 195 159 204
-0.050414 0.671142 1.800000 192 158 205
-0.050414 0.674293 1.800000 190 158 205
-0.050134 0.673680 1.790000 192 159 205
-0.049882 0.673410 1.781000 195 160 205
-0.049630 0.673109 1.772000 194 160 206
-0.049126 0.669342 1.754000 194 162 206
-0.048874 0.668962 1.745000 196 159 206
-0.048622 0.668551 1.736000 198 160 206
-0.048398 0.668495 1.728000 194 163 206
-0.076278 0.717014 2.905000 187 160 204
-0.075648 0.716133 2.881000 192 161 204
-0.075018 0.715169 2.857000 193 163 203
-0.075018 0.720170 2.857000 195 161 203
-0.074414 0.719333 2.834000 196 162 203
-0.073784 0.718160 2.810000 197 163 205
-0.073784 0.723079 2.810000 198 163 207
-0.073206 0.722299 2.788000 199 164 204
-0.072602 0.721180 2.765000 200 166 202
-0.072024 0.720243 2.743000 202 163 202
-0.069294 0.697555 2.639000 200 163 201
-0.069294 0.702175 2.639000 198 162 204
-0.069294 0.706794 2.639000 197 164 206
-0.068768 0.706022 2.619000 196 160 205
-0.068243 0.705180 2.599000 193 158 203
-0.067744 0.704541 2.580000 191 163 200
-0.067744 0.709058 2.580000 196 168 197
-0.067219 0.708042 2.560000 201 162 200
-0.066747 0.707514 2.542000 192 157 203
-0.066248 0.706642 2.523000 183 157 203
-0.065775 0.705986 2.505000 188 156 204
-0.065302 0.705266 2.487000 194 156 201
-0.063911 0.694497 2.434000 195 164 198
-0.063464 0.693877 2.417000 197 163 200
-0.063464 0.698108 2.417000 197 163 203
-0.063018 0.697399 2.400000 197 161 205
-0.063018 0.701601 2.400000 197 158 208
-0.061731 0.691392 2.351000 198 158 205
-0.061731 0.695507 2.351000 200 159 203
-0.061731 0.699623 2.351000 203 163 205
-0.061311 0.698949 2.335000 199 171 207
-0.060917 0.698520 2.320000 195 164 206
-0.060103 0.693193 2.289000 195 168 205
-0.060103 0.697200 2.289000 196 163 203
-0.059710 0.696612 2.274000 197 159 202
-0.058922 0.691350 2.244000 199 161 200
-0.058922 0.695278 2.244000 198 161 198
-0.058554 0.694844 2.230000 197 162 200
-0.058160 0.694047 2.215000 195 171 203
-0.057793 0.693513 2.201000 193 160 201
-0.057084 0.688811 2.174000 192 150 200
-0.056716 0.688157 2.160000 192 154 201
-0.056716 0.691938 2.160000 193 163 203
-0.056375 0.691532 2.147000 195 162 201
-0.056007 0.690756 2.133000 195 161 199
-0.055666 0.690257 2.120000 196 164 202
-0.055325 0.689713 2.107000 197 167 204
-0.055325 0.693401 2.107000 199 162 208
-0.054327 0.684517 2.069000 199 159 212
-0.053697 0.680157 2.045000 199 163 208
-0.053382 0.679725 2.033000 198 166 205
-0.053066 0.679250 2.021000 197 164 203
-0.053066 0.682788 2.021000 196 171 201
-0.052751 0.682250 2.009000 195 164 202
-0.052462 0.682012 1.998000 194 161 203
-0.052462 0.685510 1.998000 194 161 206
-0.051859 0.681076 1.975000 194 160 210
-0.051570 0.680721 1.964000 195 156 204
-0.050703 0.672663 1.931000 192 155 198
-0.050703 0.676043 1.931000 189 159 202
-0.050414 0.675553 1.920000 190 161 206
-0.050126 0.675024 1.909000 191 159 199
-0.049574 0.670904 1.888000 192 157 192
-0.049574 0.674209 1.888000 193 157 197
-0.049312 0.673925 1.878000 195 166 201
-0.049049 0.673607 1.868000 197 162 205
-0.048786 0.673253 1.858000 202 160 208
-0.048786 0.676505 1.858000 207 163 205
-0.048524 0.676099 1.848000 200 171 202
-0.047999 0.671982 1.828000 194 163 202
-0.047762 0.671858 1.819000 195 160 202
-0.047500 0.671331 1.809000 196 159 203
-0.047264 0.671142 1.800000 192 158 203
-0.047264 0.674293 1.800000 189 159 204
-0.047001 0.673680 1.790000 191 159 205
-0.046765 0.673410 1.781000 194 160 207
-0.046528 0.673109 1.772000 194 160 208
-0.046056 0.669342 1.754000 195 160 208
-0.045583 0.665512 1.736000 199 161 207
-0.045373 0.665470 1.728000 203 162 207
-0.045137 0.665013 1.719000 198 168 206
-0.071193 0.717014 2.905000 191 161 209
-0.070605 0.716133 2.881000 194 163 207
-0.070017 0.715169 2.857000 195 162 205
-0.069453 0.714372 2.834000 196 164 204
-0.069453 0.719333 2.834000 197 163 203
-0.068865 0.718160 2.810000 198 164 203
-0.068865 0.723079 2.810000 199 164 204
-0.068326 0.722299 2.788000 199 164 203
-0.067762 0.721180 2.765000 199 163 202
-0.067223 0.720243 2.743000 199 163 201
-0.066708 0.719494 2.722000 198 159 201
-0.064674 0.702175 2.639000 197 160 200
-0.064674 0.706794 2.639000 196 161 199
-0.064184 0.706022 2.619000 196 161 200
-0.063228 0.700025 2.580000 195 161 201
-0.063228 0.704541 2.580000 195 165 196
-0.063228 0.709058 2.580000 201 165 191
-0.062738 0.708042 2.560000 207 164 196
-0.062297 0.707514 2.542000 197 159 202
-0.061831 0.706642 2.523000 188 156 202
-0.061390 0.705986 2.505000 191 157 203
-0.060949 0.705266 2.487000 195 154 194
-0.059650 0.694497 2.434000 197 161 186
-0.059233 0.693877 2.417000 199 164 194
-0.058817 0.693198 2.400000 198 162 203
-0.058817 0.697399 2.400000 198 161 207
-0.058817 0.701601 2.400000 198 159 212
-0.058425 0.701096 2.384000 198 159 207
-0.058008 0.700240 2.367000 198 159 203
-0.057616 0.699623 2.351000 198 162 204
-0.057224 0.698949 2.335000 195 161 205
-0.056856 0.698520 2.320000 191 152 205
-0.056464 0.697735 2.304000 193 161 206
-0.056097 0.697200 2.289000 194 163 204
-0.055729 0.696612 2.274000 196 163 202
-0.055361 0.695971 2.259000 197 163 198
-0.054651 0.690940 2.230000 196 160 195
-0.054283 0.690170 2.215000 196 154 197
-0.053940 0.689660 2.201000 195 164 200
-0.053597 0.689102 2.187000 195 168 200
-0.053278 0.688811 2.174000 191 158 201
-0.052935 0.688157 2.160000 188 152 200
-0.052617 0.687773 2.147000 191 160 200
-0.052617 0.691532 2.147000 195 163 198
-0.052273 0.690756 2.133000 198 163 196
-0.051955 0.690257 2.120000 201 165 200
-0.051955 0.693968 2.120000 199 164 205
-0.051636 0.693401 2.107000 197 163 211
-0.050117 0.676577 2.045000 199 162 218
-0.049823 0.676166 2.033000 202 164 213
-0.049823 0.679725 2.033000 200 164 209
-0.049529 0.679250 2.021000 198 164 206
-0.049529 0.682788 2.021000 197 167 203
-0.049235 0.682250 2.009000 196 159 203
-0.048965 0.682012 1.998000 195 161 204
-0.048671 0.681393 1.986000 195 164 206
-0.048401 0.681076 1.975000 196 163 209
-0.048132 0.680721 1.964000 196 160 207
-0.047838 0.679978 1.952000 193 158 205
-0.047323 0.676043 1.931000 190 158 204
-0.047323 0.679423 1.931000 190 163 204
-0.047053 0.678914 1.920000 190 159 196
-0.046539 0.674813 1.899000 189 154 188
-0.046024 0.670638 1.878000 188 143 195
-0.045779 0.670337 1.868000 191 155 203
-0.045534 0.670000 1.858000 195 158 207
-0.045534 0.673253 1.858000 196 160 212
-0.045289 0.672864 1.848000 198 164 206
-0.045044 0.672441 1.838000 196 166 200
-0.044799 0.671982 1.828000 193 165 200
-0.044578 0.671858 1.819000 196 161 201
-0.044333 0.671331 1.809000 199 161 201
-0.044113 0.671142 1.800000 195 160 202
-0.043647 0.667175 1.781000 191 163 204
-0.043647 0.670293 1.781000 193 161 206
-0.043426 0.670007 1.772000 195 162 208
-0.043206 0.669691 1.763000 194 160 211
-0.042985 0.669342 1.754000 193 160 210
-0.042544 0.665512 1.736000 196 160 209
-0.042348 0.665470 1.728000 199 161 208
-0.042128 0.665013 1.719000 196 164 207
-0.065561 0.711090 2.881000 196 164 205
-0.065561 0.716133 2.881000 197 163 204
-0.065015 0.715169 2.857000 197 161 204
-0.064492 0.714372 2.834000 198 163 203
-0.064492 0.719333 2.834000 199 164 202
-0.063946 0.718160 2.810000 200 164 203
-0.063946 0.723079 2.810000 200 165 204
-0.063445 0.722299 2.788000 200 163 202
-0.062922 0.721180 2.765000 198 162 200
-0.062421 0.720243 2.743000 197 160 201
-0.061943 0.719494 2.722000 197 152 202
-0.060054 0.702175 2.639000 197 159 201
-0.060054 0.706794 2.639000 196 162 201
-0.059599 0.706022 2.619000 196 161 201
-0.058712 0.700025 2.580000 198 162 201
-0.058712 0.704541 2.580000 200 161 198
-0.058712 0.709058 2.580000 206 166 195
-0.058257 0.708042 2.560000 213 164 200
-0.057847 0.707514 2.542000 203 160 204
-0.057415 0.706642 2.523000 194 161 204
-0.057005 0.705986 2.505000 195 165 204
-0.056595 0.705266 2.487000 196 161 200
-0.055389 0.694497 2.434000 199 163 195
-0.055389 0.698758 2.434000 202 162 199
-0.055002 0.698108 2.417000 200 163 204
-0.054616 0.697399 2.400000 199 162 206
-0.054616 0.701601 2.400000 198 160 208
-0.054251 0.701096 2.384000 198 159 203
-0.053865 0.700240 2.367000 196 159 198
-0.053501 0.699623 2.351000 194 160 201
-0.052795 0.694459 2.320000 191 160 204
-0.052795 0.698520 2.320000 188 159 204
-0.052090 0.693193 2.289000 190 162 205
-0.052090 0.697200 2.289000 193 162 204
-0.051748 0.696612 2.274000 194 168 204
-0.051066 0.691350 2.244000 196 165 201
-0.050747 0.690940 2.230000 195 164 199
-0.050406 0.690170 2.215000 195 162 200
-0.050087 0.689660 2.201000 196 165 200
-0.049473 0.685006 2.174000 197 165 200
-0.049154 0.684376 2.160000 190 164 201
-0.049154 0.688157 2.160000 184 160 201
-0.048858 0.687773 2.147000 190 162 202
-0.048858 0.691532 2.147000 196 163 200
-0.048540 0.690756 2.133000 201 164 199
-0.048244 0.690257 2.120000 207 164 202
-0.047948 0.689713 2.107000 201 164 204
-0.047948 0.693401 2.107000 195 164 209
-0.047083 0.684517 2.069000 200 165 213
-0.046537 0.680157 2.045000 206 164 210
-0.046264 0.679725 2.033000 202 165 208
-0.045991 0.679250 2.021000 199 168 206
-0.045991 0.682788 2.021000 198 176 204
-0.045718 0.682250 2.009000 197 166 205
-0.045467 0.682012 1.998000 197 160 206
-0.045194 0.681393 1.986000 197 164 205
-0.044944 0.681076 1.975000 197 168 205
-0.044694 0.680721 1.964000 198 163 202
-0.044694 0.684159 1.964000 195 161 199
-0.043943 0.676043 1.931000 192 164 201
-0.043943 0.679423 1.931000 191 174 202
-0.043692 0.678914 1.920000 190 166 198
-0.043215 0.674813 1.899000 187 159 194
-0.042737 0.670638 1.878000 184 155 198
-0.042737 0.673925 1.878000 188 156 202
-0.042509 0.673607 1.868000 193 157 203
-0.042282 0.673253 1.858000 191 159 205
-0.042054 0.672864 1.848000 190 159 198
-0.041826 0.672441 1.838000 191 164 192
-0.041599 0.671982 1.828000 193 163 195
-0.041394 0.671858 1.819000 198 161 198
-0.041166 0.671331 1.809000 203 157 200
-0.040962 0.671142 1.800000 198 161 202
-0.040734 0.670547 1.790000 194 161 204
-0.040529 0.670293 1.781000 195 163 206
-0.040324 0.670007 1.772000 196 163 210
-0.040120 0.669691 1.763000 194 161 214
-0.039710 0.665908 1.745000 192 160 211
-0.039505 0.665512 1.736000 194 160 208
-0.039323 0.665470 1.728000 196 161 208
-0.039323 0.668495 1.728000 195 163 207
-0.060518 0.716133 2.881000 199 164 202
-0.060014 0.715169 2.857000 199 163 203
-0.059531 0.714372 2.834000 199 163 202
-0.059027 0.713241 2.810000 200 164 201
-0.059027 0.718160 2.810000 202 165 202
-0.059027 0.723079 2.810000 201 164 204
-0.058565 0.722299 2.788000 199 164 201
-0.058082 0.721180 2.765000 199 162 199
-0.057619 0.720243 2.743000 198 163 201
-0.056737 0.713943 2.701000 200 160 203
-0.056296 0.713084 2.680000 202 164 203
-0.055435 0.706794 2.639000 197 162 203
-0.054595 0.700631 2.599000 192 162 202
-0.053775 0.694599 2.560000 195 160 202
-0.053775 0.699080 2.560000 198 152 201
-0.053775 0.703561 2.560000 201 162 200
-0.053775 0.708042 2.560000 204 166 203
-0.053397 0.707514 2.542000 199 163 207
-0.052998 0.706642 2.523000 195 164 206
-0.052620 0.705986 2.505000 195 163 206
-0.052242 0.705266 2.487000 196 162 205
-0.051129 0.694497 2.434000 199 164 205
-0.051129 0.698758 2.434000 201 159 205
-0.050772 0.698108 2.417000 200 161 205
-0.050414 0.697399 2.400000 199 165 204
-0.050414 0.701601 2.400000 198 162 204
-0.050078 0.701096 2.384000 197 158 199
-0.049721 0.700240 2.367000 195 159 194
-0.049385 0.699623 2.351000 194 160 198
-0.049049 0.698949 2.335000 192 161 203
-0.049049 0.703036 2.335000 191 164 203
-0.048083 0.693193 2.289000 192 161 204
-0.048083 0.697200 2.289000 194 158 205
-0.047768 0.696612 2.274000 195 162 206
-0.046843 0.687036 2.230000 196 165 205
-0.046843 0.690940 2.230000 196 165 204
-0.046528 0.690170 2.215000 196 165 202
-0.046234 0.689660 2.201000 198 165 201
-0.045940 0.689102 2.187000 201 165 201
-0.045667 0.688811 2.174000 195 163 201
-0.045373 0.688157 2.160000 189 164 202
-0.045100 0.687773 2.147000 192 162 204
-0.045100 0.691532 2.147000 196 163 203
-0.044806 0.690756 2.133000 200 164 203
-0.044533 0.690257 2.120000 204 165 203
-0.044260 0.689713 2.107000 200 163 204
-0.044260 0.693401 2.107000 197 164 206
-0.043209 0.680547 2.057000 200 163 209
-0.042957 0.680157 2.045000 204 162 208
-0.042705 0.679725 2.033000 202 166 207
-0.042453 0.679250 2.021000 200 170 206
-0.042453 0.682788 2.021000 199 170 205
-0.042201 0.682250 2.009000 198 170 206
-0.041970 0.682012 1.998000 197 164 208
-0.041718 0.681393 1.986000 196 164 205
-0.041487 0.681076 1.975000 196 166 202
-0.041256 0.680721 1.964000 196 166 198
-0.041256 0.684159 1.964000 194 164 194
-0.040563 0.676043 1.931000 192 165 197
-0.040563 0.679423 1.931000 192 169 201
-0.040332 0.678914 1.920000 193 172 200
-0.039890 0.674813 1.899000 190 167 200
-0.039659 0.674209 1.888000 188 164 200
-0.039449 0.673925 1.878000 190 160 201
-0.039239 0.673607 1.868000 192 157 200
-0.039029 0.673253 1.858000 188 156 199
-0.038819 0.672864 1.848000 184 152 191
-0.038609 0.672441 1.838000 189 159 184
-0.038399 0.671982 1.828000 194 162 189
-0.038210 0.671858 1.819000 197 156 195
-0.038000 0.671331 1.809000 200 145 198
-0.037811 0.671142 1.800000 193 155 202
-0.037601 0.670547 1.790000 185 157 204
-0.037412 0.670293 1.781000 192 162 206
-0.037223 0.670007 1.772000 199 166 211
-0.037034 0.669691 1.763000 194 164 217
-0.037034 0.672777 1.763000 190 161 212
-0.036655 0.668962 1.745000 193 160 208
-0.036466 0.668551 1.736000 196 161 208
-0.036298 0.668495 1.728000 196 163 208
-0.055475 0.716133 2.881000 201 164 202
-0.055013 0.715169 2.857000 200 164 205
-0.054570 0.714372 2.834000 200 163 205
-0.054570 0.719333 2.834000 202 164 205
-0.054108 0.718160 2.810000 205 164 205
-0.054108 0.723079 2.810000 202 165 206
-0.053684 0.722299 2.788000 199 164 204
-0.052818 0.715442 2.743000 199 162 202
-0.052414 0.714729 2.722000 200 162 204
-0.052009 0.713943 2.701000 204 164 205
-0.051605 0.713084 2.680000 208 163 205
-0.050815 0.706794 2.639000 198 162 204
-0.050045 0.700631 2.599000 189 163 204
-0.049679 0.700025 2.580000 192 166 203
-0.049679 0.704541 2.580000 196 161 202
-0.049294 0.703561 2.560000 195 164 202
-0.049294 0.708042 2.560000 195 164 204
-0.048948 0.707514 2.542000 195 163 207
-0.048948 0.711963 2.542000 196 163 205
-0.048235 0.705986 2.505000 196 161 203
-0.047889 0.705266 2.487000 197 164 206
-0.047195 0.699348 2.451000 199 172 209
-0.046868 0.698758 2.434000 201 162 208
-0.046541 0.698108 2.417000 200 159 208
-0.046213 0.697399 2.400000 200 165 208
-0.046213 0.701601 2.400000 198 168 209
-0.046213 0.705802 2.400000 197 161 204
-0.045905 0.705270 2.384000 195 161 199
-0.045270 0.699623 2.351000 194 162 201
-0.044962 0.698949 2.335000 194 161 204
-0.044673 0.698520 2.320000 194 162 204
-0.044076 0.693193 2.289000 195 160 205
-0.043787 0.692631 2.274000 196 159 206
-0.043787 0.696612 2.274000 196 157 207
-0.043209 0.691350 2.244000 197 162 206
-0.042940 0.690940 2.230000 197 166 206
-0.042651 0.690170 2.215000 198 165 204
-0.042381 0.689660 2.201000 201 165 202
-0.042112 0.689102 2.187000 205 163 202
-0.041862 0.688811 2.174000 199 161 202
-0.041592 0.688157 2.160000 194 162 203
-0.041342 0.687773 2.147000 195 162 205
-0.041072 0.687022 2.133000 196 162 205
-0.041072 0.690756 2.133000 198 164 205
-0.040822 0.690257 2.120000 201 163 205
-0.040571 0.689713 2.107000 200 161 205
-0.040571 0.693401 2.107000 199 161 206
-0.039609 0.680547 2.057000 201 163 208
-0.039378 0.680157 2.045000 203 166 207
-0.039147 0.679725 2.033000 202 169 206
-0.038915 0.679250 2.021000 201 168 205
-0.038915 0.682788 2.021000 200 164 205
-0.038684 0.682250 2.009000 199 164 206
-0.038473 0.682012 1.998000 197 162 207
-0.038242 0.681393 1.986000 195 165 204
-0.038030 0.681076 1.975000 194 168 202
-0.038030 0.684533 1.975000 194 167 200
-0.037818 0.684159 1.964000 193 165 199
-0.037375 0.679544 1.941000 193 165 201
-0.037375 0.682942 1.941000 194 168 202
-0.037182 0.682804 1.931000 196 170 199
-0.036566 0.674813 1.899000 194 175 196
-0.036354 0.674209 1.888000 192 168 199
-0.036162 0.673925 1.878000 191 165 201
-0.035969 0.673607 1.868000 191 158 201
-0.035777 0.673253 1.858000 185 157 200
-0.035584 0.672864 1.848000 179 157 196
-0.035392 0.672441 1.838000 187 159 192
-0.035199 0.671982 1.828000 196 159 195
-0.035026 0.671858 1.819000 197 158 199
-0.035026 0.675042 1.819000 198 154 201
-0.034833 0.674497 1.809000 187 157 203
-0.034660 0.674293 1.800000 177 159 204
-0.034467 0.673680 1.790000 189 165 206
-0.034294 0.673410 1.781000 202 167 209
-0.034121 0.673109 1.772000 195 171 212
-0.033601 0.665908 1.745000 188 162 210
-0.033601 0.668962 1.745000 192 160 209
-0.033428 0.668551 1.736000 196 161 209
-0.033274 0.668495 1.728000 197 163 210
-0.050432 0.716133 2.881000 202 165 203
-0.050012 0.715169 2.857000 199 164 207
-0.050012 0.720170 2.857000 197 164 208
-0.049609 0.719333 2.834000 199 163 209
-0.049189 0.718160 2.810000 201 163 208
-0.049189 0.723079 2.810000 200 165 208
-0.048804 0.722299 2.788000 199 166 207
-0.047649 0.709964 2.722000 199 164 206
-0.047281 0.709215 2.701000 200 162 207
-0.046913 0.708392 2.680000 202 163 208
-0.046913 0.713084 2.680000 204 163 207
-0.046196 0.706794 2.639000 199 162 206
-0.045846 0.706022 2.619000 195 163 205
-0.045495 0.705180 2.599000 197 163 205
-0.045163 0.704541 2.580000 200 163 204
-0.045163 0.709058 2.580000 202 163 204
-0.044813 0.708042 2.560000 204 165 205
-0.044498 0.707514 2.542000 201 166 207
-0.044165 0.706642 2.523000 198 167 203
-0.043850 0.705986 2.505000 198 163 200
-0.043535 0.705266 2.487000 199 161 206
-0.042905 0.699348 2.451000 199 165 213
-0.042607 0.698758 2.434000 200 159 212
-0.042310 0.698108 2.417000 200 164 211
-0.042012 0.697399 2.400000 200 169 212
-0.042012 0.701601 2.400000 199 167 214
-0.041732 0.701096 2.384000 198 158 209
-0.041434 0.700240 2.367000 197 161 205
-0.041154 0.699623 2.351000 196 166 205
-0.040874 0.698949 2.335000 197 163 205
-0.040874 0.703036 2.335000 198 163 206
-0.040069 0.693193 2.289000 197 163 207
-0.039806 0.692631 2.274000 197 164 208
-0.039806 0.696612 2.274000 197 162 209
-0.039036 0.687036 2.230000 197 162 208
-0.039036 0.690940 2.230000 197 164 208
-0.038774 0.690170 2.215000 197 167 206
-0.038529 0.689660 2.201000 200 166 204
-0.038056 0.685006 2.174000 202 164 203
-0.038056 0.688811 2.174000 198 161 203
-0.037811 0.688157 2.160000 195 161 205
-0.037583 0.687773 2.147000 196 161 207
-0.037583 0.691532 2.147000 197 161 207
-0.037111 0.686546 2.120000 198 163 207
-0.037111 0.690257 2.120000 199 165 207
-0.036883 0.689713 2.107000 199 161 207
-0.036883 0.693401 2.107000 200 157 207
-0.036218 0.684517 2.069000 202 167 207
-0.035798 0.680157 2.045000 204 172 206
-0.035588 0.679725 2.033000 203 169 205
-0.035378 0.679250 2.021000 201 169 205
-0.035378 0.682788 2.021000 200 164 205
-0.035168 0.682250 2.009000 199 162 205
-0.034975 0.682012 1.998000 194 166 206
-0.034765 0.681393 1.986000 189 166 204
-0.034572 0.681076 1.975000 192 168 202
-0.034572 0.684533 1.975000 196 171 203
-0.034380 0.684159 1.964000 196 166 205
-0.034170 0.683395 1.952000 196 165 204
-0.033977 0.682942 1.941000 198 166 204
-0.033802 0.682804 1.931000 200 168 198
-0.033417 0.678366 1.909000 197 170 193
-0.033049 0.674209 1.888000 194 171 197
-0.032874 0.673925 1.878000 193 164 202
-0.032699 0.673607 1.868000 192 155 202
-0.032524 0.673253 1.858000 188 162 202
-0.032349 0.672864 1.848000 184 162 201
-0.031999 0.668782 1.828000 189 160 200
-0.031999 0.671982 1.828000 194 159 202
-0.031842 0.671858 1.819000 195 158 204
-0.031667 0.671331 1.809000 197 159 204
-0.031667 0.674497 1.809000 191 159 205
-0.031509 0.674293 1.800000 185 160 205
-0.031509 0.677444 1.800000 192 163 206
-0.031176 0.673410 1.781000 199 166 207
-0.031019 0.673109 1.772000 195 164 208
-0.031019 0.676211 1.772000 191 158 209
-0.030546 0.668962 1.745000 194 159 210
-0.030389 0.668551 1.736000 196 160 211
-0.030249 0.668495 1.728000 197 162 212
-0.048634 0.734916 3.087000 190 165 200
-0.048634 0.740320 3.087000 199 172 201
-0.045389 0.716133 2.881000 204 165 204
-0.045011 0.715169 2.857000 199 165 207
-0.045011 0.720170 2.857000 194 164 210
-0.044648 0.719333 2.834000 196 164 214
-0.044270 0.718160 2.810000 198 165 211
-0.044270 0.723079 2.810000 199 168 209
-0.043924 0.722299 2.788000 200 168 207
-0.042884 0.709964 2.722000 200 168 206
-0.042553 0.709215 2.701000 200 165 207
-0.042222 0.708392 2.680000 200 163 208
-0.041891 0.707496 2.659000 201 163 207
-0.041576 0.706794 2.639000 201 162 207
-0.041261 0.706022 2.619000 201 163 206
-0.040946 0.705180 2.599000 202 161 205
-0.040946 0.709730 2.599000 204 161 205
-0.040647 0.709058 2.580000 209 161 205
-0.040332 0.708042 2.560000 214 165 208
-0.040048 0.707514 2.542000 207 170 212
-0.039749 0.706642 2.523000 201 166 208
-0.039182 0.700913 2.487000 201 163 204
-0.038898 0.700162 2.469000 201 164 207
-0.038347 0.694497 2.434000 200 169 211
-0.038347 0.698758 2.434000 200 165 209
-0.038079 0.698108 2.417000 200 169 208
-0.037811 0.697399 2.400000 200 168 209
-0.037811 0.701601 2.400000 199 173 211
-0.037559 0.701096 2.384000 199 164 209
-0.037291 0.700240 2.367000 199 161 207
-0.037039 0.699623 2.351000 199 164 206
-0.037039 0.703738 2.351000 200 165 205
-0.036787 0.703036 2.335000 202 166 205
-0.036551 0.702581 2.320000 200 166 206
-0.036062 0.697200 2.289000 199 165 207
-0.035589 0.692017 2.259000 198 165 209
-0.035133 0.687036 2.230000 198 163 210
-0.034896 0.686292 2.215000 197 164 210
-0.034896 0.690170 2.215000 197 166 208
-0.034676 0.689660 2.201000 198 168 206
-0.034455 0.689102 2.187000 200 164 203
-0.034250 0.688811 2.174000 198 159 199
-0.034030 0.688157 2.160000 196 160 203
-0.033825 0.687773 2.147000 197 161 208
-0.033825 0.691532 2.147000 198 161 207
-0.033400 0.686546 2.120000 197 163 207
-0.033400 0.690257 2.120000 197 162 208
-0.033195 0.689713 2.107000 199 161 209
-0.033195 0.693401 2.107000 201 164 208
-0.032407 0.680547 2.057000 203 178 208
-0.032218 0.680157 2.045000 206 171 209
-0.031840 0.675712 2.021000 204 169 210
-0.031840 0.679250 2.021000 202 167 208
-0.031840 0.682788 2.021000 200 164 206
-0.031651 0.682250 2.009000 199 165 205
-0.031478 0.682012 1.998000 191 174 204
-0.031288 0.681393 1.986000 184 170 204
-0.031115 0.681076 1.975000 191 168 204
-0.031115 0.684533 1.975000 198 168 206
-0.030942 0.684159 1.964000 198 166 209
-0.030753 0.683395 1.952000 199 164 208
-0.030422 0.679423 1.931000 201 165 207
-0.030422 0.682804 1.931000 204 166 203
-0.030075 0.678366 1.909000 200 167 199
-0.029918 0.678137 1.899000 197 168 201
-0.029745 0.677514 1.888000 195 168 203
-0.029587 0.677213 1.878000 194 162 202
-0.029272 0.673253 1.858000 192 174 202
-0.028957 0.669223 1.838000 190 167 203
-0.028799 0.668782 1.828000 191 162 203
-0.028657 0.668674 1.819000 192 160 204
-0.028657 0.671858 1.819000 194 157 205
-0.028500 0.671331 1.809000 196 158 205
-0.028358 0.671142 1.800000 194 160 206
-0.028358 0.674293 1.800000 193 162 205
-0.028201 0.673680 1.790000 195 164 205
-0.028059 0.673410 1.781000 197 163 207
-0.027917 0.673109 1.772000 196 162 209
-0.027775 0.672777 1.763000 195 160 209
-0.027492 0.668962 1.745000 196 159 209
-0.027350 0.668551 1.736000 197 160 209
-0.027224 0.668495 1.728000 197 163 210
-0.043622 0.736129 3.115000 195 162 203
-0.043230 0.734916 3.087000 194 159 203
-0.042838 0.733605 3.059000 199 161 203
-0.042474 0.732679 3.033000 204 156 197
-0.042096 0.731419 3.006000 196 155 191
-0.041732 0.730309 2.980000 189 149 197
-0.040682 0.717014 2.905000 196 159 203
-0.040682 0.722099 2.905000 204 166 205
-0.040345 0.721176 2.881000 203 165 208
-0.040009 0.720170 2.857000 202 166 213
-0.040009 0.725171 2.857000 201 165 219
-0.039687 0.724294 2.834000 200 166 214
-0.039351 0.723079 2.810000 200 168 210
-0.039043 0.722299 2.788000 201 170 208
-0.037825 0.704487 2.701000 203 168 206
-0.037825 0.709215 2.701000 204 168 207
-0.037531 0.708392 2.680000 203 166 208
-0.037237 0.707496 2.659000 202 166 208
-0.036957 0.706794 2.639000 202 165 209
-0.036676 0.706022 2.619000 201 167 207
-0.036396 0.705180 2.599000 202 162 205
-0.036396 0.709730 2.599000 204 159 205
-0.036130 0.709058 2.580000 207 163 206
-0.036130 0.713574 2.580000 210 165 211
-0.035598 0.707514 2.542000 206 166 217
-0.035332 0.706642 2.523000 202 167 212
-0.034828 0.700913 2.487000 201 164 208
-0.034576 0.700162 2.469000 200 165 209
-0.034324 0.699348 2.451000 199 166 210
-0.034086 0.698758 2.434000 198 166 207
-0.033848 0.698108 2.417000 199 165 205
-0.033610 0.697399 2.400000 200 162 207
-0.033610 0.701601 2.400000 200 167 209
-0.033386 0.701096 2.384000 201 166 209
-0.033147 0.700240 2.367000 199 163 209
-0.032923 0.699623 2.351000 198 164 207
-0.032699 0.698949 2.335000 198 168 206
-0.032699 0.703036 2.335000 197 171 205
-0.032489 0.702581 2.320000 198 167 205
-0.032055 0.697200 2.289000 199 166 207
-0.031845 0.696612 2.274000 198 164 210
-0.031229 0.687036 2.230000 198 164 211
-0.031229 0.690940 2.230000 196 164 213
-0.031019 0.690170 2.215000 194 165 211
-0.031019 0.694047 2.215000 198 165 209
-0.030627 0.689102 2.187000 203 165 202
-0.030445 0.688811 2.174000 200 162 196
-0.030249 0.688157 2.160000 198 161 202
-0.030067 0.687773 2.147000 198 161 209
-0.030067 0.691532 2.147000 198 161 208
-0.029871 0.690756 2.133000 196 162 208
-0.029688 0.690257 2.120000 193 162 209
-0.029506 0.689713 2.107000 196 164 211
-0.029338 0.689452 2.095000 200 163 210
-0.028806 0.680547 2.057000 202 169 210
-0.028638 0.680157 2.045000 204 167 213
-0.028470 0.679725 2.033000 203 167 216
-0.028302 0.679250 2.021000 202 167 212
-0.028302 0.682788 2.021000 201 163 208
-0.028134 0.682250 2.009000 200 162 205
-0.027980 0.682012 1.998000 195 169 202
-0.027812 0.681393 1.986000 190 172 204
-0.027658 0.681076 1.975000 196 169 206
-0.027504 0.680721 1.964000 203 168 209
-0.027504 0.684159 1.964000 201 165 213
-0.027336 0.683395 1.952000 200 163 212
-0.027182 0.682942 1.941000 201 164 211
-0.027042 0.682804 1.931000 202 166 208
-0.026734 0.678366 1.909000 199 165 205
-0.026594 0.678137 1.899000 196 167 204
-0.026440 0.677514 1.888000 195 164 204
-0.026299 0.677213 1.878000 193 154 203
-0.026159 0.676876 1.868000 192 166 203
-0.025739 0.669223 1.838000 191 172 205
-0.025599 0.668782 1.828000 192 166 207
-0.025473 0.668674 1.819000 193 165 207
-0.025473 0.671858 1.819000 195 164 207
-0.025333 0.671331 1.809000 197 158 207
-0.025207 0.671142 1.800000 196 161 207
-0.025207 0.674293 1.800000 196 164 206
-0.025067 0.673680 1.790000 197 163 205
-0.024941 0.673410 1.781000 199 161 208
-0.024815 0.673109 1.772000 197 162 211
-0.024689 0.672777 1.763000 196 164 210
-0.024493 0.670496 1.749000 196 161 209
-0.024311 0.668551 1.736000 197 160 208
-0.024199 0.668495 1.728000 198 162 208
-0.038170 0.730676 3.115000 198 162 202
-0.038170 0.736129 3.115000 198 161 203
-0.037827 0.734916 3.087000 198 161 204
-0.037484 0.733605 3.059000 199 159 206
-0.037165 0.732679 3.033000 200 159 205
-0.036515 0.725092 2.980000 198 160 205
-0.035903 0.718055 2.930000 196 157 205
-0.035596 0.717014 2.905000 200 159 205
-0.035596 0.722099 2.905000 204 163 206
-0.035302 0.721176 2.881000 207 166 208
-0.035008 0.720170 2.857000 210 165 211
-0.035008 0.725171 2.857000 206 164 214
-0.034726 0.724294 2.834000 202 167 212
-0.034432 0.723079 2.810000 202 170 210
-0.034445 0.728257 2.811000 203 169 209
-0.033354 0.714729 2.722000 209 168 209
-0.033097 0.713943 2.701000 206 168 211
-0.032839 0.713084 2.680000 204 167 210
-0.032337 0.706794 2.639000 203 168 208
-0.032337 0.711414 2.639000 202 166 204
-0.032092 0.710607 2.619000 203 164 200
-0.031847 0.709730 2.599000 204 163 202
-0.031614 0.709058 2.580000 205 168 204
-0.031369 0.708042 2.560000 206 166 208
-0.031148 0.707514 2.542000 204 164 212
-0.030916 0.706642 2.523000 203 164 209
-0.030474 0.700913 2.487000 201 163 206
-0.030254 0.700162 2.469000 200 164 208
-0.030033 0.699348 2.451000 198 164 210
-0.029825 0.698758 2.434000 197 166 208
-0.029617 0.698108 2.417000 199 166 206
-0.029617 0.702339 2.417000 201 167 208
-0.029408 0.701601 2.400000 202 168 210
-0.029408 0.705802 2.400000 203 166 210
-0.028808 0.695507 2.351000 200 163 210
-0.028808 0.699623 2.351000 198 169 208
-0.028808 0.703738 2.351000 195 173 206
-0.028612 0.703036 2.335000 193 170 206
-0.028428 0.702581 2.320000 196 166 207
-0.028048 0.697200 2.289000 199 165 209
-0.027864 0.696612 2.274000 199 164 212
-0.027325 0.687036 2.230000 199 164 212
-0.027325 0.690940 2.230000 195 166 213
-0.027142 0.690170 2.215000 191 166 211
-0.027142 0.694047 2.215000 198 164 210
-0.026639 0.685006 2.174000 206 165 208
-0.026639 0.688811 2.174000 203 164 207
-0.026468 0.688157 2.160000 200 163 208
-0.026308 0.687773 2.147000 199 161 209
-0.026137 0.687022 2.133000 199 162 205
-0.025977 0.686546 2.120000 194 164 202
-0.025977 0.690257 2.120000 190 166 205
-0.025818 0.689713 2.107000 194 171 208
-0.025671 0.689452 2.095000 199 170 207
-0.025353 0.684517 2.069000 201 171 206
-0.025058 0.680157 2.045000 203 167 206
-0.024911 0.679725 2.033000 203 168 206
-0.024764 0.679250 2.021000 203 165 206
-0.024617 0.678734 2.009000 202 161 206
-0.024483 0.678515 1.998000 201 163 206
-0.024483 0.682012 1.998000 199 171 206
-0.024335 0.681393 1.986000 197 167 207
-0.024201 0.681076 1.975000 202 169 208
-0.024201 0.684533 1.975000 208 167 214
-0.024066 0.684159 1.964000 204 164 219
-0.023919 0.683395 1.952000 201 164 216
-0.023662 0.679423 1.931000 201 165 213
-0.023662 0.682804 1.931000 201 166 210
-0.023527 0.682275 1.920000 198 163 208
-0.023392 0.681708 1.909000 196 165 206
-0.023135 0.677514 1.888000 194 168 204
-0.023012 0.677213 1.878000 193 165 202
-0.022890 0.676876 1.868000 193 167 201
-0.022522 0.669223 1.838000 193 168 204
-0.022289 0.665489 1.819000 194 166 207
-0.022289 0.668674 1.819000 195 167 208
-0.022167 0.668164 1.809000 196 177 208
-0.022167 0.671331 1.809000 198 166 208
-0.022056 0.671142 1.800000 199 163 207
-0.022056 0.674293 1.800000 200 164 207
-0.021934 0.673680 1.790000 200 165 207
-0.021824 0.673410 1.781000 201 163 211
-0.021713 0.673109 1.772000 199 162 215
-0.021493 0.669342 1.754000 198 163 212
-0.021493 0.672413 1.754000 197 162 209
-0.021382 0.672017 1.745000 197 161 208
-0.021382 0.675072 1.745000 198 163 208
-0.033620 0.734039 3.201000 199 165 203
-0.033316 0.732942 3.172000 200 165 203
-0.033011 0.731743 3.143000 199 165 204
-0.032717 0.730676 3.115000 199 166 204
-0.032423 0.729512 3.087000 200 165 204
-0.032423 0.734916 3.087000 201 166 206
-0.032129 0.733605 3.059000 200 163 209
-0.031856 0.732679 3.033000 200 164 214
-0.031299 0.725092 2.980000 197 163 219
-0.030511 0.711928 2.905000 195 163 213
-0.030511 0.717014 2.905000 199 161 207
-0.030511 0.722099 2.905000 204 161 207
-0.030259 0.721176 2.881000 205 164 208
-0.030259 0.726220 2.881000 206 167 209
-0.030259 0.731263 2.881000 204 170 210
-0.030007 0.730172 2.857000 202 169 210
-0.029766 0.729255 2.834000 202 168 211
-0.029766 0.734216 2.834000 202 169 210
-0.028589 0.714729 2.722000 207 170 212
-0.028369 0.713943 2.701000 204 168 215
-0.027928 0.707496 2.659000 202 168 211
-0.027718 0.706794 2.639000 200 168 208
-0.027718 0.711414 2.639000 198 168 202
-0.027507 0.710607 2.619000 202 166 196
-0.027297 0.709730 2.599000 205 162 199
-0.027098 0.709058 2.580000 204 166 202
-0.026888 0.708042 2.560000 203 170 204
-0.026699 0.707514 2.542000 200 167 207
-0.026499 0.706642 2.523000 197 163 205
-0.026121 0.700913 2.487000 198 163 204
-0.025932 0.700162 2.469000 199 164 207
-0.025743 0.699348 2.451000 199 166 210
-0.025564 0.698758 2.434000 199 170 209
-0.025386 0.698108 2.417000 201 169 208
-0.025386 0.702339 2.417000 203 172 209
-0.025207 0.701601 2.400000 203 171 211
