ply
format ascii 1.0
element vertex 1258
property float x
property float y
property float z
property uchar red
property uchar green
property uchar blue
end_header
-0.165998 0.744315 3.059000 73 54 24
-0.164587 0.743297 3.033000 73 53 33
-0.163122 0.741943 3.006000 70 49 41
-0.161711 0.740742 2.980000 68 48 48
-0.161711 0.745958 2.980000 68 50 54
-0.160355 0.744873 2.955000 69 49 49
-0.158998 0.743700 2.930000 68 47 45
-0.156339 0.736306 2.881000 68 46 45
-0.153789 0.729255 2.834000 65 47 46
-0.152486 0.727998 2.810000 62 48 43
-0.152486 0.732917 2.810000 67 50 41
-0.151292 0.732059 2.788000 72 52 44
-0.151292 0.736940 2.788000 73 55 47
-0.147711 0.724259 2.722000 74 54 47
-0.146571 0.723400 2.701000 69 50 47
-0.146571 0.728128 2.701000 65 52 56
-0.145432 0.727158 2.680000 66 50 65
-0.144292 0.726115 2.659000 67 49 47
-0.143207 0.725272 2.639000 67 45 29
-0.141036 0.718829 2.599000 67 46 34
-0.140005 0.718090 2.580000 67 47 39
-0.138920 0.717005 2.560000 68 48 45
-0.137943 0.716413 2.542000 68 48 52
-0.137943 0.720863 2.542000 68 53 53
-0.136912 0.719892 2.523000 69 59 54
-0.134958 0.713973 2.487000 70 56 44
-0.133982 0.713128 2.469000 69 56 35
-0.133005 0.712219 2.451000 68 52 44
-0.132082 0.711540 2.434000 66 53 54
-0.131160 0.710801 2.417000 65 50 48
-0.130237 0.710003 2.400000 57 49 43
-0.130237 0.714204 2.400000 50 51 40
-0.129369 0.713616 2.384000 59 52 38
-0.127578 0.707853 2.351000 68 49 41
-0.126710 0.707123 2.335000 72 47 44
-0.126710 0.711211 2.335000 77 45 44
-0.125896 0.710703 2.320000 73 44 44
-0.125028 0.709835 2.304000 69 45 50
-0.123400 0.704573 2.274000 67 46 57
-0.122586 0.703880 2.259000 66 45 52
-0.121012 0.698747 2.230000 60 42 48
-0.121012 0.702651 2.230000 54 46 49
-0.120198 0.701802 2.215000 58 52 50
-0.119438 0.701219 2.201000 63 50 56
-0.118679 0.700587 2.187000 61 47 61
-0.117973 0.700228 2.174000 59 47 49
-0.117214 0.699500 2.160000 61 47 37
-0.115748 0.694490 2.133000 64 48 45
-0.115748 0.698224 2.133000 68 50 52
-0.115043 0.697679 2.120000 72 50 53
-0.114338 0.697090 2.107000 74 50 53
-0.113686 0.696787 2.095000 76 50 42
-0.112275 0.691761 2.069000 65 52 31
-0.111624 0.691350 2.057000 55 51 53
-0.110973 0.690896 2.045000 58 51 76
-0.110322 0.690401 2.033000 62 52 56
-0.110322 0.693960 2.033000 64 53 37
-0.109671 0.693401 2.021000 67 50 42
-0.109019 0.692801 2.009000 66 50 47
-0.108423 0.692505 1.998000 65 49 50
-0.107771 0.691822 1.986000 66 49 53
-0.107174 0.691448 1.975000 67 49 50
-0.106578 0.691035 1.964000 68 50 48
-0.105926 0.690229 1.952000 69 48 40
-0.105329 0.689737 1.941000 70 51 33
-0.104787 0.689564 1.931000 71 50 37
-0.103593 0.685049 1.909000 69 51 42
-0.103050 0.684785 1.899000 67 48 41
-0.102453 0.684124 1.888000 63 45 40
-0.101368 0.680146 1.868000 60 50 34
-0.100825 0.679758 1.858000 70 32 28
-0.100825 0.683010 1.858000 80 44 27
-0.100283 0.682569 1.848000 83 25 25
-0.100283 0.685804 1.848000 86 50 14
-0.099740 0.685310 1.838000 85 56 2
-0.099740 0.688528 1.838000 85 63 7
-0.099197 0.687982 1.828000 91 68 11
-0.098166 0.683998 1.809000 98 72 6
-0.097135 0.679947 1.790000 100 73 1
-0.096159 0.676211 1.772000 102 73 7
-0.096159 0.679313 1.772000 103 80 12
-0.095670 0.678949 1.763000 104 79 8
-0.095670 0.682035 1.763000 109 89 5
-0.201763 0.780149 3.842000 71 49 36
-0.199557 0.778273 3.800000 75 50 34
-0.199557 0.784925 3.800000 78 51 38
-0.197404 0.783036 3.759000 74 48 43
-0.197404 0.789616 3.759000 70 45 45
-0.195251 0.787512 3.718000 72 49 47
-0.179759 0.748995 3.423000 73 53 82
-0.178866 0.751238 3.406000 74 50 72
-0.178026 0.753643 3.390000 75 51 62
-0.176293 0.752183 3.357000 76 50 57
-0.174560 0.750607 3.324000 78 50 53
-0.174560 0.756426 3.324000 80 50 51
-0.172932 0.755136 3.293000 76 54 50
-0.171304 0.753737 3.262000 72 58 64
-0.169676 0.752230 3.231000 68 55 78
-0.165055 0.737244 3.143000 65 58 65
-0.165055 0.742746 3.143000 72 52 52
-0.163584 0.741582 3.115000 79 49 49
-0.162114 0.740320 3.087000 77 48 46
-0.160643 0.738960 3.059000 75 51 27
-0.159278 0.737988 3.033000 76 52 9
-0.157860 0.736681 3.006000 77 54 25
-0.156495 0.735525 2.980000 72 50 42
-0.156495 0.740742 2.980000 68 48 47
-0.155182 0.739700 2.955000 68 51 53
-0.155182 0.744873 2.955000 68 53 50
-0.153869 0.743700 2.930000 68 49 47
-0.152556 0.742440 2.905000 68 46 45
-0.150035 0.735173 2.857000 69 47 44
-0.148828 0.734216 2.834000 71 50 34
-0.147567 0.732917 2.810000 71 50 24
-0.146412 0.732059 2.788000 71 53 35
-0.145204 0.730860 2.765000 72 56 47
-0.142946 0.724259 2.722000 73 60 54
-0.141843 0.723400 2.701000 70 55 61
-0.141843 0.728128 2.701000 68 56 57
-0.140740 0.727158 2.680000 69 52 54
-0.139637 0.726115 2.659000 71 50 30
-0.138587 0.725272 2.639000 68 47 6
-0.137537 0.724361 2.619000 65 46 22
-0.135489 0.718090 2.580000 62 48 39
-0.134438 0.717005 2.560000 60 50 47
-0.133493 0.716413 2.542000 64 50 55
-0.132495 0.715475 2.523000 69 52 55
-0.132495 0.719892 2.523000 72 54 56
-0.129660 0.708806 2.469000 76 54 51
-0.128714 0.707929 2.451000 73 54 47
-0.127822 0.707279 2.434000 70 51 52
-0.126929 0.706570 2.417000 69 50 57
-0.126929 0.710801 2.417000 69 50 49
-0.126036 0.710003 2.400000 67 51 42
-0.126036 0.714204 2.400000 64 54 42
-0.125196 0.713616 2.384000 67 52 43
-0.124303 0.712671 2.367000 69 51 44
-0.123463 0.711969 2.351000 69 48 45
-0.122623 0.711211 2.335000 69 46 48
-0.121835 0.710703 2.320000 68 44 51
-0.120207 0.705214 2.289000 66 41 55
-0.118631 0.699925 2.259000 66 46 59
-0.117844 0.699206 2.244000 67 46 55
-0.117108 0.698747 2.230000 66 45 51
-0.117108 0.702651 2.230000 65 46 50
-0.116321 0.701802 2.215000 65 49 49
-0.116321 0.705679 2.215000 65 50 47
-0.115586 0.705072 2.201000 62 48 45
-0.114850 0.704415 2.187000 59 45 35
-0.113432 0.699500 2.160000 62 46 26
-0.112015 0.694490 2.133000 64 49 40
-0.112015 0.698224 2.133000 67 49 55
-0.111332 0.697679 2.120000 70 50 53
-0.110649 0.697090 2.107000 72 49 51
-0.110019 0.696787 2.095000 74 48 32
-0.108654 0.691761 2.069000 69 49 14
-0.108654 0.695383 2.069000 64 50 51
-0.108023 0.694950 2.057000 64 51 89
-0.107393 0.694476 2.045000 65 54 56
-0.106763 0.693960 2.033000 68 51 24
-0.106133 0.693401 2.021000 70 48 34
-0.105503 0.692801 2.009000 66 48 44
-0.104925 0.692505 1.998000 61 49 45
-0.104295 0.691822 1.986000 62 46 47
-0.103717 0.691448 1.975000 63 47 48
-0.103139 0.691035 1.964000 66 45 49
-0.101932 0.686340 1.941000 68 43 43
-0.101932 0.689737 1.941000 73 50 37
-0.100829 0.685636 1.920000 77 53 38
-0.100251 0.685049 1.909000 75 50 40
-0.099726 0.684785 1.899000 73 49 33
-0.099148 0.684124 1.888000 76 64 26
-0.098623 0.683788 1.878000 80 79 18
-0.097573 0.679758 1.858000 84 68 11
-0.097573 0.683010 1.858000 88 83 7
-0.097048 0.682569 1.848000 90 69 3
-0.097048 0.685804 1.848000 91 86 2
-0.096523 0.685310 1.838000 90 72 1
-0.095997 0.684782 1.828000 90 68 5
-0.095525 0.684594 1.819000 94 73 10
-0.094527 0.680595 1.800000 99 84 6
-0.094002 0.679947 1.790000 103 78 2
-0.093529 0.679646 1.781000 106 78 9
-0.093057 0.679313 1.772000 103 75 17
-0.092584 0.678949 1.763000 100 72 10
-0.092111 0.678553 1.754000 105 80 3
-0.195037 0.780149 3.842000 72 52 45
-0.192905 0.778273 3.800000 74 54 39
-0.192905 0.784925 3.800000 76 51 40
-0.192905 0.791576 3.800000 71 46 42
-0.190824 0.789616 3.759000 66 47 43
-0.188743 0.787512 3.718000 71 51 45
-0.172092 0.747709 3.390000 76 55 62
-0.170417 0.746306 3.357000 76 55 55
-0.170417 0.752183 3.357000 76 52 47
-0.168741 0.750607 3.324000 77 49 40
-0.168741 0.756426 3.324000 78 52 42
-0.167168 0.755136 3.293000 75 54 45
-0.165594 0.753737 3.262000 73 54 55
-0.164020 0.752230 3.231000 72 55 65
-0.159553 0.737244 3.143000 72 54 59
-0.158132 0.736129 3.115000 74 50 54
-0.158132 0.741582 3.115000 76 47 57
-0.156710 0.740320 3.087000 76 48 61
-0.156710 0.745724 3.087000 76 50 43
-0.155289 0.744315 3.059000 79 51 25
-0.152598 0.736681 3.006000 82 53 34
-0.152598 0.741943 3.006000 75 50 43
-0.151278 0.740742 2.980000 68 50 45
-0.150009 0.739700 2.955000 68 54 47
-0.150009 0.744873 2.955000 68 53 38
-0.148740 0.743700 2.930000 68 50 30
-0.146253 0.736306 2.881000 68 48 37
-0.145034 0.735173 2.857000 74 48 44
-0.143867 0.734216 2.834000 80 47 41
-0.142648 0.732917 2.810000 75 48 37
-0.141532 0.732059 2.788000 71 53 44
-0.140364 0.730860 2.765000 72 56 52
-0.138181 0.724259 2.722000 73 56 62
-0.137115 0.723400 2.701000 72 55 72
-0.136049 0.722467 2.680000 71 54 64
-0.136049 0.727158 2.680000 73 55 57
-0.134983 0.726115 2.659000 75 52 39
-0.133968 0.725272 2.639000 69 50 21
-0.132952 0.724361 2.619000 64 48 33
-0.130972 0.718090 2.580000 58 49 44
-0.129957 0.717005 2.560000 52 48 50
-0.129043 0.716413 2.542000 61 50 56
-0.128079 0.715475 2.523000 71 50 56
-0.128079 0.719892 2.523000 76 51 57
-0.125338 0.708806 2.469000 82 54 59
-0.124424 0.707929 2.451000 77 58 61
-0.123561 0.707279 2.434000 72 53 58
-0.122698 0.706570 2.417000 73 48 55
-0.122698 0.710801 2.417000 74 50 46
-0.121835 0.710003 2.400000 76 52 37
-0.121835 0.714204 2.400000 79 52 41
-0.121023 0.713616 2.384000 75 51 45
-0.120160 0.712671 2.367000 71 51 47
-0.119347 0.711969 2.351000 66 51 49
-0.118535 0.711211 2.335000 62 49 53
-0.117774 0.710703 2.320000 63 45 57
-0.116961 0.709835 2.304000 64 46 63
-0.114677 0.699925 2.259000 66 52 70
-0.113916 0.699206 2.244000 68 49 60
-0.113205 0.698747 2.230000 72 47 50
-0.113205 0.702651 2.230000 77 47 47
-0.112443 0.701802 2.215000 72 48 44
-0.111733 0.701219 2.201000 68 50 40
-0.111022 0.700587 2.187000 64 51 37
-0.110362 0.700228 2.174000 60 48 35
-0.109651 0.699500 2.160000 62 46 34
-0.108991 0.699048 2.147000 65 47 51
-0.108281 0.698224 2.133000 66 49 69
-0.107621 0.697679 2.120000 68 49 63
-0.107621 0.701391 2.120000 70 50 57
-0.106352 0.696787 2.095000 72 46 41
-0.105692 0.696108 2.082000 72 48 26
-0.105032 0.695383 2.069000 73 47 47
-0.104423 0.694950 2.057000 71 50 69
-0.103204 0.690401 2.033000 69 50 48
-0.103204 0.693960 2.033000 71 49 27
-0.102595 0.693401 2.021000 74 51 32
-0.101986 0.692801 2.009000 66 46 37
-0.101428 0.692505 1.998000 58 46 32
-0.100818 0.691822 1.986000 59 39 28
-0.100260 0.691448 1.975000 60 52 36
-0.099092 0.686812 1.952000 64 41 44
-0.098534 0.686340 1.941000 68 56 32
-0.098026 0.686184 1.931000 76 53 19
-0.097468 0.685636 1.920000 84 54 28
-0.097468 0.688997 1.920000 82 50 38
-0.096402 0.684785 1.899000 80 66 26
-0.095843 0.684124 1.888000 90 83 15
-0.095336 0.683788 1.878000 100 79 20
-0.094828 0.683416 1.868000 98 81 24
-0.094320 0.683010 1.858000 97 81 15
-0.094320 0.686263 1.858000 97 84 7
-0.093813 0.685804 1.848000 97 82 7
-0.093305 0.685310 1.838000 96 80 7
-0.092341 0.681410 1.819000 95 74 7
-0.091833 0.680831 1.809000 98 73 8
-0.091376 0.680595 1.800000 101 77 7
-0.090412 0.676528 1.781000 106 77 6
-0.089955 0.676211 1.772000 111 76 20
-0.089955 0.679313 1.772000 104 71 35
-0.089498 0.678949 1.763000 97 73 20
-0.089041 0.678553 1.754000 101 77 6
-0.188312 0.773424 3.842000 70 49 66
-0.188312 0.780149 3.842000 74 50 55
-0.186253 0.778273 3.800000 76 51 45
-0.186253 0.784925 3.800000 79 53 43
-0.184244 0.783036 3.759000 75 48 41
-0.184244 0.789616 3.759000 71 46 42
-0.182234 0.787512 3.718000 75 50 44
-0.180322 0.785691 3.679000 80 54 43
-0.176548 0.775552 3.602000 74 57 43
-0.167775 0.754987 3.423000 75 63 52
-0.166157 0.753643 3.390000 75 57 48
-0.164540 0.752183 3.357000 76 56 37
-0.164540 0.758059 3.357000 75 53 27
-0.162923 0.756426 3.324000 75 55 34
-0.161403 0.755136 3.293000 72 53 41
-0.159884 0.753737 3.262000 69 51 47
-0.156894 0.745246 3.201000 70 53 53
-0.154051 0.737244 3.143000 72 53 54
-0.154051 0.742746 3.143000 74 47 56
-0.152679 0.741582 3.115000 76 42 66
-0.151306 0.740320 3.087000 74 46 77
-0.149934 0.738960 3.059000 73 50 59
-0.148659 0.737988 3.033000 74 53 41
-0.147336 0.736681 3.006000 74 58 42
-0.146062 0.735525 2.980000 71 53 44
-0.146062 0.740742 2.980000 69 50 42
-0.144836 0.739700 2.955000 71 53 41
-0.144836 0.744873 2.955000 73 55 27
-0.143611 0.743700 2.930000 68 52 14
-0.142386 0.742440 2.905000 64 50 29
-0.141209 0.741349 2.881000 69 48 45
-0.140033 0.740175 2.857000 74 45 48
-0.137729 0.732917 2.810000 73 50 51
-0.136651 0.732059 2.788000 71 56 54
-0.135524 0.730860 2.765000 74 55 57
-0.133416 0.724259 2.722000 77 55 70
-0.132387 0.723400 2.701000 74 53 83
-0.131357 0.722467 2.680000 70 50 71
-0.130328 0.721460 2.659000 71 52 60
-0.129348 0.720653 2.639000 71 53 48
-0.128368 0.719776 2.619000 67 50 37
-0.128368 0.724361 2.619000 64 50 43
-0.127387 0.723379 2.599000 59 47 50
-0.126456 0.722607 2.580000 54 44 54
-0.124594 0.716413 2.542000 60 47 58
-0.123662 0.715475 2.523000 65 49 58
-0.123662 0.719892 2.523000 70 52 58
-0.121898 0.713973 2.487000 75 56 67
-0.121016 0.713128 2.469000 72 56 76
-0.120133 0.712219 2.451000 70 56 65
-0.119300 0.711540 2.434000 70 52 54
-0.118467 0.710801 2.417000 70 50 43
-0.117634 0.710003 2.400000 72 51 32
-0.117634 0.714204 2.400000 73 52 39
-0.116849 0.713616 2.384000 71 52 47
-0.116016 0.712671 2.367000 69 53 50
-0.115232 0.711969 2.351000 67 53 53
-0.114448 0.711211 2.335000 65 57 58
-0.113712 0.710703 2.320000 64 49 63
-0.111458 0.700592 2.274000 63 47 72
-0.110723 0.699925 2.259000 62 52 81
-0.109987 0.699206 2.244000 61 53 65
-0.109301 0.698747 2.230000 66 48 49
-0.108566 0.697925 2.215000 72 47 44
-0.108566 0.701802 2.215000 69 49 40
-0.107880 0.701219 2.201000 67 54 34
-0.107194 0.700587 2.187000 61 51 29
-0.106556 0.700228 2.174000 55 51 35
-0.105870 0.699500 2.160000 60 47 42
-0.105233 0.699048 2.147000 64 44 62
-0.104547 0.698224 2.133000 62 49 83
-0.103910 0.697679 2.120000 59 49 73
-0.103272 0.697090 2.107000 65 45 63
-0.102047 0.692463 2.082000 70 39 51
-0.101410 0.691761 2.069000 75 38 39
-0.100822 0.691350 2.057000 80 41 44
-0.100234 0.690896 2.045000 79 47 49
-0.099645 0.690401 2.033000 78 49 39
-0.099645 0.693960 2.033000 80 56 30
-0.099057 0.693401 2.021000 83 62 30
-0.098469 0.692801 2.009000 83 56 31
-0.097930 0.692505 1.998000 83 53 20
-0.097342 0.691822 1.986000 84 64 9
-0.096803 0.691448 1.975000 84 83 24
-0.096263 0.691035 1.964000 86 75 40
-0.095675 0.690229 1.952000 88 90 21
-0.094646 0.686184 1.931000 90 72 2
-0.094107 0.685636 1.920000 93 60 19
-0.094107 0.688997 1.920000 96 66 36
-0.093568 0.688391 1.909000 99 85 20
-0.092538 0.684124 1.888000 100 83 5
-0.092048 0.683788 1.878000 101 76 21
-0.091558 0.683416 1.868000 101 79 38
-0.091068 0.683010 1.858000 101 79 24
-0.091068 0.686263 1.858000 100 79 11
-0.090578 0.685804 1.848000 100 78 12
-0.090088 0.685310 1.838000 99 80 13
-0.089156 0.681410 1.819000 98 77 9
-0.088666 0.680831 1.809000 99 72 6
-0.088225 0.680595 1.800000 100 76 8
-0.087294 0.676528 1.781000 99 78 10
-0.086853 0.676211 1.772000 99 79 31
-0.086853 0.679313 1.772000 95 75 53
-0.086412 0.678949 1.763000 91 73 31
-0.085971 0.678553 1.754000 89 66 9
-0.181586 0.773424 3.842000 73 47 61
-0.181586 0.780149 3.842000 76 48 54
-0.179601 0.778273 3.800000 79 47 48
-0.177664 0.776456 3.759000 83 48 42
-0.177664 0.783036 3.759000 79 47 37
-0.177664 0.789616 3.759000 76 47 37
-0.175726 0.787512 3.718000 80 49 37
-0.173882 0.785691 3.679000 84 54 38
-0.172039 0.783734 3.640000 75 57 40
-0.168494 0.773826 3.565000 66 56 47
-0.160223 0.759577 3.390000 76 55 41
-0.151291 0.745246 3.201000 69 56 37
-0.148549 0.737244 3.143000 73 53 45
-0.147226 0.736129 3.115000 74 46 54
-0.147226 0.741582 3.115000 76 44 61
-0.145902 0.740320 3.087000 73 46 69
-0.144579 0.738960 3.059000 71 50 54
-0.143350 0.737988 3.033000 69 54 40
-0.142074 0.736681 3.006000 67 55 41
-0.142074 0.741943 3.006000 68 55 43
-0.140845 0.740742 2.980000 70 54 41
-0.139664 0.739700 2.955000 74 56 39
-0.139664 0.744873 2.955000 78 54 34
-0.138482 0.743700 2.930000 69 54 29
-0.137301 0.742440 2.905000 60 51 39
-0.135032 0.735173 2.857000 64 49 50
-0.133945 0.734216 2.834000 69 48 52
-0.132810 0.732917 2.810000 70 51 54
-0.131771 0.732059 2.788000 72 53 53
-0.131771 0.736940 2.788000 77 55 53
-0.127659 0.718672 2.701000 82 53 60
-0.127659 0.723400 2.701000 76 52 66
-0.126666 0.722467 2.680000 70 52 59
-0.125674 0.721460 2.659000 69 53 52
-0.124728 0.720653 2.639000 68 50 48
-0.123783 0.719776 2.619000 66 49 45
-0.123783 0.724361 2.619000 64 47 53
-0.122838 0.723379 2.599000 60 45 62
-0.121940 0.722607 2.580000 57 46 59
-0.120995 0.721486 2.560000 58 48 56
-0.120144 0.720863 2.542000 60 49 56
-0.119246 0.719892 2.523000 64 52 57
-0.117544 0.713973 2.487000 68 53 63
-0.116694 0.713128 2.469000 68 54 68
-0.115843 0.712219 2.451000 68 54 60
-0.115039 0.711540 2.434000 67 55 51
-0.114236 0.710801 2.417000 67 52 45
-0.113432 0.710003 2.400000 67 51 39
-0.113432 0.714204 2.400000 68 52 46
-0.112676 0.713616 2.384000 68 53 54
-0.111873 0.712671 2.367000 68 52 50
-0.111117 0.711969 2.351000 68 52 47
-0.110360 0.711211 2.335000 68 53 52
-0.109651 0.710703 2.320000 65 50 57
-0.108186 0.705214 2.289000 62 52 64
-0.107477 0.704573 2.274000 58 59 72
-0.106768 0.703880 2.259000 55 50 59
-0.105398 0.698747 2.230000 61 45 46
-0.104689 0.697925 2.215000 67 45 42
-0.104027 0.697366 2.201000 66 49 38
-0.103365 0.696759 2.187000 66 48 31
-0.102751 0.696423 2.174000 58 51 24
-0.102751 0.700228 2.174000 51 54 22
-0.102089 0.699500 2.160000 57 50 21
-0.102089 0.703281 2.160000 64 51 35
-0.101475 0.702807 2.147000 57 54 49
-0.100813 0.701958 2.133000 51 52 40
-0.099584 0.697090 2.107000 60 45 32
-0.097788 0.688139 2.069000 69 49 26
-0.097221 0.687749 2.057000 78 24 21
-0.097221 0.691350 2.057000 88 51 23
-0.096654 0.690896 2.045000 87 51 26
-0.096087 0.690401 2.033000 87 60 20
-0.096087 0.693960 2.033000 90 65 15
-0.095520 0.693401 2.021000 93 67 15
-0.094952 0.692801 2.009000 101 65 16
-0.094433 0.692505 1.998000 109 69 11
-0.093865 0.691822 1.986000 109 83 6
-0.093345 0.691448 1.975000 109 84 13
-0.092826 0.691035 1.964000 109 87 20
-0.091738 0.686340 1.941000 109 87 11
-0.090746 0.682275 1.920000 105 86 2
-0.090746 0.685636 1.920000 102 75 10
-0.090226 0.685049 1.909000 110 72 19
-0.089753 0.684785 1.899000 119 80 11
-0.089234 0.684124 1.888000 110 89 3
-0.088761 0.683788 1.878000 102 79 16
-0.088288 0.683416 1.868000 104 80 29
-0.088288 0.686686 1.868000 106 76 24
-0.087816 0.686263 1.858000 104 76 18
-0.087343 0.685804 1.848000 103 77 19
-0.086398 0.681582 1.828000 102 85 20
-0.085972 0.681410 1.819000 101 71 19
-0.085500 0.680831 1.809000 100 63 19
-0.085074 0.680595 1.800000 99 68 22
-0.084602 0.679947 1.790000 93 83 26
-0.083751 0.676211 1.772000 88 71 41
-0.083751 0.679313 1.772000 86 78 57
-0.083326 0.678949 1.763000 85 65 43
-0.082900 0.678553 1.754000 78 59 28
-0.172950 0.764969 3.800000 68 48 56
-0.172950 0.771621 3.800000 67 50 53
-0.172950 0.778273 3.800000 72 47 51
-0.171084 0.776456 3.759000 77 47 42
-0.171084 0.783036 3.759000 75 47 34
-0.171084 0.789616 3.759000 74 47 32
-0.169217 0.787512 3.718000 75 51 30
-0.167442 0.785691 3.679000 76 56 34
-0.163938 0.775552 3.602000 72 55 38
-0.162254 0.773826 3.565000 67 54 45
-0.160570 0.771971 3.528000 70 54 53
-0.143047 0.737244 3.143000 80 57 37
-0.141773 0.736129 3.115000 77 49 53
-0.141773 0.741582 3.115000 75 45 57
-0.140499 0.740320 3.087000 74 48 61
-0.140499 0.745724 3.087000 72 50 50
-0.138041 0.737988 3.033000 70 52 40
-0.136812 0.736681 3.006000 69 54 41
-0.136812 0.741943 3.006000 69 54 42
-0.135629 0.740742 2.980000 70 58 39
-0.134491 0.739700 2.955000 72 55 37
-0.134491 0.744873 2.955000 74 53 40
-0.133353 0.743700 2.930000 68 51 44
-0.132215 0.742440 2.905000 62 51 49
-0.131123 0.741349 2.881000 66 48 55
-0.130031 0.740175 2.857000 70 49 56
-0.127892 0.732917 2.810000 71 50 57
-0.126890 0.732059 2.788000 73 53 53
-0.126890 0.736940 2.788000 75 53 50
-0.123887 0.724259 2.722000 77 53 50
-0.122931 0.723400 2.701000 74 51 50
-0.121975 0.722467 2.680000 71 54 47
-0.121019 0.721460 2.659000 69 51 45
-0.120109 0.720653 2.639000 68 47 49
-0.119199 0.719776 2.619000 66 47 53
-0.119199 0.724361 2.619000 64 47 63
-0.118288 0.723379 2.599000 61 48 74
-0.117424 0.722607 2.580000 59 49 64
-0.116513 0.721486 2.560000 61 49 54
-0.115694 0.720863 2.542000 62 50 55
-0.114829 0.719892 2.523000 65 51 57
-0.113191 0.713973 2.487000 68 51 59
-0.112372 0.713128 2.469000 68 51 61
-0.111552 0.712219 2.451000 67 52 55
-0.110005 0.706570 2.417000 67 53 49
-0.110005 0.710801 2.417000 67 53 48
-0.109231 0.710003 2.400000 67 52 47
-0.108503 0.709443 2.384000 68 53 54
-0.107729 0.708527 2.367000 68 51 61
-0.107729 0.712671 2.367000 69 51 51
-0.107001 0.711969 2.351000 68 50 41
-0.106273 0.711211 2.335000 68 53 46
-0.104862 0.705802 2.304000 63 52 52
-0.103497 0.700592 2.274000 58 52 57
-0.103497 0.704573 2.274000 56 48 63
-0.102814 0.703880 2.259000 55 44 53
-0.101494 0.698747 2.230000 59 40 44
-0.100811 0.697925 2.215000 64 41 40
-0.100174 0.697366 2.201000 67 43 37
-0.099537 0.696759 2.187000 70 41 28
-0.098945 0.696423 2.174000 68 57 19
-0.098945 0.700228 2.174000 67 66 10
-0.098308 0.699500 2.160000 72 61 1
-0.097717 0.699048 2.147000 76 58 8
-0.097079 0.698224 2.133000 77 60 15
-0.096488 0.697679 2.120000 79 62 8
-0.095896 0.697090 2.107000 84 71 1
-0.094166 0.688139 2.069000 89 89 2
-0.093620 0.687749 2.057000 95 72 3
-0.093620 0.691350 2.057000 102 89 3
-0.093074 0.690896 2.045000 97 77 3
-0.092528 0.690401 2.033000 92 78 2
-0.091982 0.689863 2.021000 95 73 1
-0.091982 0.693401 2.021000 98 76 1
-0.091436 0.692801 2.009000 107 74 1
-0.090935 0.692505 1.998000 116 77 2
-0.090389 0.691822 1.986000 113 82 3
-0.089888 0.691448 1.975000 110 85 2
-0.089388 0.691035 1.964000 109 87 1
-0.088341 0.686340 1.941000 109 87 1
-0.087385 0.682275 1.920000 105 86 2
-0.086884 0.681708 1.909000 101 84 2
-0.086429 0.681461 1.899000 102 78 2
-0.085929 0.680819 1.888000 104 74 1
-0.085929 0.684124 1.888000 98 72 1
-0.085474 0.683788 1.878000 93 71 11
-0.085474 0.687075 1.878000 90 73 21
-0.085018 0.686686 1.868000 88 71 23
-0.085018 0.689956 1.868000 86 68 26
-0.084108 0.685804 1.848000 84 72 26
-0.083198 0.681582 1.828000 82 68 27
-0.082788 0.681410 1.819000 81 60 30
-0.082333 0.680831 1.809000 79 56 33
-0.081923 0.680595 1.800000 77 51 37
-0.081468 0.679947 1.790000 73 56 42
-0.081059 0.679646 1.781000 68 47 52
-0.080649 0.679313 1.772000 71 55 62
-0.080239 0.678949 1.763000 74 51 55
-0.079830 0.678553 1.754000 71 49 48
-0.166298 0.764969 3.800000 63 50 52
-0.166298 0.771621 3.800000 59 49 51
-0.166298 0.778273 3.800000 65 47 50
-0.164503 0.776456 3.759000 71 46 43
-0.164503 0.783036 3.759000 71 50 36
-0.162709 0.781003 3.718000 72 51 29
-0.161002 0.779251 3.679000 70 53 22
-0.161002 0.785691 3.679000 69 55 28
-0.157633 0.775552 3.602000 69 54 35
-0.156013 0.773826 3.565000 69 51 42
-0.154394 0.771971 3.528000 70 53 50
-0.137546 0.737244 3.143000 87 53 49
-0.136320 0.736129 3.115000 81 51 63
-0.136320 0.741582 3.115000 75 50 61
-0.135095 0.740320 3.087000 74 54 59
-0.133870 0.738960 3.059000 74 50 52
-0.132732 0.737988 3.033000 72 51 45
-0.131550 0.736681 3.006000 71 52 40
-0.131550 0.741943 3.006000 70 50 36
-0.130412 0.740742 2.980000 70 54 35
-0.129318 0.739700 2.955000 70 56 34
-0.128224 0.738571 2.930000 71 51 40
-0.127130 0.737355 2.905000 68 49 46
-0.127130 0.742440 2.905000 65 48 51
-0.126080 0.741349 2.881000 68 46 57
-0.125029 0.740175 2.857000 71 47 56
-0.122973 0.732917 2.810000 72 49 56
-0.122010 0.732059 2.788000 74 51 43
-0.122010 0.736940 2.788000 73 54 30
-0.118203 0.718672 2.701000 73 53 38
-0.118203 0.723400 2.701000 73 48 45
-0.116364 0.716805 2.659000 73 50 43
-0.115489 0.716033 2.639000 70 52 42
-0.114614 0.715191 2.619000 68 49 45
-0.114614 0.719776 2.619000 66 47 49
-0.114614 0.724361 2.619000 64 49 55
-0.113739 0.723379 2.599000 63 53 62
-0.112907 0.722607 2.580000 62 49 55
-0.112032 0.721486 2.560000 63 49 48
-0.111244 0.720863 2.542000 65 49 50
-0.109625 0.714756 2.505000 67 51 53
-0.108050 0.708806 2.469000 69 50 55
-0.108050 0.713128 2.469000 68 49 58
-0.107262 0.712219 2.451000 67 51 57
-0.106518 0.711540 2.434000 67 55 57
-0.105774 0.710801 2.417000 68 52 54
-0.105774 0.715032 2.417000 68 53 51
-0.105030 0.714204 2.400000 68 51 52
-0.104330 0.713616 2.384000 69 47 53
-0.103586 0.712671 2.367000 71 45 47
-0.102886 0.711969 2.351000 69 44 41
-0.101529 0.706642 2.320000 68 47 34
-0.100829 0.705802 2.304000 61 55 28
-0.099516 0.700592 2.274000 55 51 38
-0.098860 0.699925 2.259000 55 39 48
-0.098203 0.699206 2.244000 55 47 37
-0.097590 0.698747 2.230000 58 31 27
-0.096934 0.697925 2.215000 62 49 23
-0.096321 0.697366 2.201000 68 41 19
-0.095709 0.696759 2.187000 74 60 15
-0.095140 0.696423 2.174000 79 72 10
-0.094527 0.695719 2.160000 84 73 5
-0.094527 0.699500 2.160000 86 71 1
-0.093958 0.699048 2.147000 89 68 5
-0.093345 0.698224 2.133000 98 69 9
-0.092777 0.697679 2.120000 107 73 5
-0.092208 0.697090 2.107000 108 89 1
-0.091114 0.692463 2.082000 109 87 2
-0.090019 0.687749 2.057000 112 86 2
-0.090019 0.691350 2.057000 116 87 5
-0.089494 0.690896 2.045000 107 91 8
-0.088969 0.690401 2.033000 98 79 15
-0.088969 0.693960 2.033000 100 75 23
-0.088444 0.693401 2.021000 103 75 19
-0.087919 0.692801 2.009000 113 78 15
-0.087437 0.692505 1.998000 124 73 24
-0.087437 0.696002 1.998000 117 83 33
-0.086431 0.691448 1.975000 111 77 26
-0.085950 0.691035 1.964000 110 92 19
-0.085424 0.690229 1.952000 109 78 15
-0.084024 0.682275 1.920000 105 90 11
-0.083543 0.681708 1.909000 101 75 19
-0.083105 0.681461 1.899000 95 84 27
-0.082624 0.680819 1.888000 89 65 24
-0.082624 0.684124 1.888000 86 56 22
-0.082186 0.683788 1.878000 84 59 29
-0.082186 0.687075 1.878000 77 73 37
-0.081748 0.686686 1.868000 70 61 38
-0.081748 0.689956 1.868000 67 55 39
-0.080873 0.685804 1.848000 65 58 32
-0.079998 0.681582 1.828000 63 57 24
-0.079604 0.681410 1.819000 62 55 31
-0.079166 0.680831 1.809000 59 52 39
-0.078773 0.680595 1.800000 56 49 36
-0.078773 0.683745 1.800000 52 46 33
-0.077941 0.679646 1.781000 49 47 43
-0.077547 0.679313 1.772000 56 47 54
-0.077153 0.678949 1.763000 63 46 41
-0.076759 0.678553 1.754000 64 42 28
-0.159646 0.771621 3.800000 64 50 48
-0.157923 0.769875 3.759000 67 46 49
-0.157923 0.776456 3.759000 70 42 44
-0.157923 0.783036 3.759000 70 50 39
-0.156201 0.781003 3.718000 70 55 26
-0.154562 0.779251 3.679000 67 56 14
-0.152924 0.777362 3.640000 64 59 23
-0.151327 0.775552 3.602000 70 52 33
-0.149773 0.773826 3.565000 76 43 40
-0.149773 0.780067 3.565000 74 49 47
-0.148218 0.778146 3.528000 72 55 47
-0.132044 0.737244 3.143000 82 54 61
-0.130867 0.736129 3.115000 77 53 73
-0.130867 0.741582 3.115000 72 52 65
-0.129691 0.740320 3.087000 69 51 57
-0.128515 0.738960 3.059000 67 47 54
-0.127422 0.737988 3.033000 69 50 51
-0.126288 0.736681 3.006000 72 53 40
-0.125196 0.735525 2.980000 71 52 30
-0.124146 0.734527 2.955000 71 52 30
-0.124146 0.739700 2.955000 70 50 31
-0.123095 0.738571 2.930000 70 49 40
-0.122045 0.737355 2.905000 67 47 49
-0.122045 0.742440 2.905000 65 46 54
-0.121037 0.741349 2.881000 67 46 59
-0.120028 0.740175 2.857000 70 46 57
-0.119062 0.739177 2.834000 71 48 55
-0.117130 0.732059 2.788000 72 49 33
-0.117130 0.736940 2.788000 70 54 11
-0.113475 0.718672 2.701000 68 58 26
-0.113475 0.723400 2.701000 72 52 41
-0.111710 0.716805 2.659000 76 49 40
-0.110870 0.716033 2.639000 72 51 39
-0.110870 0.720653 2.639000 68 52 42
-0.110030 0.719776 2.619000 65 51 46
-0.110030 0.724361 2.619000 62 52 48
-0.109189 0.723379 2.599000 62 51 50
-0.108391 0.722607 2.580000 63 47 46
-0.107551 0.721486 2.560000 65 46 42
-0.106795 0.720863 2.542000 68 48 45
-0.105996 0.719892 2.523000 69 50 49
-0.103728 0.708806 2.469000 70 52 52
-0.102971 0.707929 2.451000 64 50 56
-0.102257 0.707279 2.434000 59 48 60
-0.101543 0.706570 2.417000 60 47 65
-0.101543 0.710801 2.417000 61 49 60
-0.100829 0.710003 2.400000 63 50 56
-0.100829 0.714204 2.400000 66 51 50
-0.100157 0.713616 2.384000 71 46 45
-0.099442 0.712671 2.367000 76 39 43
-0.098770 0.711969 2.351000 75 48 41
-0.098098 0.711211 2.335000 75 39 23
-0.096796 0.705802 2.304000 76 53 5
-0.095535 0.700592 2.274000 78 60 19
-0.094905 0.699925 2.259000 79 62 34
-0.094275 0.699206 2.244000 81 75 22
-0.093057 0.694047 2.215000 84 67 10
-0.092468 0.693513 2.201000 88 83 6
-0.091880 0.692930 2.187000 92 75 2
-0.091880 0.696759 2.187000 96 87 2
-0.091334 0.696423 2.174000 94 81 2
-0.091334 0.700228 2.174000 92 83 1
-0.090746 0.699500 2.160000 92 77 1
-0.090746 0.703281 2.160000 93 74 2
-0.090200 0.702807 2.147000 104 72 4
-0.089066 0.697679 2.120000 115 75 3
-0.088519 0.697090 2.107000 111 81 2
-0.086923 0.688139 2.069000 107 84 2
-0.086419 0.687749 2.057000 108 84 2
-0.086419 0.691350 2.057000 109 82 8
-0.085915 0.690896 2.045000 101 82 14
-0.085410 0.690401 2.033000 93 75 29
-0.084906 0.689863 2.021000 93 72 45
-0.084906 0.693401 2.021000 94 73 37
-0.084402 0.692801 2.009000 95 67 30
-0.083940 0.692505 1.998000 95 55 46
-0.083940 0.696002 1.998000 90 59 63
-0.082974 0.691448 1.975000 85 49 50
-0.082512 0.691035 1.964000 83 56 38
-0.082007 0.690229 1.952000 81 44 29
-0.080201 0.678366 1.909000 78 54 20
-0.079781 0.678137 1.899000 76 42 36
-0.079781 0.681461 1.899000 78 53 53
-0.079319 0.680819 1.888000 80 49 48
-0.079319 0.684124 1.888000 77 46 43
-0.078899 0.683788 1.878000 75 37 48
-0.078899 0.687075 1.878000 71 47 54
-0.078478 0.686686 1.868000 67 47 53
-0.078478 0.689956 1.868000 66 49 53
-0.077638 0.685804 1.848000 66 51 37
-0.076798 0.681582 1.828000 64 51 22
-0.076420 0.681410 1.819000 62 51 33
-0.076000 0.680831 1.809000 60 51 45
-0.075622 0.680595 1.800000 58 50 34
-0.075202 0.679947 1.790000 58 47 24
-0.074823 0.679646 1.781000 58 49 35
-0.074445 0.679313 1.772000 60 48 47
-0.074067 0.678949 1.763000 61 47 28
-0.074067 0.682035 1.763000 63 47 9
-0.154685 0.780149 3.842000 69 50 43
-0.152994 0.778273 3.800000 69 45 27
-0.151343 0.776456 3.759000 69 47 40
-0.151343 0.783036 3.759000 69 54 53
-0.151343 0.789616 3.759000 69 55 30
-0.149692 0.787512 3.718000 64 59 7
-0.148122 0.785691 3.679000 60 58 21
-0.145022 0.775552 3.602000 72 54 35
-0.143532 0.773826 3.565000 84 48 42
-0.143532 0.780067 3.565000 79 47 50
-0.142043 0.778146 3.528000 74 51 52
-0.140633 0.776541 3.493000 75 54 53
-0.140633 0.782656 3.493000 76 54 54
-0.127106 0.740528 3.157000 77 55 50
-0.126542 0.742746 3.143000 73 56 54
-0.125415 0.741582 3.115000 69 53 56
-0.125415 0.747035 3.115000 64 51 58
-0.124287 0.745724 3.087000 60 50 61
-0.122113 0.737988 3.033000 66 51 65
-0.121026 0.736681 3.006000 73 51 54
-0.119979 0.735525 2.980000 73 53 44
-0.119979 0.740742 2.980000 73 49 47
-0.118973 0.739700 2.955000 71 46 51
-0.117966 0.738571 2.930000 69 47 53
-0.116960 0.737355 2.905000 67 47 54
-0.116960 0.742440 2.905000 65 47 55
-0.115993 0.741349 2.881000 67 49 56
-0.115027 0.740175 2.857000 69 48 55
-0.113135 0.732917 2.810000 70 48 54
-0.112249 0.732059 2.788000 71 51 41
-0.112249 0.736940 2.788000 67 58 28
-0.109592 0.724259 2.722000 63 56 37
-0.108746 0.723400 2.701000 71 53 47
-0.107901 0.722467 2.680000 80 50 51
-0.107055 0.721460 2.659000 74 51 55
-0.106250 0.720653 2.639000 69 53 52
-0.105445 0.719776 2.619000 64 53 49
-0.105445 0.724361 2.619000 60 51 49
-0.104640 0.723379 2.599000 62 54 48
-0.103875 0.722607 2.580000 64 47 46
-0.103069 0.721486 2.560000 67 43 43
-0.102345 0.720863 2.542000 71 46 45
-0.102345 0.725313 2.542000 71 51 47
-0.099406 0.708806 2.469000 71 52 40
-0.098681 0.707929 2.451000 61 52 34
-0.098681 0.712219 2.451000 51 50 42
-0.097996 0.711540 2.434000 52 39 51
-0.097312 0.710801 2.417000 54 48 42
-0.097312 0.715032 2.417000 59 47 34
-0.096628 0.714204 2.400000 65 56 31
-0.095983 0.713616 2.384000 73 47 29
-0.095299 0.712671 2.367000 81 58 29
-0.094655 0.711969 2.351000 82 73 29
-0.093407 0.706642 2.320000 83 68 16
-0.092762 0.705802 2.304000 92 60 4
-0.091555 0.700592 2.274000 101 69 27
-0.091555 0.704573 2.274000 104 76 51
-0.090951 0.703880 2.259000 107 77 31
-0.089783 0.698747 2.230000 110 80 12
-0.089179 0.697925 2.215000 114 83 8
-0.088052 0.692930 2.187000 116 89 4
-0.088052 0.696759 2.187000 118 86 6
-0.087528 0.696423 2.174000 109 84 8
-0.086965 0.695719 2.160000 100 82 6
-0.086965 0.699500 2.160000 99 81 4
-0.086965 0.703281 2.160000 98 74 7
-0.086441 0.702807 2.147000 110 70 9
-0.085354 0.697679 2.120000 123 71 13
-0.084831 0.697090 2.107000 114 77 17
-0.083824 0.692463 2.082000 106 73 11
-0.082818 0.687749 2.057000 104 85 6
-0.082818 0.691350 2.057000 103 77 16
-0.082335 0.690896 2.045000 95 83 27
-0.081852 0.690401 2.033000 88 69 36
-0.081852 0.693960 2.033000 87 65 46
-0.081368 0.693401 2.021000 86 63 44
-0.080885 0.692801 2.009000 76 63 42
-0.080442 0.692505 1.998000 67 54 47
-0.079959 0.691822 1.986000 63 51 53
-0.079516 0.691448 1.975000 60 47 47
-0.079074 0.691035 1.964000 57 39 42
-0.079074 0.694473 1.964000 54 44 46
-0.077302 0.682275 1.920000 52 42 49
-0.076457 0.678137 1.899000 51 42 54
-0.076014 0.677514 1.888000 61 40 59
-0.076014 0.680819 1.888000 71 45 52
-0.075611 0.680500 1.878000 69 44 45
-0.075611 0.683788 1.878000 67 41 49
-0.075611 0.687075 1.878000 66 34 53
-0.075208 0.686686 1.868000 65 42 54
-0.075208 0.689956 1.868000 66 45 55
-0.074806 0.689515 1.858000 67 47 50
-0.073598 0.681582 1.828000 64 46 46
-0.073236 0.681410 1.819000 62 50 48
-0.072833 0.680831 1.809000 61 52 50
-0.072471 0.680595 1.800000 60 48 44
-0.072068 0.679947 1.790000 64 46 38
-0.071706 0.679646 1.781000 68 48 50
-0.071343 0.679313 1.772000 64 49 62
-0.071343 0.682415 1.772000 60 50 45
-0.070981 0.682035 1.763000 62 51 28
-0.146342 0.771621 3.800000 71 53 38
-0.146342 0.778273 3.800000 71 50 6
-0.144763 0.776456 3.759000 71 49 37
-0.144763 0.783036 3.759000 71 52 68
-0.143184 0.781003 3.718000 71 54 34
-0.143184 0.787512 3.718000 68 57 1
-0.140180 0.777362 3.640000 66 63 19
-0.138717 0.775552 3.602000 73 55 37
-0.137292 0.773826 3.565000 80 48 45
-0.137292 0.780067 3.565000 77 50 54
-0.135867 0.778146 3.528000 74 51 57
-0.134519 0.776541 3.493000 72 53 60
-0.134519 0.782656 3.493000 69 56 58
-0.122157 0.744047 3.172000 76 56 39
-0.121040 0.742746 3.143000 73 54 35
-0.119962 0.741582 3.115000 70 55 47
-0.119962 0.747035 3.115000 67 52 59
-0.118884 0.745724 3.087000 64 52 69
-0.117805 0.744315 3.059000 69 50 80
-0.115764 0.736681 3.006000 74 49 69
-0.114763 0.735525 2.980000 75 49 58
-0.113800 0.734527 2.955000 76 46 65
-0.113800 0.739700 2.955000 71 46 72
-0.112837 0.738571 2.930000 66 49 66
-0.111874 0.737355 2.905000 67 47 60
-0.110950 0.736306 2.881000 69 46 57
-0.110950 0.741349 2.881000 72 49 54
-0.109140 0.734216 2.834000 76 52 53
-0.108216 0.732917 2.810000 74 50 53
-0.107369 0.732059 2.788000 71 50 49
-0.107369 0.736940 2.788000 69 53 45
-0.104827 0.724259 2.722000 68 57 49
-0.104018 0.723400 2.701000 72 52 54
-0.103210 0.722467 2.680000 77 47 63
-0.101631 0.716033 2.639000 74 52 72
-0.100860 0.715191 2.619000 70 58 62
-0.100860 0.719776 2.619000 64 53 53
-0.100090 0.718829 2.599000 59 47 50
-0.100090 0.723379 2.599000 60 45 47
-0.099358 0.722607 2.580000 62 46 46
-0.098588 0.721486 2.560000 69 47 45
-0.097895 0.720863 2.542000 77 44 45
-0.097163 0.719892 2.523000 78 50 45
-0.095084 0.708806 2.469000 80 54 28
-0.094391 0.707929 2.451000 75 59 12
-0.094391 0.712219 2.451000 71 64 25
-0.093736 0.711540 2.434000 78 58 38
-0.093081 0.710801 2.417000 84 60 25
-0.093081 0.715032 2.417000 85 66 12
-0.092426 0.714204 2.400000 85 79 13
-0.091810 0.713616 2.384000 87 69 14
-0.091156 0.712671 2.367000 89 73 16
-0.090539 0.711969 2.351000 96 78 18
-0.089346 0.706642 2.320000 103 100 10
-0.088729 0.705802 2.304000 106 83 3
-0.087574 0.700592 2.274000 108 81 36
-0.087574 0.704573 2.274000 107 79 69
-0.086996 0.703880 2.259000 107 78 41
-0.085880 0.698747 2.230000 106 81 14
-0.085302 0.697925 2.215000 105 82 10
-0.084224 0.692930 2.187000 105 85 6
-0.084224 0.696759 2.187000 105 84 10
-0.083723 0.696423 2.174000 101 82 15
-0.083184 0.695719 2.160000 97 80 11
-0.083184 0.699500 2.160000 94 75 8
-0.082683 0.699048 2.147000 91 74 11
-0.082683 0.702807 2.147000 94 67 15
-0.081643 0.697679 2.120000 98 64 23
-0.080681 0.693119 2.095000 91 60 32
-0.080180 0.692463 2.082000 84 49 21
-0.079679 0.691761 2.069000 82 61 10
-0.079217 0.691350 2.057000 80 58 25
-0.078755 0.690896 2.045000 76 61 41
-0.078293 0.690401 2.033000 72 54 44
-0.078293 0.693960 2.033000 75 55 47
-0.077831 0.693401 2.021000 79 54 50
-0.077369 0.692801 2.009000 73 52 54
-0.076945 0.692505 1.998000 67 47 48
-0.076945 0.696002 1.998000 66 49 43
-0.076059 0.691448 1.975000 66 50 45
-0.076059 0.694905 1.975000 62 48 47
-0.075636 0.694473 1.964000 59 51 63
-0.073941 0.682275 1.920000 59 46 79
-0.073132 0.678137 1.899000 59 45 72
-0.072709 0.677514 1.888000 63 43 65
-0.072709 0.680819 1.888000 68 47 56
-0.072324 0.680500 1.878000 67 48 47
-0.072324 0.683788 1.878000 67 52 49
-0.071939 0.683416 1.868000 65 45 52
-0.071939 0.686686 1.868000 64 45 55
-0.071553 0.686263 1.858000 64 45 58
-0.071168 0.685804 1.848000 64 47 64
-0.070783 0.685310 1.838000 62 48 70
-0.070398 0.684782 1.828000 60 51 63
-0.070052 0.684594 1.819000 60 50 56
-0.069666 0.683998 1.809000 60 47 54
-0.069320 0.683745 1.800000 62 46 52
-0.068588 0.679646 1.781000 65 48 64
-0.068242 0.679313 1.772000 60 50 77
-0.067895 0.678949 1.763000 55 55 62
-0.067895 0.682035 1.763000 59 53 47
-0.139690 0.778273 3.800000 73 53 22
-0.138183 0.776456 3.759000 74 51 40
-0.138183 0.783036 3.759000 73 52 59
-0.136676 0.781003 3.718000 73 54 40
-0.135242 0.779251 3.679000 72 55 21
-0.135242 0.785691 3.679000 72 57 32
-0.132411 0.775552 3.602000 74 56 44
-0.132411 0.781858 3.602000 76 52 49
-0.131051 0.780067 3.565000 75 55 55
-0.129691 0.778146 3.528000 75 53 61
-0.128405 0.776541 3.493000 69 54 68
-0.128405 0.782656 3.493000 63 54 63
-0.117671 0.745246 3.201000 75 54 60
-0.116604 0.744047 3.172000 76 54 54
-0.115538 0.742746 3.143000 73 51 49
-0.114509 0.741582 3.115000 71 51 52
-0.114509 0.747035 3.115000 69 50 56
-0.113480 0.745724 3.087000 68 51 62
-0.113480 0.751127 3.087000 72 51 68
-0.110502 0.736681 3.006000 76 50 60
-0.109546 0.735525 2.980000 77 48 52
-0.108627 0.734527 2.955000 79 46 59
-0.108627 0.739700 2.955000 71 45 65
-0.106789 0.732269 2.905000 64 46 61
-0.106789 0.737355 2.905000 68 47 57
-0.106789 0.742440 2.905000 73 47 54
-0.105907 0.741349 2.881000 78 50 51
-0.104179 0.734216 2.834000 84 50 49
-0.103297 0.732917 2.810000 78 50 47
-0.102488 0.732059 2.788000 72 49 44
-0.100834 0.725045 2.743000 72 50 42
-0.100062 0.724259 2.722000 73 50 46
-0.099290 0.723400 2.701000 74 52 51
-0.098518 0.722467 2.680000 75 50 56
-0.097746 0.721460 2.659000 73 54 61
-0.097011 0.720653 2.639000 72 56 45
-0.096276 0.719776 2.619000 65 54 30
-0.095541 0.718829 2.599000 58 53 27
-0.094842 0.718090 2.580000 59 33 24
-0.094107 0.717005 2.560000 61 52 24
-0.093445 0.716413 2.542000 72 57 24
-0.093445 0.720863 2.542000 83 59 25
-0.092747 0.719892 2.523000 86 51 25
-0.090762 0.708806 2.469000 89 64 18
-0.090762 0.713128 2.469000 90 68 10
-0.090100 0.712219 2.451000 92 68 24
-0.089475 0.711540 2.434000 103 69 38
-0.088850 0.710801 2.417000 115 72 23
-0.088850 0.715032 2.417000 110 78 9
-0.088850 0.719263 2.417000 106 79 14
-0.088225 0.718405 2.400000 102 78 20
-0.087012 0.712671 2.367000 98 74 19
-0.086424 0.711969 2.351000 111 68 18
-0.085836 0.711211 2.335000 124 80 14
-0.084696 0.705802 2.304000 120 94 11
-0.083593 0.700592 2.274000 116 79 34
-0.083593 0.704573 2.274000 111 81 56
-0.083042 0.703880 2.259000 107 71 45
-0.081976 0.698747 2.230000 101 86 34
-0.081425 0.697925 2.215000 96 75 32
-0.080910 0.697366 2.201000 94 85 30
-0.080395 0.696759 2.187000 92 72 31
-0.079917 0.696423 2.174000 93 82 33
-0.079917 0.700228 2.174000 95 64 29
-0.079403 0.699500 2.160000 90 67 26
-0.078925 0.699048 2.147000 85 65 25
-0.078410 0.698224 2.133000 79 61 24
-0.077932 0.697679 2.120000 73 55 34
-0.076535 0.688818 2.082000 67 51 45
-0.076058 0.688139 2.069000 62 52 44
-0.076058 0.691761 2.069000 59 55 44
-0.075616 0.691350 2.057000 57 53 48
-0.075175 0.690896 2.045000 57 49 53
-0.074734 0.690401 2.033000 57 50 52
-0.074734 0.693960 2.033000 64 49 51
-0.074293 0.693401 2.021000 72 50 58
-0.073852 0.692801 2.009000 69 45 65
-0.073448 0.692505 1.998000 67 46 48
-0.073448 0.696002 1.998000 69 51 31
-0.072602 0.691448 1.975000 72 52 35
-0.072602 0.694905 1.975000 68 55 38
-0.072198 0.694473 1.964000 65 50 52
-0.070176 0.678366 1.909000 66 48 67
-0.069808 0.678137 1.899000 68 46 62
-0.069404 0.677514 1.888000 66 42 57
-0.069404 0.680819 1.888000 65 47 44
-0.069036 0.680500 1.878000 66 50 30
-0.069036 0.683788 1.878000 67 50 45
-0.068669 0.683416 1.868000 65 51 59
-0.068669 0.686686 1.868000 64 47 58
-0.068301 0.686263 1.858000 63 46 57
-0.067933 0.685804 1.848000 62 47 57
-0.067566 0.685310 1.838000 60 49 58
-0.067198 0.684782 1.828000 59 50 57
-0.066867 0.684594 1.819000 59 51 56
-0.066500 0.683998 1.809000 60 47 54
-0.066169 0.683745 1.800000 61 44 52
-0.065471 0.679646 1.781000 63 46 59
-0.065140 0.679313 1.772000 57 48 65
-0.064809 0.678949 1.763000 51 51 57
-0.064809 0.682035 1.763000 56 52 50
-0.133038 0.778273 3.800000 75 52 39
-0.131603 0.776456 3.759000 75 53 44
-0.131603 0.783036 3.759000 75 54 50
-0.130167 0.781003 3.718000 75 55 45
-0.128802 0.779251 3.679000 76 54 41
-0.127436 0.777362 3.640000 77 55 46
-0.126106 0.775552 3.602000 77 52 51
-0.124811 0.773826 3.565000 77 49 53
-0.124811 0.780067 3.565000 77 52 56
-0.123515 0.778146 3.528000 77 53 66
-0.122290 0.776541 3.493000 73 53 77
-0.121065 0.774813 3.458000 69 54 68
-0.117529 0.763936 3.357000 74 58 58
-0.113117 0.752230 3.231000 76 54 77
-0.111052 0.744047 3.172000 76 55 70
-0.110036 0.742746 3.143000 73 52 63
-0.109056 0.741582 3.115000 70 51 58
-0.109056 0.747035 3.115000 70 51 53
-0.109056 0.752488 3.115000 70 51 54
-0.109056 0.757940 3.115000 73 52 56
-0.105240 0.736681 3.006000 76 55 51
-0.104330 0.735525 2.980000 77 50 47
-0.104330 0.740742 2.980000 78 46 53
-0.103455 0.739700 2.955000 73 46 59
-0.102579 0.738571 2.930000 68 46 56
-0.101704 0.737355 2.905000 71 46 54
-0.100864 0.736306 2.881000 75 45 51
-0.100024 0.735173 2.857000 76 50 48
-0.099218 0.734216 2.834000 78 50 44
-0.098378 0.732917 2.810000 74 48 41
-0.097608 0.732059 2.788000 71 47 40
-0.096032 0.725045 2.743000 75 46 39
-0.095297 0.724259 2.722000 79 41 43
-0.094562 0.723400 2.701000 80 50 48
-0.094562 0.728128 2.701000 81 50 49
-0.093827 0.727158 2.680000 81 53 50
-0.092391 0.720653 2.639000 81 58 28
-0.091691 0.719776 2.619000 84 67 7
-0.090991 0.718829 2.599000 86 81 4
-0.090326 0.718090 2.580000 85 67 1
-0.089626 0.717005 2.560000 83 73 2
-0.088995 0.716413 2.542000 88 72 4
-0.088330 0.715475 2.523000 92 84 5
-0.087700 0.714756 2.505000 97 78 6
-0.086440 0.708806 2.469000 103 86 7
-0.085810 0.707929 2.451000 98 79 9
-0.085810 0.712219 2.451000 94 73 24
-0.085214 0.711540 2.434000 102 77 39
-0.084619 0.710801 2.417000 109 84 22
-0.084619 0.715032 2.417000 106 83 6
-0.084024 0.714204 2.400000 104 82 16
-0.083464 0.713616 2.384000 98 81 26
-0.082869 0.712671 2.367000 92 78 22
-0.082309 0.711969 2.351000 96 67 18
-0.081748 0.711211 2.335000 100 61 19
-0.080663 0.705802 2.304000 96 67 20
-0.079613 0.700592 2.274000 92 60 32
-0.079613 0.704573 2.274000 89 57 44
-0.078562 0.699206 2.244000 87 42 49
-0.078072 0.698747 2.230000 87 54 54
-0.077547 0.697925 2.215000 87 49 54
-0.077057 0.697366 2.201000 86 52 54
-0.076567 0.696759 2.187000 84 39 52
-0.076112 0.696423 2.174000 79 48 51
-0.075622 0.695719 2.160000 74 30 48
-0.075622 0.699500 2.160000 76 49 45
-0.075166 0.699048 2.147000 78 60 39
-0.075166 0.702807 2.147000 75 55 34
-0.074221 0.697679 2.120000 72 45 46
-0.072891 0.688818 2.082000 68 50 58
-0.072436 0.688139 2.069000 65 56 68
-0.072436 0.691761 2.069000 62 52 79
-0.072016 0.691350 2.057000 60 50 72
-0.071595 0.690896 2.045000 61 49 65
-0.071175 0.690401 2.033000 62 51 60
-0.071175 0.693960 2.033000 65 51 56
-0.070755 0.693401 2.021000 69 54 66
-0.070335 0.692801 2.009000 66 46 77
-0.069950 0.692505 1.998000 63 43 48
-0.069950 0.696002 1.998000 68 48 20
-0.069530 0.695299 1.986000 74 54 25
-0.069145 0.694905 1.975000 70 52 30
-0.068340 0.690229 1.952000 66 49 42
-0.066834 0.678366 1.909000 69 49 55
-0.066484 0.678137 1.899000 72 50 52
-0.066099 0.677514 1.888000 70 48 50
-0.066099 0.680819 1.888000 68 51 32
-0.065749 0.680500 1.878000 70 50 14
-0.065749 0.683788 1.878000 72 48 40
-0.065749 0.687075 1.878000 69 47 67
-0.065399 0.686686 1.868000 65 46 61
-0.065049 0.686263 1.858000 64 46 56
-0.064698 0.685804 1.848000 63 48 51
-0.064348 0.685310 1.838000 62 49 47
-0.063998 0.684782 1.828000 61 49 51
-0.063683 0.684594 1.819000 62 50 56
-0.063333 0.683998 1.809000 62 49 54
-0.063018 0.683745 1.800000 64 48 53
-0.062353 0.679646 1.781000 66 47 53
-0.062038 0.679313 1.772000 61 50 54
-0.061723 0.678949 1.763000 57 51 53
-0.061408 0.678553 1.754000 61 50 53
-0.118570 0.773826 3.565000 78 50 48
-0.118570 0.780067 3.565000 79 51 47
-0.116176 0.770427 3.493000 80 51 56
-0.115011 0.768760 3.458000 78 52 65
-0.113847 0.766971 3.423000 76 52 60
-0.112750 0.765511 3.390000 76 55 56
-0.111652 0.763936 3.357000 76 59 52
-0.110555 0.762245 3.324000 77 60 49
-0.108493 0.753737 3.262000 79 55 55
-0.107462 0.752230 3.231000 77 54 61
-0.106464 0.750849 3.201000 76 54 61
-0.104535 0.742746 3.143000 72 52 61
-0.103603 0.741582 3.115000 69 52 57
-0.103603 0.747035 3.115000 71 53 53
-0.103603 0.752488 3.115000 73 51 51
-0.103603 0.757940 3.115000 74 54 50
-0.100876 0.743297 3.033000 76 51 45
-0.099113 0.735525 2.980000 76 52 41
-0.098282 0.734527 2.955000 77 48 48
-0.097450 0.733442 2.930000 75 47 56
-0.096619 0.732269 2.905000 73 47 53
-0.096619 0.737355 2.905000 75 47 51
-0.095821 0.736306 2.881000 77 49 44
-0.095022 0.735173 2.857000 74 58 37
-0.094258 0.734216 2.834000 72 56 31
-0.093459 0.732917 2.810000 71 45 24
-0.092728 0.732059 2.788000 70 53 22
-0.091231 0.725045 2.743000 78 48 20
-0.090532 0.724259 2.722000 86 58 24
-0.089834 0.723400 2.701000 86 57 29
-0.089834 0.728128 2.701000 87 60 28
-0.089136 0.727158 2.680000 89 50 28
-0.088437 0.726115 2.659000 91 63 17
-0.087772 0.725272 2.639000 103 75 7
-0.087107 0.724361 2.619000 115 79 4
-0.085810 0.718090 2.580000 110 82 1
-0.085144 0.717005 2.560000 106 77 4
-0.084546 0.716413 2.542000 104 77 8
-0.084546 0.720863 2.542000 102 79 15
-0.083914 0.719892 2.523000 109 92 22
-0.082118 0.708806 2.469000 117 81 25
-0.081519 0.707929 2.451000 107 90 27
-0.081519 0.712219 2.451000 97 77 36
-0.080954 0.711540 2.434000 100 85 46
-0.080388 0.710801 2.417000 104 77 37
-0.080388 0.715032 2.417000 103 88 29
-0.079823 0.714204 2.400000 102 76 34
-0.079823 0.718405 2.400000 94 86 38
-0.078725 0.712671 2.367000 86 70 34
-0.078193 0.711969 2.351000 81 63 29
-0.077661 0.711211 2.335000 76 58 30
-0.077162 0.710703 2.320000 72 54 31
-0.075632 0.700592 2.274000 69 51 39
-0.075133 0.699925 2.259000 68 45 47
-0.074634 0.699206 2.244000 67 43 49
-0.074169 0.698747 2.230000 73 42 51
-0.073670 0.697925 2.215000 79 43 47
-0.073670 0.701802 2.215000 78 36 44
-0.073204 0.701219 2.201000 77 41 45
-0.072739 0.700587 2.187000 65 42 47
-0.071841 0.695719 2.160000 53 42 41
-0.071841 0.699500 2.160000 62 41 36
-0.071408 0.699048 2.147000 71 52 38
