ply
format ascii 1.0
element vertex 1292
property float x
property float y
property float z
property uchar red
property uchar green
property uchar blue
end_header
-0.310108 0.669342 1.754000 83 66 91
-0.308517 0.668962 1.745000 87 65 94
-0.306926 0.668551 1.736000 91 63 99
-0.305511 0.668495 1.728000 89 63 104
-0.302506 0.664914 1.711000 88 63 98
-0.624053 0.748864 3.565000 77 40 53
-0.624053 0.755105 3.565000 78 38 40
-0.617576 0.753443 3.528000 80 42 43
-0.611450 0.752083 3.493000 73 45 47
-0.605323 0.750601 3.458000 67 47 43
-0.560335 0.734039 3.201000 74 39 54
-0.555259 0.732942 3.172000 74 42 50
-0.550182 0.731743 3.143000 70 44 46
-0.535478 0.728250 3.059000 80 47 49
-0.526200 0.720895 3.006000 74 46 56
-0.526200 0.726157 3.006000 68 46 55
-0.521649 0.725092 2.980000 69 51 54
-0.517273 0.724182 2.955000 70 51 50
-0.517273 0.729355 2.955000 70 51 46
-0.512897 0.728313 2.930000 69 53 57
-0.508520 0.727184 2.905000 73 52 69
-0.504319 0.726220 2.881000 77 51 74
-0.500118 0.725171 2.857000 80 49 79
-0.500118 0.730172 2.857000 83 49 70
-0.491891 0.723079 2.810000 81 48 62
-0.484013 0.716340 2.765000 80 51 61
-0.476486 0.709964 2.722000 78 53 60
-0.472810 0.709215 2.701000 76 56 63
-0.469134 0.708392 2.680000 74 58 67
-0.469134 0.713084 2.680000 72 56 67
-0.469134 0.717775 2.680000 76 54 67
-0.465458 0.716805 2.659000 80 54 67
-0.458456 0.710607 2.619000 78 54 68
-0.454955 0.709730 2.599000 76 54 69
-0.451629 0.709058 2.580000 73 49 71
-0.448128 0.708042 2.560000 70 45 61
-0.444977 0.707514 2.542000 74 48 52
-0.441651 0.706642 2.523000 79 48 57
-0.438500 0.705986 2.505000 75 50 63
-0.435349 0.705266 2.487000 72 53 69
-0.432198 0.704484 2.469000 75 52 76
-0.432198 0.708806 2.469000 78 47 74
-0.429048 0.707929 2.451000 78 50 73
-0.426072 0.707279 2.434000 78 57 71
-0.423096 0.706570 2.417000 78 55 70
-0.414343 0.696097 2.367000 79 56 72
-0.411543 0.695507 2.351000 77 55 74
-0.406116 0.690397 2.320000 75 59 72
-0.406116 0.694459 2.320000 79 59 70
-0.403315 0.693702 2.304000 83 60 77
-0.400689 0.693193 2.289000 80 58 85
-0.398064 0.692631 2.274000 77 56 80
-0.395438 0.692017 2.259000 78 54 76
-0.392812 0.691350 2.244000 79 57 75
-0.390362 0.690940 2.230000 81 57 74
-0.387736 0.690170 2.215000 84 56 71
-0.385285 0.689660 2.201000 80 58 68
-0.380559 0.685006 2.174000 77 60 60
-0.378108 0.684376 2.160000 76 60 53
-0.375832 0.684015 2.147000 76 59 72
-0.373382 0.683289 2.133000 78 62 91
-0.368830 0.678648 2.107000 80 68 84
-0.368830 0.682336 2.107000 77 64 78
-0.366730 0.682117 2.095000 75 64 78
-0.366730 0.685785 2.095000 78 62 78
-0.364454 0.685174 2.082000 82 61 83
-0.362178 0.684517 2.069000 81 63 88
-0.360078 0.684148 2.057000 81 65 84
-0.360078 0.687749 2.057000 82 64 81
-0.357977 0.687316 2.045000 84 64 84
-0.353776 0.682788 2.021000 82 61 87
-0.349750 0.678515 1.998000 81 61 84
-0.345724 0.674161 1.975000 83 60 82
-0.343798 0.673845 1.964000 84 63 82
-0.343798 0.677283 1.964000 83 63 83
-0.341698 0.676561 1.952000 82 67 83
-0.339772 0.676147 1.941000 87 64 84
-0.338022 0.676043 1.931000 92 66 82
-0.338022 0.679423 1.931000 87 63 80
-0.336096 0.678914 1.920000 82 65 80
-0.332420 0.674813 1.899000 84 60 81
-0.328744 0.670638 1.878000 87 60 82
-0.328744 0.673925 1.878000 88 61 83
-0.326993 0.673607 1.868000 90 57 77
-0.325243 0.673253 1.858000 87 58 72
-0.325243 0.676505 1.858000 85 65 78
-0.321742 0.672441 1.838000 84 63 84
-0.318416 0.668674 1.819000 83 60 94
-0.316665 0.668164 1.809000 79 57 105
-0.315090 0.667991 1.800000 75 58 92
-0.313340 0.667413 1.790000 81 62 79
-0.313340 0.670547 1.790000 87 67 84
-0.310189 0.666906 1.772000 87 64 89
-0.308613 0.666605 1.763000 87 65 91
-0.307038 0.666272 1.754000 86 65 94
-0.307038 0.669342 1.754000 85 68 96
-0.305462 0.668962 1.745000 87 66 99
-0.303887 0.668551 1.736000 89 62 105
-0.302486 0.668495 1.728000 89 61 112
-0.299511 0.664914 1.711000 88 62 106
-0.624225 0.756636 3.602000 77 40 49
-0.617813 0.755105 3.565000 81 38 43
-0.611401 0.753443 3.528000 86 41 45
-0.605335 0.752083 3.493000 79 46 47
-0.599270 0.750601 3.458000 73 44 49
-0.570675 0.737843 3.293000 73 46 50
-0.559931 0.729607 3.231000 66 44 57
-0.554732 0.728436 3.201000 60 40 56
-0.554732 0.734039 3.201000 66 34 55
-0.549706 0.732942 3.172000 72 43 49
-0.549706 0.738494 3.172000 66 51 44
-0.539828 0.730676 3.115000 60 47 45
-0.534976 0.729512 3.087000 72 46 45
-0.525618 0.722060 3.033000 84 46 55
-0.520938 0.720895 3.006000 74 46 66
-0.520938 0.726157 3.006000 64 48 60
-0.520938 0.731419 3.006000 66 54 55
-0.512100 0.724182 2.955000 68 52 53
-0.512100 0.729355 2.955000 67 50 52
-0.507768 0.728313 2.930000 66 53 58
-0.499276 0.721176 2.881000 71 55 64
-0.499276 0.726220 2.881000 76 51 68
-0.495117 0.725171 2.857000 81 52 73
-0.495117 0.730172 2.857000 86 50 67
-0.486972 0.723079 2.810000 83 50 61
-0.479173 0.716340 2.765000 80 50 56
-0.471721 0.709964 2.722000 78 52 51
-0.468082 0.709215 2.701000 76 56 56
-0.464443 0.708392 2.680000 75 61 62
-0.464443 0.713084 2.680000 74 56 62
-0.464443 0.717775 2.680000 79 52 63
-0.460803 0.716805 2.659000 85 52 67
-0.453872 0.710607 2.619000 79 54 71
-0.453872 0.715191 2.619000 74 53 76
-0.450406 0.714279 2.599000 71 49 82
-0.443647 0.708042 2.560000 68 49 71
-0.440527 0.707514 2.542000 73 54 60
-0.437235 0.706642 2.523000 79 50 64
-0.437235 0.711058 2.523000 73 47 69
-0.434115 0.710371 2.505000 68 51 72
-0.430996 0.709620 2.487000 74 55 76
-0.427877 0.708806 2.469000 80 51 79
-0.424757 0.707929 2.451000 79 50 82
-0.424757 0.712219 2.451000 78 54 77
-0.418865 0.706570 2.417000 79 56 72
-0.410200 0.696097 2.367000 80 54 72
-0.407427 0.695507 2.351000 81 54 73
-0.402055 0.690397 2.320000 82 56 69
-0.402055 0.694459 2.320000 86 56 66
-0.399282 0.693702 2.304000 90 57 72
-0.396683 0.693193 2.289000 83 58 78
-0.394083 0.692631 2.274000 77 54 78
-0.391484 0.692017 2.259000 79 52 77
-0.388884 0.691350 2.244000 81 55 74
-0.386458 0.690940 2.230000 85 58 71
-0.383859 0.690170 2.215000 89 60 70
-0.381432 0.689660 2.201000 83 62 69
-0.376753 0.685006 2.174000 78 60 66
-0.374327 0.684376 2.160000 82 60 63
-0.372074 0.684015 2.147000 87 60 74
-0.369648 0.683289 2.133000 84 62 85
-0.365142 0.678648 2.107000 82 63 82
-0.365142 0.682336 2.107000 80 62 79
-0.363063 0.682117 2.095000 79 62 78
-0.360810 0.681529 2.082000 82 61 78
-0.360810 0.685174 2.082000 85 62 81
-0.358557 0.684517 2.069000 87 64 85
-0.356477 0.684148 2.057000 90 63 84
-0.354398 0.683737 2.045000 87 67 83
-0.354398 0.687316 2.045000 84 64 84
-0.350238 0.682788 2.021000 81 62 85
-0.344173 0.674440 1.986000 78 59 84
-0.342267 0.674161 1.975000 82 55 84
-0.340360 0.673845 1.964000 86 60 85
-0.338281 0.673144 1.952000 86 64 87
-0.336374 0.672749 1.941000 87 67 86
-0.334641 0.672663 1.931000 92 64 84
-0.334641 0.676043 1.931000 97 63 86
-0.332735 0.675553 1.920000 88 62 88
-0.332735 0.678914 1.920000 80 61 79
-0.329096 0.674813 1.899000 83 56 70
-0.327190 0.674209 1.888000 87 59 79
-0.325457 0.673925 1.878000 88 64 89
-0.323724 0.673607 1.868000 89 59 82
-0.321991 0.673253 1.858000 88 55 76
-0.321991 0.676505 1.858000 87 61 79
-0.316792 0.668782 1.828000 85 63 82
-0.315232 0.668674 1.819000 84 59 88
-0.311939 0.664840 1.800000 84 55 93
-0.311939 0.667991 1.800000 84 58 86
-0.310206 0.667413 1.790000 87 60 79
-0.308647 0.667175 1.781000 91 61 82
-0.307087 0.666906 1.772000 90 61 86
-0.305527 0.666605 1.763000 89 62 90
-0.303967 0.666272 1.754000 88 66 94
-0.303967 0.669342 1.754000 87 68 95
-0.302408 0.668962 1.745000 87 71 96
-0.302408 0.672017 1.745000 88 64 101
-0.300848 0.671590 1.736000 88 59 106
-0.297902 0.668022 1.719000 89 60 105
-0.611572 0.748864 3.565000 74 42 46
-0.605225 0.747268 3.528000 78 40 46
-0.599221 0.745969 3.493000 81 38 46
-0.599221 0.752083 3.493000 77 39 47
-0.593216 0.750601 3.458000 73 41 56
-0.593216 0.756654 3.458000 74 43 66
-0.587212 0.754987 3.423000 76 45 57
-0.564911 0.737843 3.293000 75 46 62
-0.554275 0.729607 3.231000 75 44 75
-0.549128 0.728436 3.201000 76 40 65
-0.549128 0.734039 3.201000 75 40 56
-0.544153 0.732942 3.172000 75 45 49
-0.539178 0.731743 3.143000 70 49 43
-0.534375 0.730676 3.115000 66 51 46
-0.529572 0.729512 3.087000 72 48 49
-0.520308 0.722060 3.033000 79 47 62
-0.515676 0.720895 3.006000 73 46 76
-0.515676 0.726157 3.006000 68 46 66
-0.515676 0.731419 3.006000 69 51 56
-0.506927 0.724182 2.955000 70 53 57
-0.506927 0.729355 2.955000 69 51 58
-0.502639 0.728313 2.930000 69 56 58
-0.494233 0.721176 2.881000 72 51 59
-0.490116 0.720170 2.857000 76 48 63
-0.490116 0.725171 2.857000 79 48 67
-0.490116 0.730172 2.857000 82 49 64
-0.486170 0.729255 2.834000 80 49 61
-0.478279 0.722299 2.788000 79 48 52
-0.466956 0.709964 2.722000 76 52 43
-0.463354 0.709215 2.701000 74 57 50
-0.459751 0.708392 2.680000 70 57 57
-0.459751 0.713084 2.680000 66 55 58
-0.456149 0.712151 2.659000 73 52 59
-0.452718 0.711414 2.639000 79 49 66
-0.449287 0.710607 2.619000 77 53 74
-0.445856 0.709730 2.599000 75 56 84
-0.445856 0.714279 2.599000 74 51 94
-0.439165 0.708042 2.560000 74 50 81
-0.436078 0.707514 2.542000 79 50 68
-0.432818 0.706642 2.523000 85 51 71
-0.426642 0.700913 2.487000 80 48 75
-0.426642 0.705266 2.487000 74 49 76
-0.423554 0.704484 2.469000 78 53 77
-0.420467 0.703638 2.451000 82 54 84
-0.420467 0.707929 2.451000 80 53 92
-0.417550 0.707279 2.434000 79 56 83
-0.414634 0.706570 2.417000 80 55 74
-0.406056 0.696097 2.367000 80 52 73
-0.400567 0.690774 2.335000 80 56 72
-0.400567 0.694861 2.335000 80 58 67
-0.397994 0.694459 2.320000 82 56 63
-0.395249 0.693702 2.304000 84 55 67
-0.392676 0.693193 2.289000 79 56 72
-0.390102 0.692631 2.274000 74 53 75
-0.387529 0.692017 2.259000 77 53 79
-0.384956 0.691350 2.244000 80 56 74
-0.379981 0.686292 2.215000 81 59 69
-0.377579 0.685808 2.201000 83 64 70
-0.377579 0.689660 2.201000 80 60 71
-0.372947 0.685006 2.174000 78 58 72
-0.370546 0.684376 2.160000 81 59 74
-0.368316 0.684015 2.147000 84 60 77
-0.365914 0.683289 2.133000 82 62 80
-0.361454 0.678648 2.107000 81 60 80
-0.361454 0.682336 2.107000 80 62 80
-0.359395 0.682117 2.095000 79 63 79
-0.359395 0.685785 2.095000 82 61 78
-0.357165 0.685174 2.082000 85 64 80
-0.354935 0.684517 2.069000 86 63 82
-0.352876 0.684148 2.057000 86 58 83
-0.352876 0.687749 2.057000 85 63 85
-0.350818 0.687316 2.045000 84 63 84
-0.348759 0.686842 2.033000 82 61 84
-0.342755 0.678515 1.998000 81 61 85
-0.340696 0.677916 1.986000 84 58 86
-0.338809 0.677619 1.975000 87 58 89
-0.334864 0.673144 1.952000 86 67 92
-0.332977 0.672749 1.941000 86 75 88
-0.331261 0.672663 1.931000 89 67 85
-0.331261 0.676043 1.931000 91 63 91
-0.329374 0.675553 1.920000 87 62 97
-0.329374 0.678914 1.920000 82 61 78
-0.327487 0.678366 1.909000 86 60 59
-0.325772 0.678137 1.899000 90 59 77
-0.322169 0.673925 1.878000 89 61 95
-0.320454 0.673607 1.868000 88 62 87
-0.318738 0.673253 1.858000 89 60 80
-0.315307 0.669223 1.838000 90 63 80
-0.313592 0.668782 1.828000 87 62 81
-0.312048 0.668674 1.819000 85 60 81
-0.310332 0.668164 1.809000 85 59 82
-0.308788 0.667991 1.800000 86 61 80
-0.307073 0.667413 1.790000 90 60 79
-0.305529 0.667175 1.781000 95 59 81
-0.303985 0.666906 1.772000 92 59 84
-0.303985 0.670007 1.772000 88 59 89
-0.302441 0.669691 1.763000 87 63 95
-0.300897 0.669342 1.754000 86 67 94
-0.300039 0.670496 1.749000 86 68 94
-0.299353 0.672017 1.745000 87 66 97
-0.297809 0.671590 1.736000 89 63 101
-0.294893 0.668022 1.719000 91 63 105
-0.599049 0.747268 3.528000 74 43 48
-0.593106 0.745969 3.493000 77 40 41
-0.593106 0.752083 3.493000 75 34 35
-0.587163 0.750601 3.458000 74 39 44
-0.587163 0.756654 3.458000 75 44 52
-0.581220 0.754987 3.423000 76 46 48
-0.564410 0.738970 3.324000 77 46 44
-0.564410 0.744789 3.324000 78 47 54
-0.553883 0.736607 3.262000 85 47 64
-0.548619 0.735263 3.231000 92 43 59
-0.543525 0.734039 3.201000 85 43 54
-0.538601 0.732942 3.172000 78 48 48
-0.533677 0.731743 3.143000 75 52 42
-0.528922 0.730676 3.115000 72 51 44
-0.524168 0.729512 3.087000 73 49 46
-0.514999 0.722060 3.033000 74 48 52
-0.510414 0.720895 3.006000 73 45 59
-0.510414 0.726157 3.006000 72 48 53
-0.510414 0.731419 3.006000 72 52 47
-0.501755 0.724182 2.955000 72 50 50
-0.501755 0.729355 2.955000 72 47 53
-0.493265 0.722099 2.905000 73 49 49
-0.489190 0.721176 2.881000 74 45 44
-0.485114 0.720170 2.857000 76 45 53
-0.485114 0.725171 2.857000 77 44 62
-0.485114 0.730172 2.857000 79 48 64
-0.481209 0.729255 2.834000 78 49 66
-0.473398 0.722299 2.788000 78 50 59
-0.462192 0.709964 2.722000 75 51 51
-0.458626 0.709215 2.701000 72 55 55
-0.458626 0.713943 2.701000 65 56 60
-0.455060 0.713084 2.680000 59 55 57
-0.455060 0.717775 2.680000 66 53 55
-0.451494 0.716805 2.659000 74 49 62
-0.444702 0.710607 2.619000 75 53 70
-0.444702 0.715191 2.619000 76 54 75
-0.441306 0.714279 2.599000 78 51 81
-0.434684 0.708042 2.560000 80 51 71
-0.431628 0.707514 2.542000 86 48 61
-0.425345 0.701601 2.505000 92 49 65
-0.422289 0.700913 2.487000 86 47 69
-0.419233 0.700162 2.469000 81 51 70
-0.419233 0.704484 2.469000 82 55 72
-0.416176 0.703638 2.451000 84 53 72
-0.416176 0.707929 2.451000 82 54 72
-0.413290 0.707279 2.434000 81 55 68
-0.407516 0.701601 2.400000 81 58 65
-0.401913 0.696097 2.367000 81 57 62
-0.399196 0.695507 2.351000 80 62 59
-0.396480 0.694861 2.335000 79 59 50
-0.393933 0.694459 2.320000 79 56 41
-0.391216 0.693702 2.304000 79 58 54
-0.388669 0.693193 2.289000 75 60 67
-0.386122 0.692631 2.274000 72 55 72
-0.383575 0.692017 2.259000 75 53 78
-0.381028 0.691350 2.244000 79 56 72
-0.376104 0.686292 2.215000 78 60 66
-0.373727 0.685808 2.201000 78 60 69
-0.371349 0.685274 2.187000 78 56 73
-0.369142 0.685006 2.174000 78 58 74
-0.366765 0.684376 2.160000 80 60 76
-0.364557 0.684015 2.147000 82 63 76
-0.362180 0.683289 2.133000 81 66 77
-0.359973 0.682835 2.120000 80 63 80
-0.357765 0.682336 2.107000 79 63 83
-0.355728 0.682117 2.095000 79 62 72
-0.355728 0.685785 2.095000 82 59 62
-0.353521 0.685174 2.082000 86 63 71
-0.351313 0.684517 2.069000 84 69 81
-0.349276 0.684148 2.057000 83 64 82
-0.347238 0.683737 2.045000 83 64 84
-0.345200 0.683283 2.033000 84 62 85
-0.343163 0.682788 2.021000 84 59 86
-0.339257 0.678515 1.998000 84 61 79
-0.335352 0.674161 1.975000 86 60 73
-0.333484 0.673845 1.964000 88 63 78
-0.331447 0.673144 1.952000 87 72 83
-0.331447 0.676561 1.952000 86 72 75
-0.329579 0.676147 1.941000 86 69 68
-0.327881 0.676043 1.931000 86 66 79
-0.326013 0.675553 1.920000 85 64 91
-0.324145 0.675024 1.909000 85 64 80
-0.322447 0.674813 1.899000 89 65 70
-0.320580 0.674209 1.888000 93 62 78
-0.318882 0.673925 1.878000 90 60 86
-0.317184 0.673607 1.868000 88 64 84
-0.315486 0.673253 1.858000 91 63 82
-0.312090 0.669223 1.838000 94 64 81
-0.310392 0.668782 1.828000 90 64 81
-0.310392 0.671982 1.828000 86 63 77
-0.307166 0.668164 1.809000 87 62 74
-0.305637 0.667991 1.800000 88 64 75
-0.303939 0.667413 1.790000 94 60 77
-0.303939 0.670547 1.790000 100 60 81
-0.300883 0.666906 1.772000 94 60 85
-0.299355 0.666605 1.763000 88 60 88
-0.299355 0.669691 1.763000 86 60 92
-0.297827 0.669342 1.754000 85 66 86
-0.297827 0.672413 1.754000 86 71 81
-0.296298 0.672017 1.745000 87 67 89
-0.294770 0.671590 1.736000 90 64 97
-0.291884 0.668022 1.719000 94 65 100
-0.592874 0.747268 3.528000 73 45 50
-0.586992 0.745969 3.493000 74 46 37
-0.586992 0.752083 3.493000 74 40 24
-0.581110 0.750601 3.458000 74 38 31
-0.581110 0.756654 3.458000 75 45 39
-0.575228 0.754987 3.423000 75 50 39
-0.569683 0.753643 3.390000 75 50 39
-0.558592 0.744789 3.324000 74 50 46
-0.548173 0.736607 3.262000 79 46 53
-0.542963 0.735263 3.231000 84 43 52
-0.537922 0.734039 3.201000 76 45 52
-0.533048 0.732942 3.172000 68 54 46
-0.528175 0.731743 3.143000 69 53 41
-0.523470 0.730676 3.115000 70 53 42
-0.518764 0.729512 3.087000 72 51 43
-0.509690 0.722060 3.033000 73 52 42
-0.505152 0.720895 3.006000 72 49 42
-0.505152 0.726157 3.006000 70 49 40
-0.505152 0.731419 3.006000 68 51 39
-0.496582 0.724182 2.955000 66 50 44
-0.492381 0.723184 2.930000 71 50 49
-0.488180 0.722099 2.905000 76 51 39
-0.484146 0.721176 2.881000 79 48 30
-0.480113 0.720170 2.857000 82 44 43
-0.480113 0.725171 2.857000 81 47 57
-0.476248 0.724294 2.834000 80 52 64
-0.472215 0.723079 2.810000 78 52 72
-0.464653 0.716340 2.765000 77 53 66
-0.457427 0.709964 2.722000 76 54 60
-0.453898 0.709215 2.701000 75 57 61
-0.453898 0.713943 2.701000 70 56 63
-0.450369 0.713084 2.680000 66 58 57
-0.446840 0.712151 2.659000 72 52 51
-0.446840 0.716805 2.659000 78 44 58
-0.440118 0.710607 2.619000 76 51 66
-0.436757 0.709730 2.599000 74 56 67
-0.433564 0.709058 2.580000 73 54 68
-0.430203 0.708042 2.560000 72 55 61
-0.423985 0.702226 2.523000 78 52 54
-0.420960 0.701601 2.505000 85 50 58
-0.417936 0.700913 2.487000 80 52 63
-0.414911 0.700162 2.469000 75 53 65
-0.414911 0.704484 2.469000 82 52 68
-0.411886 0.703638 2.451000 90 50 60
-0.411886 0.707929 2.451000 85 53 52
-0.409029 0.707279 2.434000 81 55 54
-0.400627 0.696923 2.384000 80 56 56
-0.397770 0.696097 2.367000 80 56 51
-0.395081 0.695507 2.351000 78 59 47
-0.392392 0.694861 2.335000 76 62 33
-0.389872 0.694459 2.320000 78 61 20
-0.389872 0.698520 2.320000 81 64 41
-0.387183 0.697735 2.304000 77 61 62
-0.384662 0.697200 2.289000 74 56 69
-0.382141 0.696612 2.274000 76 56 77
-0.377100 0.691350 2.244000 79 58 70
-0.372226 0.686292 2.215000 78 59 63
-0.369874 0.685808 2.201000 78 61 69
-0.367521 0.685274 2.187000 78 60 76
-0.365336 0.685006 2.174000 78 61 77
-0.362984 0.684376 2.160000 78 63 78
-0.360799 0.684015 2.147000 78 67 76
-0.360799 0.687773 2.147000 79 66 75
-0.356262 0.682835 2.120000 80 66 80
-0.356262 0.686546 2.120000 80 64 86
-0.354077 0.686025 2.107000 80 64 66
-0.352061 0.685785 2.095000 82 62 46
-0.349876 0.685174 2.082000 84 62 63
-0.347691 0.684517 2.069000 80 65 81
-0.345675 0.684148 2.057000 77 68 82
-0.343658 0.683737 2.045000 80 64 83
-0.341642 0.683283 2.033000 83 62 85
-0.339625 0.682788 2.021000 81 63 88
-0.335760 0.678515 1.998000 79 66 74
-0.333743 0.677916 1.986000 82 64 61
-0.330046 0.673845 1.964000 85 63 67
-0.330046 0.677283 1.964000 83 69 74
-0.328030 0.676561 1.952000 82 73 62
-0.326181 0.676147 1.941000 84 70 51
-0.324501 0.676043 1.931000 86 69 68
-0.322652 0.675553 1.920000 84 66 86
-0.320804 0.675024 1.909000 82 68 83
-0.319123 0.674813 1.899000 85 65 81
-0.317275 0.674209 1.888000 89 64 79
-0.315594 0.673925 1.878000 83 66 78
-0.313914 0.673607 1.868000 78 71 81
-0.313914 0.676876 1.868000 84 65 85
-0.308872 0.669223 1.838000 90 66 83
-0.307192 0.668782 1.828000 85 66 81
-0.307192 0.671982 1.828000 81 66 73
-0.303999 0.668164 1.809000 84 67 66
-0.302486 0.667991 1.800000 87 73 71
-0.300806 0.667413 1.790000 89 66 76
-0.299294 0.667175 1.781000 91 62 81
-0.297781 0.666906 1.772000 89 63 86
-0.296269 0.666605 1.763000 88 64 87
-0.296269 0.669691 1.763000 88 66 89
-0.294756 0.669342 1.754000 89 69 78
-0.293244 0.668962 1.745000 85 69 68
-0.293244 0.672017 1.745000 82 69 81
-0.291731 0.671590 1.736000 86 68 94
-0.288875 0.668022 1.719000 90 69 96
-0.586698 0.747268 3.528000 71 44 56
-0.580877 0.745969 3.493000 72 43 54
-0.580877 0.752083 3.493000 73 42 51
-0.575057 0.750601 3.458000 75 43 46
-0.569236 0.748995 3.423000 75 50 40
-0.569236 0.754987 3.423000 75 52 42
-0.563749 0.753643 3.390000 73 54 44
-0.558261 0.752183 3.357000 71 51 51
-0.547618 0.743607 3.293000 73 47 59
-0.542463 0.742317 3.262000 76 44 57
-0.532318 0.734039 3.201000 67 42 55
-0.527496 0.732942 3.172000 59 48 50
-0.518017 0.725224 3.115000 64 55 45
-0.513360 0.724108 3.087000 69 54 44
-0.508704 0.722896 3.059000 71 51 44
-0.508704 0.728250 3.059000 73 51 43
-0.504380 0.727370 3.033000 71 51 43
-0.499890 0.726157 3.006000 69 50 33
-0.499890 0.731419 3.006000 64 53 23
-0.491409 0.724182 2.955000 60 52 37
-0.483094 0.717014 2.905000 69 52 51
-0.483094 0.722099 2.905000 79 53 44
-0.479103 0.721176 2.881000 84 53 38
-0.475112 0.720170 2.857000 89 48 46
-0.471287 0.719333 2.834000 85 49 55
-0.471287 0.724294 2.834000 81 53 63
-0.463637 0.717418 2.788000 79 56 71
-0.459813 0.716340 2.765000 77 54 71
-0.452662 0.709964 2.722000 77 57 72
-0.449170 0.709215 2.701000 78 56 69
-0.449170 0.713943 2.701000 75 56 67
-0.445677 0.713084 2.680000 73 56 61
-0.442185 0.712151 2.659000 78 56 56
-0.442185 0.716805 2.659000 83 52 65
-0.435533 0.710607 2.619000 77 54 74
-0.432207 0.709730 2.599000 72 55 72
-0.429048 0.709058 2.580000 68 56 70
-0.422728 0.703064 2.542000 64 55 66
-0.416575 0.697216 2.505000 71 56 62
-0.413582 0.696559 2.487000 78 55 63
-0.413582 0.700913 2.487000 74 58 64
-0.410589 0.700162 2.469000 70 54 67
-0.410589 0.704484 2.469000 83 50 69
-0.407595 0.703638 2.451000 96 50 66
-0.407595 0.707929 2.451000 89 53 63
-0.404768 0.707279 2.434000 82 54 62
-0.396453 0.696923 2.384000 80 56 60
-0.390965 0.691392 2.351000 79 58 56
-0.388305 0.690774 2.335000 76 57 51
-0.388305 0.694861 2.335000 74 61 44
-0.385810 0.694459 2.320000 78 65 37
-0.385810 0.698520 2.320000 83 64 51
-0.380655 0.693193 2.289000 80 64 64
-0.378161 0.692631 2.274000 77 58 70
-0.375666 0.692017 2.259000 78 58 75
-0.373172 0.691350 2.244000 79 58 70
-0.370843 0.690940 2.230000 79 59 65
-0.368349 0.690170 2.215000 79 60 70
-0.366021 0.689660 2.201000 79 63 75
-0.359203 0.680595 2.160000 79 63 79
-0.359203 0.684376 2.160000 77 65 82
-0.357041 0.684015 2.147000 75 63 71
-0.354713 0.683289 2.133000 77 65 61
-0.352551 0.682835 2.120000 80 65 69
-0.352551 0.686546 2.120000 80 65 78
-0.350389 0.686025 2.107000 81 65 67
-0.348393 0.685785 2.095000 81 63 57
-0.346231 0.685174 2.082000 82 62 69
-0.344070 0.684517 2.069000 76 62 82
-0.342074 0.684148 2.057000 71 65 82
-0.340078 0.683737 2.045000 76 65 81
-0.338083 0.683283 2.033000 82 64 83
-0.336087 0.682788 2.021000 78 65 84
-0.332262 0.678515 1.998000 74 67 78
-0.330267 0.677916 1.986000 78 68 71
-0.326608 0.673845 1.964000 82 67 76
-0.326608 0.677283 1.964000 80 68 80
-0.324613 0.676561 1.952000 78 70 77
-0.322783 0.676147 1.941000 82 72 75
-0.321121 0.676043 1.931000 86 69 80
-0.319291 0.675553 1.920000 83 65 86
-0.317462 0.675024 1.909000 80 64 85
-0.315799 0.674813 1.899000 82 64 85
-0.313970 0.674209 1.888000 85 64 82
-0.312307 0.673925 1.878000 77 70 80
-0.310644 0.673607 1.868000 69 68 83
-0.308981 0.673253 1.858000 77 63 86
-0.305655 0.669223 1.838000 86 67 86
-0.303992 0.668782 1.828000 81 69 86
-0.302495 0.668674 1.819000 77 67 79
-0.300832 0.668164 1.809000 81 67 72
-0.299336 0.667991 1.800000 86 70 75
-0.297673 0.667413 1.790000 84 70 79
-0.296176 0.667175 1.781000 83 66 83
-0.296176 0.670293 1.781000 85 67 87
-0.293183 0.666605 1.763000 88 66 88
-0.293183 0.669691 1.763000 90 71 90
-0.291686 0.669342 1.754000 93 69 85
-0.290189 0.668962 1.745000 85 67 81
-0.290189 0.672017 1.745000 77 70 88
-0.287362 0.668495 1.728000 82 72 96
-0.285865 0.668022 1.719000 87 73 102
-0.592698 0.756636 3.602000 75 46 54
-0.586610 0.755105 3.565000 72 43 63
-0.580522 0.753443 3.528000 69 41 71
-0.574763 0.752083 3.493000 68 41 79
-0.569004 0.750601 3.458000 67 42 60
-0.569004 0.756654 3.458000 70 49 42
-0.563244 0.754987 3.423000 73 56 45
-0.557814 0.753643 3.390000 73 54 49
-0.552384 0.752183 3.357000 73 53 57
-0.552384 0.758059 3.357000 75 48 66
-0.546954 0.756426 3.324000 77 45 62
-0.526715 0.734039 3.201000 71 44 58
-0.512564 0.719771 3.115000 65 43 54
-0.507957 0.718705 3.087000 68 53 50
-0.503349 0.717541 3.059000 71 57 47
-0.503349 0.722896 3.059000 72 52 45
-0.499071 0.722060 3.033000 73 50 45
-0.494628 0.720895 3.006000 72 50 45
-0.494628 0.726157 3.006000 71 50 26
-0.494628 0.731419 3.006000 67 51 7
-0.486237 0.724182 2.955000 64 53 30
-0.482123 0.723184 2.930000 69 54 53
-0.474060 0.716133 2.881000 74 56 50
-0.474060 0.721176 2.881000 78 53 47
-0.470111 0.720170 2.857000 83 49 50
-0.466326 0.719333 2.834000 81 52 53
-0.462377 0.718160 2.810000 79 58 62
-0.458757 0.717418 2.788000 78 54 71
-0.454973 0.716340 2.765000 78 51 77
-0.447897 0.709964 2.722000 78 54 84
-0.444442 0.709215 2.701000 78 55 78
-0.440986 0.708392 2.680000 76 54 72
-0.440986 0.713084 2.680000 75 55 66
-0.437531 0.712151 2.659000 77 56 61
-0.434240 0.711414 2.639000 80 56 72
-0.427658 0.705180 2.599000 77 56 83
-0.427658 0.709730 2.599000 74 55 77
-0.421240 0.703561 2.560000 72 54 72
-0.418279 0.703064 2.542000 70 55 71
-0.415152 0.702226 2.523000 74 55 71
-0.409229 0.696559 2.487000 78 58 68
-0.409229 0.700913 2.487000 76 57 66
-0.406267 0.700162 2.469000 75 56 68
-0.406267 0.704484 2.469000 81 51 71
-0.403305 0.703638 2.451000 88 50 73
-0.403305 0.707929 2.451000 84 52 75
-0.400507 0.707279 2.434000 80 54 70
-0.389483 0.691954 2.367000 81 58 65
-0.386850 0.691392 2.351000 82 64 60
-0.384217 0.690774 2.335000 79 59 56
-0.384217 0.694861 2.335000 76 60 55
-0.381749 0.694459 2.320000 78 62 55
-0.381749 0.698520 2.320000 81 63 61
-0.376648 0.693193 2.289000 78 59 67
-0.374180 0.692631 2.274000 75 54 70
-0.371712 0.692017 2.259000 77 58 74
-0.369244 0.691350 2.244000 79 59 70
-0.364472 0.686292 2.215000 78 57 67
-0.362168 0.685808 2.201000 78 57 71
-0.359864 0.685274 2.187000 78 62 75
-0.355422 0.680595 2.160000 79 64 81
-0.355422 0.684376 2.160000 78 61 87
-0.353283 0.684015 2.147000 77 58 67
-0.350979 0.683289 2.133000 79 63 47
-0.348840 0.682835 2.120000 81 64 59
-0.348840 0.686546 2.120000 82 65 71
-0.344726 0.682117 2.095000 83 68 69
-0.344726 0.685785 2.095000 81 64 68
-0.342587 0.685174 2.082000 80 63 76
-0.338473 0.680547 2.057000 78 63 84
-0.336499 0.680157 2.045000 76 65 82
-0.336499 0.683737 2.045000 82 65 80
-0.332550 0.679250 2.021000 88 67 80
-0.332550 0.682788 2.021000 83 67 81
-0.328765 0.678515 1.998000 78 71 81
-0.326790 0.677916 1.986000 81 69 82
-0.324980 0.677619 1.975000 83 70 84
-0.323170 0.677283 1.964000 81 68 87
-0.321196 0.676561 1.952000 80 67 93
-0.319386 0.676147 1.941000 84 69 99
-0.317740 0.676043 1.931000 89 71 93
-0.314120 0.671683 1.909000 86 65 87
-0.314120 0.675024 1.909000 84 62 88
-0.312475 0.674813 1.899000 87 63 89
-0.310665 0.674209 1.888000 91 60 86
-0.309019 0.673925 1.878000 83 65 83
-0.307374 0.673607 1.868000 76 68 85
-0.305728 0.673253 1.858000 81 67 87
-0.300792 0.665582 1.828000 87 70 89
-0.299311 0.665489 1.819000 85 68 91
-0.297666 0.664998 1.809000 83 68 84
-0.296185 0.664840 1.800000 84 69 78
-0.296185 0.667991 1.800000 85 72 80
-0.294539 0.667413 1.790000 84 70 82
-0.293058 0.667175 1.781000 84 68 85
-0.293058 0.670293 1.781000 85 68 88
-0.290096 0.666605 1.763000 86 65 89
-0.290096 0.669691 1.763000 88 68 91
-0.287135 0.665908 1.745000 90 72 92
-0.285654 0.665512 1.736000 85 70 94
-0.285654 0.668551 1.736000 80 72 96
-0.284337 0.668495 1.728000 83 72 98
-0.281540 0.664914 1.711000 86 73 107
-0.586393 0.756636 3.602000 79 43 49
-0.580369 0.755105 3.565000 73 41 55
-0.574346 0.753443 3.528000 67 41 59
-0.568648 0.752083 3.493000 63 42 63
-0.562950 0.750601 3.458000 60 45 53
-0.562950 0.756654 3.458000 66 49 44
-0.557252 0.754987 3.423000 72 52 45
-0.551880 0.753643 3.390000 74 55 46
-0.551880 0.759577 3.390000 76 51 43
-0.546508 0.758059 3.357000 77 48 41
-0.541136 0.756426 3.324000 78 47 48
-0.507111 0.714318 3.115000 75 48 55
-0.507111 0.719771 3.115000 72 50 57
-0.502553 0.718705 3.087000 73 60 59
-0.497995 0.717541 3.059000 74 56 52
-0.497995 0.722896 3.059000 74 53 45
-0.493762 0.722060 3.033000 74 48 47
-0.493762 0.727370 3.033000 73 49 50
-0.489366 0.726157 3.006000 73 49 40
-0.489366 0.731419 3.006000 70 49 30
-0.481064 0.724182 2.955000 68 52 40
-0.472924 0.717014 2.905000 68 55 51
-0.469017 0.716133 2.881000 69 56 45
-0.465110 0.715169 2.857000 73 55 40
-0.461365 0.714372 2.834000 77 53 46
-0.457458 0.713241 2.810000 77 53 52
-0.457458 0.718160 2.810000 78 55 60
-0.453877 0.717418 2.788000 78 53 68
-0.450132 0.716340 2.765000 79 52 72
-0.446551 0.715442 2.743000 78 53 76
-0.443132 0.714729 2.722000 78 54 74
-0.439713 0.713943 2.701000 77 53 72
-0.436295 0.713084 2.680000 77 55 66
-0.432876 0.712151 2.659000 77 58 60
-0.429620 0.711414 2.639000 78 58 65
-0.426364 0.710607 2.619000 77 59 71
-0.423108 0.709730 2.599000 76 55 71
-0.416759 0.703561 2.560000 76 50 70
-0.413829 0.703064 2.542000 77 52 67
-0.407805 0.697216 2.505000 78 52 65
-0.404875 0.696559 2.487000 79 53 68
-0.404875 0.700913 2.487000 79 56 71
-0.401945 0.700162 2.469000 80 52 71
-0.401945 0.704484 2.469000 80 49 72
-0.399014 0.703638 2.451000 81 50 73
-0.399014 0.707929 2.451000 80 54 74
-0.396247 0.707279 2.434000 79 55 66
-0.385339 0.691954 2.367000 82 59 57
-0.382735 0.691392 2.351000 86 60 58
-0.380130 0.690774 2.335000 82 58 59
-0.380130 0.694861 2.335000 79 59 60
-0.377688 0.694459 2.320000 79 62 62
-0.377688 0.698520 2.320000 79 60 64
-0.375083 0.697735 2.304000 76 56 66
-0.372641 0.697200 2.289000 74 57 65
-0.367757 0.692017 2.259000 76 61 65
-0.365315 0.691350 2.244000 79 59 66
-0.363036 0.690940 2.230000 78 55 68
-0.360594 0.690170 2.215000 77 58 71
-0.356036 0.685274 2.187000 78 64 73
-0.351640 0.680595 2.160000 79 62 78
-0.351640 0.684376 2.160000 79 59 83
-0.349524 0.684015 2.147000 80 60 72
-0.347245 0.683289 2.133000 81 65 62
-0.345129 0.682835 2.120000 82 64 69
-0.343012 0.682336 2.107000 83 64 76
-0.341059 0.682117 2.095000 85 64 74
-0.341059 0.685785 2.095000 82 64 73
-0.338942 0.685174 2.082000 79 63 77
-0.334872 0.680547 2.057000 80 63 82
-0.332919 0.680157 2.045000 81 64 77
-0.330965 0.679725 2.033000 88 65 72
-0.329012 0.679250 2.021000 95 63 76
-0.329012 0.682788 2.021000 89 65 80
-0.323314 0.674440 1.986000 83 68 81
-0.321523 0.674161 1.975000 84 67 81
-0.319732 0.673845 1.964000 85 66 81
-0.319732 0.677283 1.964000 83 68 81
-0.317779 0.676561 1.952000 82 67 87
-0.315988 0.676147 1.941000 87 68 93
-0.314360 0.676043 1.931000 92 68 89
-0.312569 0.675553 1.920000 90 63 85
-0.310778 0.675024 1.909000 88 64 84
-0.309151 0.674813 1.899000 92 68 83
-0.307360 0.674209 1.888000 97 64 82
-0.305732 0.673925 1.878000 90 63 82
-0.304104 0.673607 1.868000 84 67 83
-0.302476 0.673253 1.858000 86 68 83
-0.297592 0.665582 1.828000 88 69 84
-0.296127 0.665489 1.819000 89 67 86
-0.294499 0.664998 1.809000 90 70 82
-0.293034 0.664840 1.800000 87 70 79
-0.293034 0.667991 1.800000 85 71 84
-0.291406 0.667413 1.790000 85 72 89
-0.291406 0.670547 1.790000 85 70 87
-0.289941 0.670293 1.781000 85 72 84
-0.287010 0.666605 1.763000 85 68 80
-0.285545 0.666272 1.754000 86 65 76
-0.284080 0.665908 1.745000 88 69 87
-0.282615 0.665512 1.736000 85 70 99
-0.281312 0.665470 1.728000 83 70 97
-0.279847 0.665013 1.719000 84 71 96
-0.279847 0.668022 1.719000 85 74 101
-0.580088 0.756636 3.602000 75 45 45
-0.574129 0.755105 3.565000 72 43 47
-0.562534 0.745969 3.493000 69 40 47
-0.562534 0.752083 3.493000 67 44 48
-0.556897 0.750601 3.458000 65 50 47
-0.556897 0.756654 3.458000 69 50 46
-0.551261 0.754987 3.423000 72 50 44
-0.551261 0.760979 3.423000 74 51 43
-0.545946 0.759577 3.390000 77 49 30
-0.540631 0.758059 3.357000 77 48 17
-0.535317 0.756426 3.324000 78 49 35
-0.515508 0.734039 3.201000 77 48 53
-0.497149 0.713301 3.087000 77 50 60
-0.497149 0.718705 3.087000 75 53 68
-0.497149 0.724108 3.087000 74 56 56
-0.492640 0.722896 3.059000 74 48 45
-0.488453 0.722060 3.033000 75 43 50
-0.488453 0.727370 3.033000 73 46 56
-0.484104 0.726157 3.006000 72 51 54
-0.484104 0.731419 3.006000 69 52 53
-0.475891 0.724182 2.955000 66 53 51
-0.471865 0.723184 2.930000 67 54 49
-0.463974 0.716133 2.881000 68 58 41
-0.460109 0.715169 2.857000 70 57 34
-0.456404 0.714372 2.834000 71 58 43
-0.452539 0.713241 2.810000 71 56 52
-0.452539 0.718160 2.810000 70 56 58
-0.448996 0.717418 2.788000 74 54 65
-0.445292 0.716340 2.765000 77 54 66
-0.445292 0.721180 2.765000 77 54 68
-0.441749 0.720243 2.743000 78 56 70
-0.434985 0.713943 2.701000 78 54 72
-0.431603 0.713084 2.680000 78 54 65
-0.428221 0.712151 2.659000 78 57 59
-0.425000 0.711414 2.639000 78 59 59
-0.418559 0.705180 2.599000 76 57 60
-0.418559 0.709730 2.599000 74 57 64
-0.412278 0.703561 2.560000 76 55 69
-0.409379 0.703064 2.542000 78 54 64
-0.403420 0.697216 2.505000 79 50 59
-0.400521 0.696559 2.487000 80 46 67
-0.397623 0.695840 2.469000 82 49 76
-0.397623 0.700162 2.469000 84 49 75
-0.397623 0.704484 2.469000 81 49 74
-0.394724 0.703638 2.451000 78 50 74
-0.391986 0.703018 2.434000 78 51 74
-0.389248 0.702339 2.417000 78 54 62
-0.381196 0.691954 2.367000 79 58 50
-0.378619 0.691392 2.351000 80 62 56
-0.376042 0.690774 2.335000 79 60 62
-0.376042 0.694861 2.335000 78 59 66
-0.373627 0.694459 2.320000 78 59 70
-0.373627 0.698520 2.320000 79 59 68
-0.371050 0.697735 2.304000 77 58 66
-0.368634 0.697200 2.289000 76 60 61
-0.363803 0.692017 2.259000 78 60 56
-0.361387 0.691350 2.244000 79 61 63
-0.359133 0.690940 2.230000 77 59 70
-0.356717 0.690170 2.215000 75 59 71
-0.352208 0.685274 2.187000 79 62 72
-0.347859 0.680595 2.160000 83 61 76
-0.345766 0.680257 2.147000 82 58 80
-0.345766 0.684015 2.147000 82 60 78
-0.343511 0.683289 2.133000 81 62 77
-0.341418 0.682835 2.120000 80 64 79
-0.339324 0.682336 2.107000 81 63 81
-0.337391 0.682117 2.095000 83 62 79
-0.335298 0.681529 2.082000 81 62 78
-0.335298 0.685174 2.082000 79 63 79
-0.331272 0.680547 2.057000 81 63 81
-0.329339 0.680157 2.045000 82 65 73
-0.327407 0.679725 2.033000 86 63 65
-0.325474 0.679250 2.021000 89 57 72
-0.323541 0.678734 2.009000 85 63 80
-0.321770 0.678515 1.998000 81 69 80
-0.318066 0.674161 1.975000 83 65 81
-0.316294 0.673845 1.964000 85 62 78
-0.316294 0.677283 1.964000 84 65 76
-0.314362 0.676561 1.952000 83 67 81
-0.314362 0.679978 1.952000 85 68 87
-0.310980 0.676043 1.931000 88 71 85
-0.309208 0.675553 1.920000 87 67 83
-0.307437 0.675024 1.909000 86 65 80
-0.305826 0.674813 1.899000 88 66 77
-0.304055 0.674209 1.888000 91 67 79
-0.302444 0.673925 1.878000 87 67 82
-0.300834 0.673607 1.868000 83 72 81
-0.299224 0.673253 1.858000 85 70 80
-0.296003 0.669223 1.838000 86 72 80
-0.292943 0.665489 1.819000 88 71 81
-0.291332 0.664998 1.809000 89 75 81
-0.289883 0.664840 1.800000 87 71 81
-0.289883 0.667991 1.800000 84 70 89
-0.288272 0.667413 1.790000 85 70 97
-0.288272 0.670547 1.790000 86 71 89
-0.286823 0.670293 1.781000 85 70 81
-0.283924 0.666605 1.763000 84 71 71
-0.282475 0.666272 1.754000 85 70 62
-0.281025 0.665908 1.745000 87 72 83
-0.279576 0.665512 1.736000 86 70 104
-0.278288 0.665470 1.728000 85 69 99
-0.276838 0.665013 1.719000 84 72 95
-0.275550 0.664914 1.711000 83 77 95
-0.573783 0.756636 3.602000 72 44 44
-0.567889 0.755105 3.565000 71 46 45
-0.561995 0.753443 3.528000 71 44 46
-0.561995 0.759619 3.528000 71 46 48
-0.550844 0.750601 3.458000 71 48 46
-0.550844 0.756654 3.458000 72 52 45
-0.545269 0.754987 3.423000 73 52 43
-0.540012 0.753643 3.390000 75 52 42
-0.540012 0.759577 3.390000 78 49 40
-0.534755 0.758059 3.357000 78 48 38
-0.509905 0.728436 3.201000 78 48 46
-0.509905 0.734039 3.201000 80 47 55
-0.496206 0.719771 3.115000 83 47 57
-0.496206 0.725224 3.115000 78 47 59
-0.491745 0.724108 3.087000 74 48 51
-0.487285 0.722896 3.059000 75 42 44
-0.487285 0.728250 3.059000 76 44 50
-0.483143 0.727370 3.033000 74 43 55
-0.478842 0.726157 3.006000 72 48 60
-0.478842 0.731419 3.006000 68 55 65
-0.470718 0.724182 2.955000 64 53 59
-0.466736 0.723184 2.930000 66 50 53
-0.462754 0.722099 2.905000 68 55 49
-0.458930 0.721176 2.881000 67 60 45
-0.451444 0.714372 2.834000 66 57 52
-0.447621 0.713241 2.810000 64 57 59
-0.447621 0.718160 2.810000 63 55 61
-0.444116 0.717418 2.788000 69 54 62
-0.440452 0.716340 2.765000 76 53 64
-0.436948 0.715442 2.743000 77 54 65
-0.436948 0.720243 2.743000 78 55 67
-0.430257 0.713943 2.701000 79 55 70
-0.426912 0.713084 2.680000 80 55 68
-0.423567 0.712151 2.659000 79 58 67
-0.420381 0.711414 2.639000 78 57 59
-0.414009 0.705180 2.599000 75 56 52
-0.414009 0.709730 2.599000 72 57 56
-0.407797 0.703561 2.560000 75 59 61
-0.401903 0.697809 2.523000 79 55 53
-0.399035 0.697216 2.505000 80 48 46
-0.396168 0.696559 2.487000 82 47 60
-0.396168 0.700913 2.487000 85 48 74
-0.393301 0.700162 2.469000 88 49 74
-0.393301 0.704484 2.469000 81 51 75
-0.390433 0.703638 2.451000 75 52 75
-0.390433 0.707929 2.451000 76 49 76
-0.387725 0.707279 2.434000 77 53 72
-0.379761 0.696923 2.384000 75 58 69
-0.374504 0.691392 2.351000 74 60 68
-0.374504 0.695507 2.351000 76 64 67
-0.371955 0.694861 2.335000 78 61 69
-0.371955 0.698949 2.335000 78 58 72
-0.369566 0.698520 2.320000 79 58 71
-0.367017 0.697735 2.304000 79 59 71
-0.364628 0.697200 2.289000 79 59 67
-0.359849 0.692017 2.259000 79 59 64
-0.357459 0.691350 2.244000 80 61 67
-0.352840 0.686292 2.215000 77 63 71
-0.350610 0.685808 2.201000 74 62 72
-0.348379 0.685274 2.187000 81 65 73
-0.344078 0.680595 2.160000 88 58 76
-0.342008 0.680257 2.147000 86 52 80
-0.342008 0.684015 2.147000 84 57 78
-0.339777 0.683289 2.133000 81 61 77
-0.337707 0.682835 2.120000 79 62 78
-0.335636 0.682336 2.107000 80 62 79
-0.333724 0.682117 2.095000 81 62 76
-0.331653 0.681529 2.082000 80 60 74
-0.329583 0.680896 2.069000 80 63 78
-0.327671 0.680547 2.057000 82 64 82
-0.325759 0.680157 2.045000 84 63 82
-0.323848 0.679725 2.033000 84 65 83
-0.321936 0.679250 2.021000 84 61 83
-0.318273 0.675017 1.998000 81 62 83
-0.316361 0.674440 1.986000 79 63 82
-0.314609 0.674161 1.975000 82 64 82
-0.312856 0.673845 1.964000 86 63 80
-0.312856 0.677283 1.964000 85 66 77
-0.310945 0.676561 1.952000 84 66 81
-0.310945 0.679978 1.952000 84 66 85
-0.309193 0.679544 1.941000 84 67 83
-0.305847 0.675553 1.920000 84 71 81
-0.304095 0.675024 1.909000 84 67 74
-0.302502 0.674813 1.899000 85 65 67
-0.300750 0.674209 1.888000 86 68 73
-0.299157 0.673925 1.878000 84 69 79
-0.297564 0.673607 1.868000 83 69 81
-0.297564 0.676876 1.868000 84 71 83
-0.292785 0.669223 1.838000 85 70 83
-0.289759 0.665489 1.819000 87 71 83
-0.288166 0.664998 1.809000 89 72 83
-0.286732 0.664840 1.800000 86 72 84
-0.286732 0.667991 1.800000 84 70 89
-0.285139 0.667413 1.790000 86 70 94
-0.283705 0.667175 1.781000 88 71 88
-0.283705 0.670293 1.781000 85 69 83
-0.280838 0.666605 1.763000 83 70 78
-0.279404 0.666272 1.754000 84 72 74
-0.277971 0.665908 1.745000 86 70 86
-0.275263 0.662445 1.728000 87 72 98
-0.275263 0.665470 1.728000 88 71 96
-0.273829 0.665013 1.719000 85 71 94
-0.272555 0.664914 1.711000 82 74 96
-0.573464 0.758247 3.640000 75 43 44
-0.567477 0.756636 3.602000 74 42 44
-0.561648 0.755105 3.565000 75 43 44
-0.555819 0.753443 3.528000 77 44 46
-0.550305 0.752083 3.493000 75 44 48
-0.544791 0.750601 3.458000 73 45 46
-0.544791 0.756654 3.458000 74 50 45
-0.539277 0.754987 3.423000 75 55 43
-0.534078 0.753643 3.390000 75 51 41
-0.534078 0.759577 3.390000 76 50 50
-0.518796 0.743607 3.293000 73 49 59
-0.509028 0.735263 3.231000 71 49 58
-0.504302 0.734039 3.201000 75 46 58
-0.504302 0.739642 3.201000 79 44 54
-0.495164 0.731743 3.143000 74 46 50
-0.486341 0.724108 3.087000 69 47 47
-0.481930 0.722896 3.059000 71 47 44
-0.481930 0.728250 3.059000 74 49 49
-0.477834 0.727370 3.033000 75 46 55
-0.473580 0.726157 3.006000 76 46 66
-0.473580 0.731419 3.006000 73 52 78
-0.469484 0.730309 2.980000 70 54 68
-0.461607 0.723184 2.930000 70 52 58
-0.457668 0.722099 2.905000 70 52 57
-0.453887 0.721176 2.881000 70 55 56
-0.450106 0.720170 2.857000 71 55 61
-0.442702 0.713241 2.810000 69 55 67
-0.442702 0.718160 2.810000 67 56 63
-0.439236 0.717418 2.788000 72 52 60
-0.435612 0.716340 2.765000 76 53 61
-0.432146 0.715442 2.743000 77 55 63
-0.432146 0.720243 2.743000 78 56 65
-0.425529 0.713943 2.701000 79 54 68
-0.422221 0.713084 2.680000 80 56 71
-0.418912 0.712151 2.659000 81 56 75
-0.415761 0.711414 2.639000 83 55 60
-0.409459 0.705180 2.599000 79 55 45
-0.406466 0.704541 2.580000 75 56 49
-0.403315 0.703561 2.560000 76 60 53
-0.397486 0.697809 2.523000 78 61 43
-0.397486 0.702226 2.523000 79 54 34
-0.394650 0.701601 2.505000 81 49 53
-0.391814 0.700913 2.487000 82 50 72
-0.391814 0.705266 2.487000 84 50 74
-0.388979 0.704484 2.469000 81 53 76
-0.388979 0.708806 2.469000 78 58 77
-0.386143 0.707929 2.451000 79 53 79
-0.383465 0.707279 2.434000 80 53 83
-0.375587 0.696923 2.384000 78 55 88
-0.370388 0.691392 2.351000 76 58 80
-0.367868 0.690774 2.335000 77 60 72
-0.367868 0.694861 2.335000 78 65 73
-0.365504 0.694459 2.320000 78 58 75
-0.362984 0.693702 2.304000 79 56 75
-0.362984 0.697735 2.304000 79 58 76
-0.360621 0.697200 2.289000 79 60 74
-0.358257 0.696612 2.274000 79 61 72
-0.353531 0.691350 2.244000 80 62 72
-0.351325 0.690940 2.230000 78 62 73
-0.348962 0.690170 2.215000 77 61 73
-0.344551 0.685274 2.187000 81 60 74
-0.340297 0.680595 2.160000 85 55 77
-0.340297 0.684376 2.160000 83 54 80
-0.338249 0.684015 2.147000 82 56 79
-0.336044 0.683289 2.133000 80 60 78
-0.333995 0.682835 2.120000 79 63 77
-0.331947 0.682336 2.107000 80 62 77
-0.330057 0.682117 2.095000 81 65 73
-0.328009 0.681529 2.082000 82 65 70
-0.325961 0.680896 2.069000 82 67 77
-0.324070 0.680547 2.057000 85 63 84
-0.322180 0.680157 2.045000 89 61 92
-0.320289 0.679725 2.033000 86 62 101
-0.318398 0.679250 2.021000 83 60 93
-0.314775 0.675017 1.998000 82 60 86
-0.314775 0.678515 1.998000 81 58 85
-0.311151 0.674161 1.975000 85 60 84
-0.309418 0.673845 1.964000 90 60 81
-0.309418 0.677283 1.964000 87 64 79
-0.307528 0.676561 1.952000 84 67 81
-0.307528 0.679978 1.952000 84 65 83
-0.304219 0.676043 1.931000 84 63 81
-0.302486 0.675553 1.920000 84 67 79
-0.300753 0.675024 1.909000 84 67 68
-0.299178 0.674813 1.899000 85 68 58
-0.297445 0.674209 1.888000 86 73 67
-0.295870 0.673925 1.878000 84 71 76
-0.294294 0.673607 1.868000 81 66 81
-0.294294 0.676876 1.868000 83 66 86
-0.289568 0.669223 1.838000 85 67 86
-0.286574 0.665489 1.819000 88 69 86
-0.284999 0.664998 1.809000 92 71 86
-0.283581 0.664840 1.800000 85 68 87
-0.283581 0.667991 1.800000 78 70 89
-0.282006 0.667413 1.790000 82 72 92
-0.280588 0.667175 1.781000 86 75 88
-0.279170 0.666906 1.772000 84 72 85
-0.277752 0.666605 1.763000 82 70 85
-0.276334 0.666272 1.754000 81 69 86
-0.273498 0.662473 1.736000 81 67 89
-0.272238 0.662445 1.728000 84 71 92
-0.272238 0.665470 1.728000 87 75 93
-0.270820 0.665013 1.719000 85 73 94
-0.269560 0.664914 1.711000 83 71 97
-0.619283 0.772365 3.975000 75 51 26
-0.579244 0.761478 3.718000 75 44 52
-0.579244 0.767987 3.718000 80 42 49
-0.567092 0.758247 3.640000 78 40 47
-0.561172 0.756636 3.602000 77 42 46
-0.555408 0.755105 3.565000 80 41 45
-0.544190 0.745969 3.493000 83 41 46
-0.544190 0.752083 3.493000 79 42 48
-0.538738 0.750601 3.458000 76 46 45
-0.538738 0.756654 3.458000 77 51 43
-0.533285 0.754987 3.423000 78 51 40
-0.533285 0.760979 3.423000 76 49 37
-0.517861 0.744789 3.324000 74 49 44
-0.513031 0.743607 3.293000 69 52 52
-0.503372 0.735263 3.231000 64 49 51
-0.503372 0.740919 3.231000 70 45 51
-0.498698 0.739642 3.201000 76 46 43
-0.489662 0.731743 3.143000 70 48 35
-0.480938 0.724108 3.087000 64 49 38
-0.476576 0.722896 3.059000 68 50 41
-0.476576 0.728250 3.059000 73 50 44
-0.472525 0.727370 3.033000 77 47 48
-0.468318 0.726157 3.006000 81 49 56
-0.464268 0.725092 2.980000 78 56 65
-0.460373 0.724182 2.955000 76 54 60
-0.456478 0.723184 2.930000 74 55 55
-0.448844 0.716133 2.881000 72 54 59
-0.448844 0.721176 2.881000 74 53 63
-0.445105 0.720170 2.857000 76 52 72
-0.441522 0.719333 2.834000 74 53 82
-0.437783 0.718160 2.810000 72 51 61
-0.434355 0.717418 2.788000 74 47 40
-0.430772 0.716340 2.765000 77 52 50
-0.430772 0.721180 2.765000 78 58 61
-0.427344 0.720243 2.743000 79 55 63
-0.424073 0.719494 2.722000 79 52 66
-0.420801 0.718672 2.701000 80 53 67
-0.417529 0.717775 2.680000 84 55 69
-0.408026 0.706022 2.619000 88 55 59
-0.404910 0.705180 2.599000 83 54 49
-0.401950 0.704541 2.580000 79 58 52
-0.396030 0.698614 2.542000 78 64 55
-0.393070 0.697809 2.523000 77 60 51
-0.393070 0.702226 2.523000 78 59 46
-0.390265 0.701601 2.505000 80 54 58
-0.387461 0.700913 2.487000 80 53 69
-0.387461 0.705266 2.487000 81 54 72
-0.384657 0.704484 2.469000 81 56 75
-0.384657 0.708806 2.469000 82 55 71
-0.381852 0.707929 2.451000 83 55 68
-0.379204 0.707279 2.434000 84 54 71
-0.371414 0.696923 2.384000 81 54 75
-0.366273 0.691392 2.351000 78 55 74
-0.363780 0.690774 2.335000 78 56 73
-0.363780 0.694861 2.335000 79 58 75
-0.361443 0.694459 2.320000 79 55 78
-0.358951 0.693702 2.304000 79 56 78
-0.356614 0.693193 2.289000 79 58 79
-0.354277 0.692631 2.274000 80 62 76
-0.351940 0.692017 2.259000 80 63 73
-0.349603 0.691350 2.244000 80 64 72
-0.345085 0.686292 2.215000 80 63 71
-0.342904 0.685808 2.201000 80 62 71
-0.340723 0.685274 2.187000 81 62 71
-0.336516 0.680595 2.160000 82 60 73
-0.334491 0.680257 2.147000 81 56 75
-0.334491 0.684015 2.147000 81 58 75
-0.332310 0.683289 2.133000 80 62 76
-0.330284 0.682835 2.120000 79 62 75
-0.328259 0.682336 2.107000 80 60 74
-0.326390 0.682117 2.095000 82 64 66
-0.324364 0.681529 2.082000 83 69 58
-0.322339 0.680896 2.069000 85 67 69
-0.320469 0.680547 2.057000 89 63 81
-0.318600 0.680157 2.045000 94 64 87
-0.316730 0.679725 2.033000 88 62 94
-0.314861 0.679250 2.021000 82 62 89
-0.312991 0.678734 2.009000 83 61 85
-0.311277 0.678515 1.998000 84 60 85
-0.309408 0.677916 1.986000 89 59 85
-0.307694 0.677619 1.975000 94 62 82
-0.305980 0.677283 1.964000 89 64 79
-0.305980 0.680721 1.964000 85 65 80
-0.304111 0.679978 1.952000 84 64 82
-0.302397 0.679544 1.941000 84 66 83
-0.299125 0.675553 1.920000 84 70 84
-0.297412 0.675024 1.909000 85 68 76
-0.295854 0.674813 1.899000 86 68 68
-0.294140 0.674209 1.888000 87 72 74
-0.292582 0.673925 1.878000 83 76 81
-0.291024 0.673607 1.868000 80 69 83
-0.289466 0.673253 1.858000 82 63 85
-0.286350 0.669223 1.838000 85 66 85
-0.283390 0.665489 1.819000 90 68 85
-0.281832 0.664998 1.809000 95 66 86
-0.280430 0.664840 1.800000 84 62 88
-0.280430 0.667991 1.800000 73 67 89
-0.278872 0.667413 1.790000 78 74 91
-0.278872 0.670547 1.790000 84 74 89
-0.277470 0.670293 1.781000 83 76 87
-0.276068 0.670007 1.772000 82 70 87
-0.273264 0.666272 1.754000 79 67 87
-0.271861 0.665908 1.745000 76 69 89
-0.270459 0.665512 1.736000 81 71 91
-0.269213 0.665470 1.728000 86 74 93
-0.267811 0.665013 1.719000 85 76 95
-0.267811 0.668022 1.719000 85 73 96
-0.612325 0.772365 3.975000 72 47 32
-0.612325 0.786281 3.975000 70 47 35
-0.572736 0.761478 3.718000 71 45 65
-0.566728 0.759931 3.679000 72 42 57
-0.554866 0.750331 3.602000 73 42 50
-0.554866 0.756636 3.602000 74 45 48
-0.549167 0.755105 3.565000 77 43 46
-0.538076 0.745969 3.493000 80 40 47
-0.538076 0.752083 3.493000 78 42 48
-0.532684 0.750601 3.458000 76 46 44
-0.532684 0.756654 3.458000 79 48 41
-0.527293 0.754987 3.423000 81 49 37
-0.527293 0.760979 3.423000 78 47 34
-0.512042 0.744789 3.324000 76 47 39
-0.507267 0.743607 3.293000 73 49 45
-0.497716 0.735263 3.231000 70 50 44
-0.497716 0.740919 3.231000 75 48 44
-0.488628 0.732942 3.172000 81 49 32
-0.484160 0.731743 3.143000 75 49 20
-0.475534 0.724108 3.087000 70 51 29
-0.471221 0.722896 3.059000 71 51 38
-0.471221 0.728250 3.059000 73 54 39
-0.471221 0.733605 3.059000 76 50 41
-0.467215 0.732679 3.033000 79 49 47
-0.463056 0.731419 3.006000 77 53 53
-0.459051 0.730309 2.980000 76 54 53
-0.451349 0.723184 2.930000 75 55 53
-0.443801 0.716133 2.881000 74 56 61
-0.443801 0.721176 2.881000 76 52 70
-0.436561 0.714372 2.834000 78 49 84
-0.432864 0.713241 2.810000 76 51 98
-0.432864 0.718160 2.810000 75 50 59
-0.429475 0.717418 2.788000 75 48 21
-0.425932 0.716340 2.765000 76 51 40
-0.422543 0.715442 2.743000 77 54 59
-0.422543 0.720243 2.743000 78 55 62
-0.419308 0.719494 2.722000 78 52 65
-0.416073 0.718672 2.701000 79 50 64
-0.409603 0.712151 2.659000 81 53 63
-0.403441 0.706022 2.619000 83 59 58
-0.400360 0.705180 2.599000 77 58 53
-0.397434 0.704541 2.580000 72 61 55
-0.394353 0.703561 2.560000 74 59 58
-0.391580 0.703064 2.542000 76 58 58
-0.388653 0.702226 2.523000 78 57 59
-0.385880 0.701601 2.505000 79 56 63
-0.385880 0.705986 2.505000 80 57 67
-0.383107 0.705266 2.487000 80 59 71
-0.380335 0.704484 2.469000 81 55 75
-0.380335 0.708806 2.469000 81 54 66
-0.377562 0.707929 2.451000 81 54 57
-0.374943 0.707279 2.434000 81 56 60
-0.367241 0.696923 2.384000 79 54 63
-0.364622 0.696097 2.367000 78 53 69
-0.362157 0.695507 2.351000 78 56 75
-0.359693 0.694861 2.335000 79 57 78
-0.357382 0.694459 2.320000 80 55 81
-0.354917 0.693702 2.304000 81 55 82
-0.352607 0.693193 2.289000 82 61 83
-0.350296 0.692631 2.274000 83 69 78
-0.347985 0.692017 2.259000 81 67 74
