ply
format ascii 1.0
element vertex 1241
property float x
property float y
property float z
property uchar red
property uchar green
property uchar blue
end_header
-1.547652 -0.536686 3.565000 76 40 7
-1.547652 -0.530445 3.565000 76 35 12
-1.531590 -0.518764 3.528000 76 36 13
-1.531590 -0.512588 3.528000 76 39 15
-1.531590 -0.506413 3.528000 76 39 22
-1.531590 -0.500237 3.528000 74 36 30
-1.531590 -0.494061 3.528000 73 32 29
-1.531590 -0.487885 3.528000 69 40 29
-1.531590 -0.481710 3.528000 65 44 25
-1.547652 -0.480521 3.565000 68 41 22
-1.547652 -0.474280 3.565000 70 39 16
-1.547652 -0.468040 3.565000 69 43 10
-1.547652 -0.461799 3.565000 68 44 7
-1.547652 -0.455559 3.565000 68 42 5
-1.547652 -0.449318 3.565000 69 45 4
-1.563715 -0.447676 3.602000 71 47 4
-1.563715 -0.441371 3.602000 74 48 7
-1.563715 -0.435066 3.602000 76 44 11
-1.563715 -0.428760 3.602000 78 42 16
-1.563715 -0.422455 3.602000 77 39 21
-1.563715 -0.416150 3.602000 76 39 12
-1.563715 -0.409845 3.602000 74 43 4
-1.547652 -0.399394 3.565000 72 49 3
-1.547652 -0.393154 3.565000 74 40 2
-1.547652 -0.386913 3.565000 77 30 18
-1.547652 -0.380672 3.565000 77 36 35
-1.547652 -0.374432 3.565000 78 39 49
-1.531590 -0.364370 3.528000 73 38 63
-1.531590 -0.358194 3.528000 69 38 32
-1.531590 -0.352019 3.528000 71 38 1
-1.531590 -0.345843 3.528000 73 39 11
-1.531590 -0.339667 3.528000 74 41 21
-1.516395 -0.330183 3.493000 75 42 23
-1.531590 -0.327315 3.528000 76 41 26
-1.531590 -0.321140 3.528000 77 42 35
-1.531590 -0.314964 3.528000 77 40 45
-1.547652 -0.312027 3.565000 78 43 33
-1.547652 -0.305786 3.565000 79 40 21
-1.531590 -0.296437 3.528000 80 40 16
-1.531590 -0.290261 3.528000 78 41 11
-1.547652 -0.287064 3.565000 76 44 12
-1.547652 -0.280824 3.565000 80 39 14
-1.531590 -0.271734 3.528000 84 30 24
-1.547652 -0.268343 3.565000 81 36 35
-1.547652 -0.262102 3.565000 79 39 31
-1.547652 -0.255862 3.565000 78 41 27
-1.547652 -0.249621 3.565000 77 45 26
-1.547652 -0.243381 3.565000 75 45 26
-1.563715 -0.239601 3.602000 74 44 19
-1.563715 -0.233296 3.602000 76 41 12
-1.563715 -0.226991 3.602000 79 41 12
-1.563715 -0.220686 3.602000 77 38 12
-1.547652 -0.212178 3.565000 75 42 18
-1.531590 -0.203800 3.528000 79 38 24
-1.531590 -0.197624 3.528000 84 37 33
-1.531590 -0.191449 3.528000 77 41 43
-1.547652 -0.187216 3.565000 71 45 37
-1.547652 -0.180975 3.565000 76 41 31
-1.547652 -0.174735 3.565000 81 34 38
-1.547652 -0.168494 3.565000 80 36 45
-1.531590 -0.160570 3.528000 78 35 33
-1.531590 -0.154394 3.528000 82 36 21
-1.547652 -0.149773 3.565000 86 33 17
-1.547652 -0.143532 3.565000 83 36 14
-1.547652 -0.137292 3.565000 81 39 9
-1.531590 -0.129691 3.528000 79 35 4
-1.547652 -0.124811 3.565000 77 28 14
-1.547652 -0.118570 3.565000 77 33 24
-1.531590 -0.111164 3.528000 77 40 14
-1.531590 -0.104988 3.528000 78 41 4
-1.531590 -0.098812 3.528000 79 42 17
-1.547652 -0.093608 3.565000 76 40 31
-1.547652 -0.087367 3.565000 73 41 33
-1.547652 -0.081127 3.565000 70 39 35
-1.547652 -0.074886 3.565000 67 41 28
-1.547652 -0.068646 3.565000 71 39 21
-1.547652 -0.062405 3.565000 75 42 16
-1.547652 -0.056165 3.565000 74 43 12
-1.547652 -0.049924 3.565000 74 46 22
-1.547652 -0.043684 3.565000 76 39 33
-1.531590 -0.037055 3.528000 79 38 31
-1.547652 -0.031203 3.565000 78 40 30
-1.531590 -0.024703 3.528000 78 40 26
-1.531590 -0.018527 3.528000 76 37 22
-1.531590 -0.012351 3.528000 75 36 39
-1.531590 -0.006176 3.528000 73 36 57
-1.531590 -0.000000 3.528000 71 37 45
-1.547652 0.006241 3.565000 70 40 34
-1.547652 0.012481 3.565000 69 42 23
-1.547652 0.018722 3.565000 72 38 13
-1.563715 0.025221 3.602000 75 36 15
-1.547652 0.031203 3.565000 75 33 18
-1.563715 0.037832 3.602000 76 31 26
-1.547652 0.043684 3.565000 77 36 34
-1.563715 0.050443 3.602000 77 44 23
-1.547652 0.056165 3.565000 79 39 12
-1.547652 0.062405 3.565000 80 37 11
-1.547652 0.068646 3.565000 80 35 10
-1.547652 0.074887 3.565000 80 32 5
-1.547652 0.081127 3.565000 77 38 1
-1.547652 0.087368 3.565000 75 44 19
-1.547652 0.093608 3.565000 78 34 38
-1.547652 0.099849 3.565000 82 31 32
-1.547652 0.106089 3.565000 77 34 26
-1.547652 0.112330 3.565000 73 35 20
-1.547652 0.118570 3.565000 76 39 15
-1.547652 0.124811 3.565000 78 41 14
-1.531590 0.129691 3.528000 77 39 14
-1.547652 0.137292 3.565000 76 40 12
-1.531590 0.142043 3.528000 73 43 11
-1.531590 0.148218 3.528000 70 45 11
-1.531590 0.154394 3.528000 76 44 12
-1.531590 0.160570 3.528000 82 46 19
-1.531590 0.166746 3.528000 76 35 26
-1.531590 0.172921 3.528000 71 26 44
-1.531590 0.179097 3.528000 75 32 62
-1.531590 0.185273 3.528000 80 37 47
-1.531590 0.191449 3.528000 77 40 32
-1.531590 0.197625 3.528000 75 41 27
-1.531590 0.203800 3.528000 74 41 22
-1.547652 0.212178 3.565000 73 39 13
-1.547652 0.218419 3.565000 75 37 5
-1.563715 0.226991 3.602000 76 33 12
-1.563715 0.233296 3.602000 76 36 19
-1.563715 0.239602 3.602000 77 40 13
-1.547652 0.243381 3.565000 76 39 8
-1.547652 0.249621 3.565000 76 37 11
-1.547652 0.255862 3.565000 76 39 14
-1.547652 0.262102 3.565000 76 45 20
-1.547652 0.268343 3.565000 76 40 27
-1.563715 0.277433 3.602000 76 37 41
-1.563715 0.283739 3.602000 71 34 55
-1.563715 0.290044 3.602000 66 32 36
-1.563715 0.296349 3.602000 69 33 17
-1.547652 0.299546 3.565000 72 37 18
-1.547652 0.305786 3.565000 74 39 20
-1.547652 0.312027 3.565000 76 42 16
-1.547652 0.318267 3.565000 74 36 12
-1.531590 0.321140 3.528000 73 34 21
-1.547652 0.330748 3.565000 73 34 31
-1.547652 0.336989 3.565000 74 36 40
-1.547652 0.343229 3.565000 75 35 50
-1.547652 0.349470 3.565000 76 35 36
-1.547652 0.355710 3.565000 74 38 22
-1.563715 0.365707 3.602000 73 44 21
-1.563715 0.372013 3.602000 74 38 21
-1.563715 0.378318 3.602000 75 34 29
-1.563715 0.384623 3.602000 71 34 38
-1.563715 0.390929 3.602000 68 39 32
-1.563715 0.397234 3.602000 70 35 26
-1.563715 0.403539 3.602000 72 33 20
-1.563715 0.409845 3.602000 73 31 14
-1.563715 0.416150 3.602000 75 30 12
-1.547652 0.418116 3.565000 75 29 11
-1.547652 0.424356 3.565000 74 30 11
-1.547652 0.430597 3.565000 72 34 12
-1.547652 0.436837 3.565000 70 34 10
-1.547652 0.443078 3.565000 73 34 8
-1.531590 0.444655 3.528000 76 36 5
-1.531590 0.450831 3.528000 71 33 2
-1.531590 0.457007 3.528000 67 33 9
-1.531590 0.463183 3.528000 67 31 16
-1.531590 0.469358 3.528000 68 29 19
-1.531590 0.475534 3.528000 68 30 23
-1.531590 0.481710 3.528000 68 34 22
-1.531590 0.487886 3.528000 66 32 21
-1.531590 0.494061 3.528000 65 32 17
-1.531590 0.500237 3.528000 63 32 14
-1.531590 0.506413 3.528000 61 39 24
-1.531590 0.512589 3.528000 64 37 35
-1.531590 0.518764 3.528000 68 39 48
-1.531590 0.524940 3.528000 69 33 62
-1.531590 0.531116 3.528000 70 30 32
-1.531590 0.537292 3.528000 69 30 2
-1.531590 0.543467 3.528000 68 31 7
-1.531590 0.549643 3.528000 66 33 13
-1.547652 0.561648 3.565000 65 38 10
-1.547652 0.567889 3.565000 68 33 8
-1.547652 0.574129 3.565000 72 30 28
-1.547652 0.580370 3.565000 69 33 49
-1.547652 0.586610 3.565000 67 39 32
-1.547652 0.592851 3.565000 71 37 15
-1.547652 0.599091 3.565000 75 36 13
-1.547652 0.605332 3.565000 69 32 12
-1.547652 0.611572 3.565000 62 37 7
-1.547652 0.617813 3.565000 48 30 3
-1.531590 0.617577 3.528000 34 20 4
-1.547652 0.630294 3.565000 19 8 5
-1.547652 0.636534 3.565000 4 4 8
-1.547652 0.642775 3.565000 4 2 12
-1.547652 0.649015 3.565000 5 3 25
-1.563715 0.662057 3.602000 4 2 39
-1.580211 0.675413 3.640000 3 2 26
-1.580211 0.681785 3.640000 4 1 13
-1.240292 0.695164 2.857000 57 31 67
-1.230307 0.694528 2.834000 58 30 77
-1.219888 0.693566 2.810000 56 31 88
-1.219888 0.698485 2.810000 55 31 70
-1.210338 0.697896 2.788000 57 31 52
-1.190802 0.691434 2.743000 59 39 28
-1.181686 0.690905 2.722000 55 37 4
-1.163452 0.684936 2.680000 52 36 25
-1.163452 0.689627 2.680000 54 34 46
-1.154336 0.688878 2.659000 57 32 43
-1.145653 0.688316 2.639000 52 29 41
-1.136971 0.687684 2.619000 48 34 38
-1.136971 0.692269 2.619000 51 33 36
-1.111358 0.681155 2.560000 55 32 38
-1.095295 0.675726 2.523000 57 30 41
-1.095295 0.680143 2.523000 59 30 48
-1.095295 0.684559 2.523000 54 27 56
-1.087481 0.684061 2.505000 50 28 68
-1.079666 0.683499 2.487000 52 31 81
-1.071852 0.682874 2.469000 55 34 65
-1.056658 0.677454 2.434000 55 33 50
-1.049278 0.676953 2.417000 55 34 46
-1.041898 0.676393 2.400000 56 35 43
-1.034952 0.676057 2.384000 57 27 42
-1.027571 0.675380 2.367000 59 32 42
-1.020626 0.674930 2.351000 61 32 43
-1.007168 0.670092 2.320000 55 29 45
-1.007168 0.674153 2.320000 48 27 36
-1.000222 0.673537 2.304000 57 30 28
-1.000222 0.677570 2.304000 66 33 42
-0.993710 0.677165 2.289000 61 39 57
-0.987198 0.676708 2.274000 55 38 48
-0.980686 0.676199 2.259000 50 40 39
-0.974174 0.675637 2.244000 45 44 47
-0.949429 0.662304 2.187000 46 40 56
-0.949429 0.666132 2.187000 48 34 50
-0.943786 0.665978 2.174000 53 35 45
-0.943786 0.669783 2.174000 58 37 42
-0.937708 0.669251 2.160000 57 36 39
-0.937708 0.673032 2.160000 57 41 20
-0.925987 0.668353 2.133000 53 38 1
-0.920343 0.667991 2.120000 50 37 17
-0.914699 0.667583 2.107000 53 34 33
-0.909490 0.667448 2.095000 56 34 37
-0.903846 0.666951 2.082000 53 31 41
-0.903846 0.670596 2.082000 50 33 43
-0.903846 0.674240 2.082000 53 33 46
-0.898203 0.673652 2.069000 56 34 50
-0.898203 0.677274 2.069000 53 32 55
-0.872155 0.661150 2.009000 51 31 47
-0.867380 0.661027 1.998000 53 39 39
-0.862170 0.660534 1.986000 54 50 49
-0.857395 0.660333 1.975000 49 42 59
-0.857395 0.663790 1.975000 45 42 68
-0.857395 0.667247 1.975000 47 42 78
-0.852620 0.666969 1.964000 50 42 40
-0.847410 0.666310 1.952000 49 43 3
-0.842635 0.665953 1.941000 48 47 21
-0.833518 0.662109 1.920000 51 39 39
-0.824401 0.658192 1.899000 55 35 39
-0.815285 0.654201 1.878000 55 36 39
-0.810944 0.653987 1.868000 55 36 37
-0.810944 0.657257 1.868000 52 36 35
-0.806602 0.656991 1.858000 49 34 23
-0.797920 0.653136 1.838000 50 34 12
-0.793579 0.652783 1.828000 51 31 21
-0.789672 0.652753 1.819000 53 35 31
-0.789672 0.655937 1.819000 56 35 26
-0.785330 0.655498 1.809000 56 34 22
-0.781423 0.655387 1.800000 57 34 48
-0.781423 0.658538 1.800000 60 29 75
-0.777082 0.658013 1.790000 64 27 57
-0.773175 0.657822 1.781000 59 32 39
-0.769268 0.657600 1.772000 54 34 35
-0.765361 0.657346 1.763000 56 33 31
-0.761454 0.657061 1.754000 58 34 36
-0.757546 0.656744 1.745000 59 32 42
-0.753639 0.656396 1.736000 61 32 46
-0.753639 0.659435 1.736000 55 37 50
-0.750166 0.659420 1.728000 50 41 50
-0.742786 0.655928 1.711000 48 42 51
-0.735406 0.652376 1.694000 45 44 52
-0.731933 0.652247 1.686000 49 35 54
-0.728026 0.651701 1.677000 53 29 43
-0.724553 0.651513 1.669000 55 33 32
-1.423806 -1.285460 3.293000 85 64 87
-1.423806 -1.279696 3.293000 85 65 89
-1.437210 -1.285924 3.324000 85 64 92
-1.451478 -1.292814 3.357000 86 64 89
-1.451478 -1.286938 3.357000 86 64 86
-1.451478 -1.281061 3.357000 86 64 80
-1.451478 -1.275185 3.357000 86 64 74
-1.465746 -1.281786 3.390000 87 63 85
-1.465746 -1.275852 3.390000 87 63 97
-1.451478 -1.257556 3.357000 88 67 91
-1.451478 -1.251679 3.357000 85 76 85
-1.451478 -1.245803 3.357000 83 74 84
-1.451478 -1.239926 3.357000 83 76 83
-1.451478 -1.234050 3.357000 83 72 83
-1.451478 -1.228174 3.357000 85 72 83
-1.451478 -1.222297 3.357000 87 70 86
-1.451478 -1.216421 3.357000 87 67 89
-1.451478 -1.210544 3.357000 88 63 92
-1.465746 -1.216510 3.390000 87 62 96
-1.465746 -1.210576 3.390000 86 65 92
-1.465746 -1.204642 3.390000 83 71 88
-1.465746 -1.198707 3.390000 80 69 84
-1.451478 -1.181162 3.357000 82 74 80
-1.451478 -1.175286 3.357000 84 72 77
-1.451478 -1.169409 3.357000 82 69 74
-1.451478 -1.163533 3.357000 80 68 84
-1.451478 -1.157657 3.357000 82 71 94
-1.451478 -1.151780 3.357000 85 68 91
-1.451478 -1.145904 3.357000 84 71 88
-1.451478 -1.140027 3.357000 83 66 85
-1.451478 -1.134151 3.357000 85 62 83
-1.451478 -1.128274 3.357000 87 63 84
-1.451478 -1.122398 3.357000 83 66 86
-1.451478 -1.116521 3.357000 79 67 89
-1.451478 -1.110645 3.357000 83 70 93
-1.465746 -1.115629 3.390000 87 67 90
-1.451478 -1.098892 3.357000 89 71 87
-1.437210 -1.082271 3.324000 91 69 88
-1.437210 -1.076452 3.324000 90 68 89
-1.437210 -1.070634 3.324000 89 68 92
-1.437210 -1.064815 3.324000 91 72 95
-1.437210 -1.058996 3.324000 93 72 90
-1.437210 -1.053178 3.324000 89 73 86
-1.451478 -1.057757 3.357000 85 75 86
-1.451478 -1.051881 3.357000 88 78 87
-1.451478 -1.046004 3.357000 92 73 88
-1.451478 -1.040128 3.357000 92 71 89
-1.451478 -1.034252 3.357000 93 73 94
-1.451478 -1.028375 3.357000 92 76 100
-1.451478 -1.022499 3.357000 91 76 99
-1.451478 -1.016622 3.357000 90 76 98
-1.451478 -1.010746 3.357000 90 76 90
-1.451478 -1.004869 3.357000 91 77 81
-1.451478 -0.998993 3.357000 93 74 93
-1.451478 -0.993116 3.357000 94 73 105
-1.451478 -0.987240 3.357000 96 72 102
-1.451478 -0.981364 3.357000 88 74 100
-1.451478 -0.975487 3.357000 80 77 97
-1.451478 -0.969611 3.357000 86 78 94
-1.437210 -0.954261 3.324000 93 78 93
-1.451478 -0.957858 3.357000 94 78 93
-1.451478 -0.951981 3.357000 95 72 97
-1.437210 -0.936805 3.324000 93 55 102
-1.437210 -0.930986 3.324000 92 64 103
-1.437210 -0.925167 3.324000 93 67 104
-1.437210 -0.919349 3.324000 94 71 102
-1.437210 -0.913530 3.324000 94 74 100
-1.437210 -0.907711 3.324000 94 75 93
-1.437210 -0.901893 3.324000 92 73 86
-1.437210 -0.896074 3.324000 91 73 89
-1.451478 -0.899094 3.357000 91 71 92
-1.451478 -0.893217 3.357000 91 73 92
-1.437210 -0.878618 3.324000 90 67 92
-1.437210 -0.872799 3.324000 90 74 90
-1.451478 -0.875588 3.357000 91 76 89
-1.451478 -0.869711 3.357000 92 70 95
-1.437210 -0.855343 3.324000 88 61 101
-1.437210 -0.849525 3.324000 84 65 99
-1.451478 -0.852082 3.357000 83 71 98
-1.451478 -0.846206 3.357000 83 66 90
-1.451478 -0.840329 3.357000 76 55 83
-1.451478 -0.834453 3.357000 70 51 72
-1.451478 -0.828576 3.357000 72 50 61
-1.451478 -0.822700 3.357000 74 44 60
-1.465746 -0.824853 3.390000 73 37 59
-1.465746 -0.818919 3.390000 73 38 51
-1.480015 -0.820899 3.423000 73 38 44
-1.510281 -0.831572 3.493000 74 38 32
-1.510281 -0.825457 3.493000 72 36 20
-1.525414 -0.827552 3.528000 71 35 28
-1.525414 -0.821377 3.528000 74 38 37
-1.525414 -0.815201 3.528000 78 36 30
-1.525414 -0.809025 3.528000 85 33 23
-1.541412 -0.811269 3.565000 92 38 16
-1.525414 -0.796674 3.528000 84 39 10
-1.525414 -0.790498 3.528000 76 41 17
-1.525414 -0.784322 3.528000 79 42 25
-1.525414 -0.778146 3.528000 82 38 27
-1.525414 -0.771971 3.528000 78 41 29
-1.525414 -0.765795 3.528000 75 45 31
-1.525414 -0.759619 3.528000 76 44 34
-1.525414 -0.753443 3.528000 77 39 27
-1.525414 -0.747267 3.528000 78 37 20
-1.525414 -0.741092 3.528000 80 36 33
-1.525414 -0.734916 3.528000 79 32 45
-1.525414 -0.728740 3.528000 78 33 40
-1.525414 -0.722564 3.528000 78 34 36
-1.525414 -0.716389 3.528000 78 34 34
-1.525414 -0.710213 3.528000 81 33 32
-1.525414 -0.704037 3.528000 84 30 22
-1.525414 -0.697861 3.528000 81 28 11
-1.541412 -0.698940 3.565000 79 35 19
-1.541412 -0.692699 3.565000 80 33 28
-1.541412 -0.686459 3.565000 81 35 28
-1.541412 -0.680218 3.565000 77 38 29
-1.541412 -0.673977 3.565000 74 38 29
-1.541412 -0.667737 3.565000 70 42 29
-1.541412 -0.661496 3.565000 66 39 28
-1.525414 -0.648455 3.528000 72 41 28
-1.541412 -0.649015 3.565000 78 39 18
-1.541412 -0.642775 3.565000 78 39 9
-1.541412 -0.636534 3.565000 79 37 19
-1.541412 -0.630294 3.565000 80 34 29
-1.541412 -0.624053 3.565000 81 34 20
-1.541412 -0.617813 3.565000 82 32 11
-1.541412 -0.611572 3.565000 83 35 15
-1.541412 -0.605332 3.565000 79 38 20
-1.541412 -0.599091 3.565000 76 38 37
-1.541412 -0.592851 3.565000 75 36 54
-1.541412 -0.586610 3.565000 74 32 49
-1.541412 -0.580370 3.565000 76 31 44
-1.541412 -0.574129 3.565000 78 38 47
-1.541412 -0.567888 3.565000 76 40 50
-1.541412 -0.561648 3.565000 75 38 45
-1.541412 -0.555407 3.565000 77 40 40
-1.541412 -0.549167 3.565000 79 36 27
-1.541412 -0.542926 3.565000 79 36 14
-1.541412 -0.536686 3.565000 79 34 16
-1.525414 -0.524940 3.528000 84 31 19
-1.525414 -0.518764 3.528000 89 34 19
-1.525414 -0.512588 3.528000 83 39 20
-1.525414 -0.506413 3.528000 77 37 30
-1.541412 -0.505483 3.565000 78 34 41
-1.541412 -0.499243 3.565000 79 35 36
-1.541412 -0.493002 3.565000 77 40 32
-1.541412 -0.486762 3.565000 76 39 33
-1.541412 -0.480521 3.565000 75 43 34
-1.525414 -0.469358 3.528000 74 41 22
-1.541412 -0.468040 3.565000 69 45 10
-1.541412 -0.461799 3.565000 65 42 7
-1.541412 -0.455559 3.565000 67 39 4
-1.541412 -0.449318 3.565000 69 42 6
-1.541412 -0.443078 3.565000 71 46 8
-1.541412 -0.436837 3.565000 74 45 8
-1.557410 -0.435066 3.602000 76 44 9
-1.541412 -0.424356 3.565000 78 40 20
-1.557410 -0.422455 3.602000 76 39 31
-1.557410 -0.416150 3.602000 75 39 26
-1.557410 -0.409845 3.602000 71 42 21
-1.557410 -0.403539 3.602000 68 42 29
-1.557410 -0.397234 3.602000 72 41 36
-1.557410 -0.390929 3.602000 76 32 37
-1.557410 -0.384623 3.602000 77 34 38
-1.557410 -0.378318 3.602000 79 34 43
-1.557410 -0.372013 3.602000 77 34 48
-1.525414 -0.358194 3.528000 76 34 32
-1.525414 -0.352019 3.528000 75 33 16
-1.525414 -0.345843 3.528000 74 36 19
-1.525414 -0.339667 3.528000 75 39 23
-1.510281 -0.330183 3.493000 77 38 23
-1.525414 -0.327315 3.528000 76 36 23
-1.525414 -0.321140 3.528000 76 37 23
-1.541412 -0.318267 3.565000 76 38 23
-1.525414 -0.308788 3.528000 77 40 21
-1.541412 -0.305786 3.565000 78 39 20
-1.557410 -0.302654 3.602000 80 38 16
-1.557410 -0.296349 3.602000 81 41 12
-1.557410 -0.290044 3.602000 82 39 20
-1.541412 -0.280824 3.565000 86 34 27
-1.541412 -0.274583 3.565000 90 33 42
-1.541412 -0.268343 3.565000 84 39 56
-1.541412 -0.262102 3.565000 79 39 46
-1.541412 -0.255862 3.565000 77 42 36
-1.541412 -0.249621 3.565000 75 43 34
-1.541412 -0.243381 3.565000 73 44 32
-1.557410 -0.239601 3.602000 71 43 25
-1.557410 -0.233296 3.602000 75 45 19
-1.557410 -0.226991 3.602000 79 39 27
-1.557410 -0.220686 3.602000 80 33 35
-1.557410 -0.214380 3.602000 82 37 32
-1.541412 -0.205937 3.565000 81 42 29
-1.557410 -0.201770 3.602000 81 39 31
-1.541412 -0.193456 3.565000 80 42 33
-1.541412 -0.187216 3.565000 80 42 32
-1.541412 -0.180975 3.565000 79 42 31
-1.541412 -0.174735 3.565000 79 40 44
-1.541412 -0.168494 3.565000 78 44 58
-1.541412 -0.162254 3.565000 78 40 44
-1.541412 -0.156013 3.565000 79 39 30
-1.541412 -0.149773 3.565000 81 38 32
-1.541412 -0.143532 3.565000 80 41 35
-1.541412 -0.137292 3.565000 80 40 21
-1.541412 -0.131051 3.565000 78 42 8
-1.541412 -0.124811 3.565000 76 37 23
-1.541412 -0.118570 3.565000 77 34 38
-1.541412 -0.112329 3.565000 78 39 20
-1.541412 -0.106089 3.565000 79 44 2
-1.541412 -0.099848 3.565000 81 38 17
-1.557410 -0.094579 3.602000 77 34 32
-1.557410 -0.088274 3.602000 73 37 39
-1.557410 -0.081969 3.602000 67 40 46
-1.557410 -0.075664 3.602000 62 40 37
-1.541412 -0.068646 3.565000 68 41 27
-1.541412 -0.062405 3.565000 74 37 20
-1.541412 -0.056165 3.565000 75 41 13
-1.541412 -0.049924 3.565000 76 39 21
-1.525414 -0.043230 3.528000 79 34 30
-1.525414 -0.037055 3.528000 82 35 25
-1.541412 -0.031203 3.565000 79 41 21
-1.541412 -0.024962 3.565000 77 38 22
-1.525414 -0.018527 3.528000 75 34 24
-1.525414 -0.012351 3.528000 73 33 32
-1.525414 -0.006176 3.528000 73 35 41
-1.541412 -0.000000 3.565000 73 36 37
-1.541412 0.006241 3.565000 72 41 33
-1.541412 0.012481 3.565000 71 38 25
-1.541412 0.018722 3.565000 73 34 17
-1.557410 0.025221 3.602000 76 31 18
-1.557410 0.031527 3.602000 76 33 19
-1.557410 0.037832 3.602000 77 31 29
-1.541412 0.043684 3.565000 78 34 39
-1.557410 0.050443 3.602000 79 38 28
-1.541412 0.056165 3.565000 84 38 17
-1.541412 0.062405 3.565000 89 34 18
-1.557410 0.069358 3.602000 85 30 19
-1.557410 0.075664 3.602000 81 35 12
-1.557410 0.081969 3.602000 77 45 6
-1.557410 0.088274 3.602000 73 42 21
-1.557410 0.094580 3.602000 75 37 36
-1.557410 0.100885 3.602000 77 35 37
-1.557410 0.107190 3.602000 76 39 38
-1.557410 0.113495 3.602000 76 39 23
-1.557410 0.119801 3.602000 78 41 8
-1.541412 0.124811 3.565000 80 40 14
-1.541412 0.131051 3.565000 79 41 20
-1.541412 0.137292 3.565000 78 40 19
-1.541412 0.143532 3.565000 77 41 18
-1.541412 0.149773 3.565000 77 41 16
-1.541412 0.156013 3.565000 83 44 15
-1.541412 0.162254 3.565000 89 40 18
-1.541412 0.168494 3.565000 84 31 22
-1.541412 0.174735 3.565000 79 29 34
-1.541412 0.180976 3.565000 81 31 47
-1.541412 0.187216 3.565000 83 36 36
-1.541412 0.193457 3.565000 78 40 26
-1.541412 0.199697 3.565000 73 40 22
-1.541412 0.205938 3.565000 66 41 18
-1.557410 0.214380 3.602000 59 40 13
-1.557410 0.220686 3.602000 67 41 9
-1.557410 0.226991 3.602000 76 36 16
-1.557410 0.233296 3.602000 76 34 24
-1.557410 0.239602 3.602000 77 38 16
-1.557410 0.245907 3.602000 77 42 8
-1.541412 0.249621 3.565000 77 38 11
-1.541412 0.255862 3.565000 77 39 14
-1.541412 0.262102 3.565000 77 41 19
-1.541412 0.268343 3.565000 77 41 24
-1.541412 0.274584 3.565000 78 34 35
-1.557410 0.283739 3.602000 76 31 46
-1.557410 0.290044 3.602000 74 33 35
-1.557410 0.296349 3.602000 73 37 24
-1.541412 0.299546 3.565000 72 36 23
-1.557410 0.308960 3.602000 74 39 22
-1.541412 0.312027 3.565000 76 37 20
-1.541412 0.318267 3.565000 70 35 19
-1.541412 0.324508 3.565000 65 34 25
-1.541412 0.330748 3.565000 70 34 30
-1.541412 0.336989 3.565000 76 36 28
-1.557410 0.346792 3.602000 76 39 26
-1.557410 0.353097 3.602000 76 32 26
-1.557410 0.359402 3.602000 75 30 25
-1.557410 0.365707 3.602000 75 36 25
-1.557410 0.372013 3.602000 77 37 25
-1.557410 0.378318 3.602000 79 34 37
-1.557410 0.384623 3.602000 76 33 48
-1.557410 0.390929 3.602000 74 35 38
-1.557410 0.397234 3.602000 73 40 27
-1.557410 0.403539 3.602000 72 35 24
-1.557410 0.409845 3.602000 74 31 21
-1.541412 0.411875 3.565000 77 28 25
-1.541412 0.418116 3.565000 76 26 29
-1.541412 0.424356 3.565000 76 27 26
-1.541412 0.430597 3.565000 74 38 24
-1.541412 0.436837 3.565000 72 38 26
-1.541412 0.443078 3.565000 77 39 27
-1.541412 0.449318 3.565000 83 34 19
-1.525414 0.450831 3.528000 79 34 11
-1.541412 0.461800 3.565000 76 34 12
-1.541412 0.468040 3.565000 72 36 12
-1.541412 0.474281 3.565000 69 31 15
-1.541412 0.480521 3.565000 70 30 19
-1.541412 0.486762 3.565000 71 31 23
-1.541412 0.493002 3.565000 69 32 28
-1.541412 0.499243 3.565000 67 31 26
-1.541412 0.505483 3.565000 67 34 24
-1.541412 0.511724 3.565000 67 34 28
-1.525414 0.512589 3.528000 67 34 32
-1.525414 0.518764 3.528000 67 30 39
-1.525414 0.524940 3.528000 68 26 46
-1.525414 0.531116 3.528000 70 29 30
-1.525414 0.537292 3.528000 70 33 15
-1.525414 0.543467 3.528000 70 32 22
-1.541412 0.555408 3.565000 66 37 30
-1.541412 0.561648 3.565000 63 35 20
-1.541412 0.567889 3.565000 67 33 10
-1.541412 0.574129 3.565000 71 33 22
-1.541412 0.580370 3.565000 68 36 35
-1.541412 0.586610 3.565000 65 34 29
-1.557410 0.599004 3.602000 72 36 24
-1.557410 0.605309 3.602000 79 33 20
-1.541412 0.605332 3.565000 70 28 17
-1.541412 0.611572 3.565000 62 32 11
-1.541412 0.617813 3.565000 44 39 6
-1.541412 0.624053 3.565000 26 16 4
-1.541412 0.630294 3.565000 13 4 3
-1.541412 0.636534 3.565000 1 3 5
-1.541412 0.642775 3.565000 3 2 7
-1.557410 0.655751 3.602000 5 2 16
-1.573840 0.669041 3.640000 4 2 25
-1.573840 0.675413 3.640000 3 1 16
-1.607565 0.696395 3.718000 3 1 7
-1.186001 0.691434 2.743000 61 30 36
-1.176921 0.690905 2.722000 54 35 22
-1.167841 0.690303 2.701000 48 34 42
-1.158761 0.689627 2.680000 54 35 62
-1.149681 0.688878 2.659000 61 26 54
-1.141034 0.688316 2.639000 61 21 47
-1.141034 0.692936 2.639000 61 25 43
-1.132386 0.692269 2.619000 60 29 38
-1.106876 0.681155 2.560000 60 30 37
-1.090878 0.675726 2.523000 63 30 36
-1.090878 0.680143 2.523000 67 30 34
-1.083096 0.679676 2.505000 59 29 32
-1.083096 0.684061 2.505000 51 30 49
-1.075313 0.683499 2.487000 53 34 67
-1.075313 0.687852 2.487000 55 32 60
-1.052397 0.677454 2.434000 56 30 53
-1.045047 0.676953 2.417000 58 34 53
-1.037696 0.676393 2.400000 59 41 53
-1.030779 0.676057 2.384000 60 32 47
-1.016510 0.670815 2.351000 62 28 41
-1.009592 0.670337 2.335000 65 27 44
-1.003107 0.670092 2.320000 54 24 47
-1.003107 0.674153 2.320000 44 25 44
-0.996189 0.673537 2.304000 58 29 42
-0.989703 0.673158 2.289000 73 32 47
-0.983217 0.672728 2.274000 64 38 53
-0.976732 0.672245 2.259000 56 38 47
-0.970246 0.671709 2.244000 53 41 42
-0.970246 0.675637 2.244000 51 43 56
-0.945601 0.662304 2.187000 51 43 70
-0.945601 0.666132 2.187000 52 38 53
-0.939980 0.665978 2.174000 55 38 35
-0.939980 0.669783 2.174000 58 33 42
-0.933927 0.669251 2.160000 57 34 48
-0.933927 0.673032 2.160000 56 39 32
-0.922253 0.668353 2.133000 50 40 16
-0.916632 0.667991 2.120000 44 34 26
-0.911011 0.667583 2.107000 49 30 37
-0.905823 0.667448 2.095000 55 31 42
-0.900202 0.666951 2.082000 51 29 48
-0.900202 0.670596 2.082000 47 29 50
-0.900202 0.674240 2.082000 50 29 52
-0.894581 0.673652 2.069000 54 31 60
-0.879015 0.665489 2.033000 52 31 69
-0.868638 0.661150 2.009000 50 32 59
-0.858694 0.657057 1.986000 54 36 50
-0.858694 0.660534 1.986000 59 38 54
-0.853938 0.660333 1.975000 54 39 59
-0.853938 0.663790 1.975000 49 38 61
-0.853938 0.667247 1.975000 51 42 64
-0.849182 0.666969 1.964000 53 43 42
-0.849182 0.670407 1.964000 55 47 21
-0.839237 0.665953 1.941000 58 41 34
-0.834913 0.665903 1.931000 57 37 47
-0.830157 0.665470 1.920000 56 33 45
-0.821077 0.661516 1.899000 56 34 43
-0.811998 0.657488 1.878000 56 34 41
-0.807674 0.657257 1.868000 54 36 40
-0.803350 0.656991 1.858000 52 33 35
-0.790379 0.649583 1.828000 53 33 29
-0.786487 0.649569 1.819000 55 32 41
-0.786487 0.652753 1.819000 63 33 53
-0.782164 0.652331 1.809000 71 32 42
-0.782164 0.655498 1.809000 66 31 32
-0.778272 0.655387 1.800000 61 31 47
-0.778272 0.658538 1.800000 66 26 62
-0.770057 0.654705 1.781000 71 29 51
-0.766166 0.654498 1.772000 64 37 40
-0.762275 0.654260 1.763000 58 33 40
-0.762275 0.657346 1.763000 59 30 41
-0.758383 0.657061 1.754000 61 31 44
-0.756221 0.658249 1.749000 64 33 47
-0.754492 0.659799 1.745000 67 33 53
-0.754492 0.662853 1.745000 60 36 60
-0.750600 0.662473 1.736000 53 38 58
-0.739791 0.655928 1.711000 54 42 57
-0.732441 0.652376 1.694000 55 39 60
-0.728982 0.652247 1.686000 55 39 63
-0.725090 0.651701 1.677000 55 36 39
-0.721631 0.651513 1.669000 56 41 16
-1.431391 -1.297562 3.324000 87 64 87
-1.445602 -1.304567 3.357000 86 67 92
-1.445602 -1.298691 3.357000 87 66 98
-1.445602 -1.292814 3.357000 89 65 91
-1.445602 -1.286938 3.357000 88 66 85
-1.445602 -1.281061 3.357000 87 66 76
-1.459812 -1.287720 3.390000 87 65 67
-1.459812 -1.281786 3.390000 88 60 86
-1.459812 -1.275852 3.390000 88 63 105
-1.459812 -1.269918 3.390000 89 64 96
-1.445602 -1.251679 3.357000 87 72 87
-1.445602 -1.245803 3.357000 86 76 85
-1.445602 -1.239926 3.357000 86 75 83
-1.445602 -1.234050 3.357000 86 75 84
-1.445602 -1.228174 3.357000 87 70 86
-1.445602 -1.222297 3.357000 88 71 87
-1.445602 -1.216421 3.357000 88 66 89
-1.445602 -1.210544 3.357000 89 61 88
-1.445602 -1.204668 3.357000 88 64 88
-1.445602 -1.198792 3.357000 88 68 88
-1.459812 -1.204642 3.390000 86 68 89
-1.445602 -1.187039 3.357000 84 65 85
-1.445602 -1.181162 3.357000 85 72 82
-1.445602 -1.175286 3.357000 87 74 87
-1.445602 -1.169409 3.357000 86 67 93
-1.445602 -1.163533 3.357000 84 63 96
-1.445602 -1.157657 3.357000 86 65 100
-1.445602 -1.151780 3.357000 89 68 96
-1.445602 -1.145904 3.357000 88 70 92
-1.445602 -1.140027 3.357000 87 67 92
-1.459812 -1.145300 3.390000 91 60 93
-1.459812 -1.139366 3.390000 95 55 91
-1.459812 -1.133431 3.390000 90 65 90
-1.459812 -1.127497 3.390000 86 71 92
-1.459812 -1.121563 3.390000 88 67 95
-1.459812 -1.115629 3.390000 91 65 93
-1.459812 -1.109695 3.390000 92 65 92
-1.445602 -1.093016 3.357000 94 65 93
-1.445602 -1.087139 3.357000 93 68 95
-1.445602 -1.081263 3.357000 92 65 97
-1.431391 -1.064815 3.324000 94 72 100
-1.431391 -1.058996 3.324000 96 76 96
-1.445602 -1.063634 3.357000 93 76 92
-1.445602 -1.057757 3.357000 91 74 91
-1.445602 -1.051881 3.357000 92 74 91
-1.445602 -1.046004 3.357000 94 74 91
-1.445602 -1.040128 3.357000 95 75 91
-1.445602 -1.034252 3.357000 96 76 95
-1.445602 -1.028375 3.357000 95 78 99
-1.445602 -1.022499 3.357000 94 80 102
-1.445602 -1.016622 3.357000 93 78 106
-1.445602 -1.010746 3.357000 93 78 101
-1.445602 -1.004869 3.357000 94 79 96
-1.445602 -0.998993 3.357000 96 80 105
-1.459812 -1.002879 3.390000 99 77 114
-1.445602 -0.987240 3.357000 101 76 110
-1.445602 -0.981364 3.357000 94 78 106
-1.445602 -0.975487 3.357000 88 80 103
-1.445602 -0.969611 3.357000 93 80 100
-1.445602 -0.963734 3.357000 98 82 100
-1.445602 -0.957858 3.357000 98 81 101
-1.445602 -0.951981 3.357000 98 83 105
-1.445602 -0.946105 3.357000 97 74 109
-1.445602 -0.940229 3.357000 96 76 112
-1.445602 -0.934352 3.357000 97 74 116
-1.445602 -0.928476 3.357000 98 73 113
-1.431391 -0.913530 3.324000 98 75 110
-1.445602 -0.916723 3.357000 98 76 101
-1.431391 -0.901893 3.324000 96 80 92
-1.445602 -0.904970 3.357000 95 81 93
-1.445602 -0.899094 3.357000 95 82 94
-1.445602 -0.893217 3.357000 95 92 95
-1.445602 -0.887341 3.357000 93 82 96
-1.445602 -0.881464 3.357000 92 82 97
-1.459812 -0.884195 3.390000 94 81 99
-1.445602 -0.869711 3.357000 97 82 103
-1.445602 -0.863835 3.357000 99 73 107
-1.431391 -0.849525 3.324000 101 74 104
-1.445602 -0.852082 3.357000 94 75 101
-1.445602 -0.846206 3.357000 88 78 92
-1.445602 -0.840329 3.357000 82 63 84
-1.445602 -0.834453 3.357000 76 49 73
-1.445602 -0.828576 3.357000 76 47 62
-1.445602 -0.822700 3.357000 76 44 62
-1.459812 -0.824853 3.390000 75 39 62
-1.459812 -0.818919 3.390000 75 38 55
-1.474023 -0.820899 3.423000 75 40 48
-1.504166 -0.831572 3.493000 75 42 44
-1.504166 -0.825457 3.493000 73 40 40
-1.519238 -0.827552 3.528000 72 39 43
-1.519238 -0.821377 3.528000 75 37 46
-1.535171 -0.823750 3.565000 78 34 33
-1.535171 -0.817510 3.565000 83 39 20
-1.535171 -0.811269 3.565000 87 44 19
-1.535171 -0.805029 3.565000 83 39 19
-1.519238 -0.790498 3.528000 79 41 30
-1.535171 -0.792548 3.565000 81 38 41
-1.535171 -0.786307 3.565000 83 32 33
-1.535171 -0.780067 3.565000 80 41 26
-1.519238 -0.765795 3.528000 78 51 35
-1.519238 -0.759619 3.528000 77 44 44
-1.519238 -0.753443 3.528000 77 38 40
-1.519238 -0.747267 3.528000 77 37 37
-1.519238 -0.741092 3.528000 78 36 51
-1.519238 -0.734916 3.528000 77 35 65
-1.519238 -0.728740 3.528000 77 34 53
-1.519238 -0.722564 3.528000 77 33 41
-1.535171 -0.723902 3.565000 78 33 40
-1.535171 -0.717661 3.565000 80 32 39
-1.535171 -0.711421 3.565000 81 32 30
-1.535171 -0.705180 3.565000 80 35 22
-1.551104 -0.706194 3.602000 79 45 24
-1.535171 -0.692699 3.565000 82 36 26
-1.535171 -0.686459 3.565000 85 31 27
-1.535171 -0.680218 3.565000 80 34 29
-1.535171 -0.673977 3.565000 76 34 31
-1.535171 -0.667737 3.565000 75 36 34
-1.535171 -0.661496 3.565000 74 34 34
-1.535171 -0.655256 3.565000 76 37 34
-1.535171 -0.649015 3.565000 79 39 24
-1.535171 -0.642775 3.565000 80 37 15
-1.535171 -0.636534 3.565000 82 37 29
-1.535171 -0.630294 3.565000 81 36 44
-1.535171 -0.624053 3.565000 81 34 27
-1.535171 -0.617813 3.565000 81 33 11
-1.551104 -0.617920 3.602000 82 34 18
-1.535171 -0.605332 3.565000 79 36 26
-1.535171 -0.599091 3.565000 77 37 35
-1.535171 -0.592851 3.565000 76 33 44
-1.535171 -0.586610 3.565000 75 28 46
-1.535171 -0.580370 3.565000 77 34 49
-1.535171 -0.574129 3.565000 80 39 54
-1.535171 -0.567888 3.565000 81 39 59
-1.535171 -0.561648 3.565000 83 39 53
-1.535171 -0.555407 3.565000 81 36 47
-1.535171 -0.549167 3.565000 80 34 37
-1.535171 -0.542926 3.565000 80 33 27
-1.535171 -0.536686 3.565000 80 30 26
-1.535171 -0.530445 3.565000 82 31 26
-1.535171 -0.524205 3.565000 84 33 25
-1.535171 -0.517964 3.565000 81 37 25
-1.535171 -0.511724 3.565000 77 38 39
-1.551104 -0.510729 3.602000 78 36 53
-1.535171 -0.499243 3.565000 78 37 44
-1.535171 -0.493002 3.565000 79 36 35
-1.551104 -0.491813 3.602000 79 32 40
-1.535171 -0.480521 3.565000 77 36 46
-1.535171 -0.474280 3.565000 76 39 28
-1.535171 -0.468040 3.565000 73 41 11
-1.535171 -0.461799 3.565000 71 43 7
-1.551104 -0.460287 3.602000 76 41 3
-1.551104 -0.453982 3.602000 80 41 7
-1.535171 -0.443078 3.565000 79 43 12
-1.535171 -0.436837 3.565000 78 42 9
-1.535171 -0.430597 3.565000 78 39 7
-1.551104 -0.428760 3.602000 79 35 24
-1.551104 -0.422455 3.602000 77 37 41
-1.551104 -0.416150 3.602000 76 36 40
-1.567468 -0.414168 3.640000 74 37 39
-1.567468 -0.407796 3.640000 73 38 55
-1.567468 -0.401425 3.640000 77 32 71
-1.567468 -0.395053 3.640000 80 23 56
-1.567468 -0.388681 3.640000 80 29 41
-1.551104 -0.378318 3.602000 80 31 37
-1.551104 -0.372013 3.602000 78 33 34
-1.551104 -0.365707 3.602000 77 34 32
-1.535171 -0.355710 3.565000 76 33 31
-1.551104 -0.353097 3.602000 76 34 28
-1.535171 -0.343229 3.565000 76 36 26
-1.535171 -0.336989 3.565000 77 38 23
-1.535171 -0.330748 3.565000 75 35 21
-1.535171 -0.324508 3.565000 73 35 11
-1.535171 -0.318267 3.565000 75 38 1
-1.535171 -0.312027 3.565000 77 41 10
-1.535171 -0.305786 3.565000 75 36 20
-1.535171 -0.299545 3.565000 74 34 17
-1.535171 -0.293305 3.565000 77 37 14
-1.535171 -0.287064 3.565000 79 38 27
-1.535171 -0.280824 3.565000 80 34 41
-1.535171 -0.274583 3.565000 81 32 59
-1.535171 -0.268343 3.565000 80 35 78
-1.535171 -0.262102 3.565000 78 36 61
-1.535171 -0.255862 3.565000 77 39 45
-1.551104 -0.252212 3.602000 75 42 41
-1.551104 -0.245907 3.602000 75 42 38
-1.551104 -0.239601 3.602000 75 42 32
-1.551104 -0.233296 3.602000 78 41 27
-1.567468 -0.229385 3.640000 81 38 43
-1.567468 -0.223014 3.640000 82 35 59
-1.551104 -0.214380 3.602000 84 34 47
-1.551104 -0.208075 3.602000 84 34 35
-1.567468 -0.203898 3.640000 85 36 29
-1.567468 -0.197526 3.640000 82 37 24
-1.567468 -0.191155 3.640000 80 41 28
-1.567468 -0.184783 3.640000 77 41 32
-1.551104 -0.176548 3.602000 73 42 51
-1.567468 -0.172039 3.640000 74 42 71
-1.551104 -0.163938 3.602000 76 43 55
-1.551104 -0.157632 3.602000 78 40 39
-1.551104 -0.151327 3.602000 81 39 48
-1.551104 -0.145022 3.602000 80 39 57
-1.551104 -0.138717 3.602000 79 40 34
-1.551104 -0.132411 3.602000 75 43 12
-1.551104 -0.126106 3.602000 72 45 32
-1.551104 -0.119801 3.602000 74 42 53
-1.551104 -0.113495 3.602000 76 40 27
-1.551104 -0.107190 3.602000 77 37 1
-1.551104 -0.100885 3.602000 79 34 17
-1.551104 -0.094579 3.602000 77 35 33
-1.551104 -0.088274 3.602000 75 36 45
-1.551104 -0.081969 3.602000 72 39 58
-1.551104 -0.075664 3.602000 70 41 46
-1.551104 -0.069358 3.602000 73 36 34
-1.535171 -0.062405 3.565000 76 26 24
-1.535171 -0.056165 3.565000 76 34 14
-1.535171 -0.049924 3.565000 76 38 20
-1.535171 -0.043684 3.565000 78 33 27
-1.535171 -0.037443 3.565000 80 27 20
-1.535171 -0.031203 3.565000 78 35 13
-1.535171 -0.024962 3.565000 77 40 19
-1.535171 -0.018721 3.565000 76 34 26
-1.535171 -0.012481 3.565000 75 29 26
-1.535171 -0.006240 3.565000 74 32 26
-1.535171 -0.000000 3.565000 73 33 29
-1.535171 0.006241 3.565000 73 37 32
-1.551104 0.012611 3.602000 74 38 26
-1.535171 0.018722 3.565000 75 30 21
-1.551104 0.025221 3.602000 77 24 20
-1.551104 0.031527 3.602000 80 28 20
-1.551104 0.037832 3.602000 82 26 32
-1.551104 0.044137 3.602000 80 30 44
-1.551104 0.050443 3.602000 77 36 33
-1.551104 0.056748 3.602000 80 36 22
-1.567468 0.063718 3.640000 84 34 25
-1.567468 0.070090 3.640000 82 34 28
-1.567468 0.076462 3.640000 80 36 20
-1.551104 0.081969 3.602000 77 40 12
-1.551104 0.088274 3.602000 75 43 23
-1.551104 0.094580 3.602000 76 37 34
-1.551104 0.100885 3.602000 78 33 42
-1.551104 0.107190 3.602000 77 37 50
-1.551104 0.113495 3.602000 77 44 25
-1.551104 0.119801 3.602000 80 41 1
-1.551104 0.126106 3.602000 83 37 13
-1.551104 0.132411 3.602000 80 37 26
-1.551104 0.138717 3.602000 78 38 26
-1.551104 0.145022 3.602000 75 37 26
-1.551104 0.151327 3.602000 73 34 22
-1.551104 0.157633 3.602000 78 39 18
-1.551104 0.163938 3.602000 83 40 18
-1.551104 0.170243 3.602000 80 33 18
-1.551104 0.176548 3.602000 78 28 25
-1.551104 0.182854 3.602000 79 33 32
-1.551104 0.189159 3.602000 80 36 26
-1.551104 0.195464 3.602000 77 38 21
-1.551104 0.201770 3.602000 75 39 17
-1.567468 0.210270 3.640000 71 40 14
-1.567468 0.216642 3.640000 68 42 14
-1.567468 0.223014 3.640000 74 39 14
-1.567468 0.229386 3.640000 81 38 21
-1.567468 0.235757 3.640000 79 36 29
-1.551104 0.239602 3.602000 78 39 18
-1.551104 0.245907 3.602000 77 38 8
-1.551104 0.252212 3.602000 77 34 11
-1.551104 0.258517 3.602000 78 37 15
-1.551104 0.264823 3.602000 78 39 18
-1.535171 0.268343 3.565000 78 37 21
-1.551104 0.277433 3.602000 78 30 29
-1.551104 0.283739 3.602000 76 32 37
-1.551104 0.290044 3.602000 75 35 34
-1.551104 0.296349 3.602000 75 34 32
-1.551104 0.302655 3.602000 75 34 28
-1.551104 0.308960 3.602000 78 35 24
-1.551104 0.315265 3.602000 82 34 25
-1.551104 0.321571 3.602000 77 34 27
-1.551104 0.327876 3.602000 71 34 28
-1.551104 0.334181 3.602000 74 33 30
-1.551104 0.340486 3.602000 77 35 16
-1.551104 0.346792 3.602000 77 32 3
-1.551104 0.353097 3.602000 77 24 16
-1.551104 0.359402 3.602000 76 29 29
-1.551104 0.365707 3.602000 76 34 29
-1.551104 0.372013 3.602000 76 34 30
-1.551104 0.378318 3.602000 77 32 44
-1.551104 0.384623 3.602000 75 32 59
-1.551104 0.390929 3.602000 73 31 44
-1.551104 0.397234 3.602000 73 34 29
-1.551104 0.403539 3.602000 74 38 29
-1.551104 0.409845 3.602000 75 32 29
-1.551104 0.416150 3.602000 77 27 38
-1.551104 0.422455 3.602000 79 23 47
-1.551104 0.428761 3.602000 81 17 42
-1.535171 0.430597 3.565000 73 30 37
-1.551104 0.441371 3.602000 66 41 42
-1.551104 0.447676 3.602000 73 34 47
-1.535171 0.449318 3.565000 80 27 34
-1.535171 0.455559 3.565000 78 30 21
-1.551104 0.466592 3.602000 77 33 15
-1.535171 0.468040 3.565000 74 30 9
-1.535171 0.474281 3.565000 71 30 12
-1.535171 0.480521 3.565000 73 28 15
-1.551104 0.491814 3.602000 76 31 25
-1.551104 0.498119 3.602000 74 29 35
-1.551104 0.504424 3.602000 71 26 35
-1.535171 0.505483 3.565000 70 29 35
-1.535171 0.511724 3.565000 69 30 32
-1.519238 0.512589 3.528000 70 28 29
-1.535171 0.524205 3.565000 70 24 29
-1.535171 0.530445 3.565000 71 27 30
-1.519238 0.531116 3.528000 72 30 29
-1.519238 0.537292 3.528000 72 29 28
-1.535171 0.549167 3.565000 72 30 38
-1.535171 0.555408 3.565000 71 31 48
-1.535171 0.561648 3.565000 69 32 30
-1.535171 0.567889 3.565000 73 31 13
-1.535171 0.574129 3.565000 78 35 17
-1.535171 0.580370 3.565000 73 33 21
-1.535171 0.586610 3.565000 68 28 27
-1.551104 0.599004 3.602000 71 32 34
-1.551104 0.605309 3.602000 75 34 28
-1.551104 0.611614 3.602000 69 29 22
-1.551104 0.617920 3.602000 64 26 16
-1.551104 0.624225 3.602000 44 17 10
-1.551104 0.630530 3.602000 23 1 5
-1.551104 0.636836 3.602000 15 2 1
-1.551104 0.643141 3.602000 7 3 2
-1.551104 0.649446 3.602000 10 2 3
-1.567468 0.662669 3.640000 13 2 7
-1.567468 0.669041 3.640000 9 1 12
-1.584262 0.682650 3.679000 5 1 6
-1.584262 0.689090 3.679000 4 1 1
-1.181199 0.691434 2.743000 72 25 45
-1.172156 0.690905 2.722000 64 30 41
-1.154070 0.684936 2.680000 57 31 59
-1.145027 0.684223 2.659000 62 27 78
-1.145027 0.688878 2.659000 68 18 66
-1.136414 0.688316 2.639000 65 18 54
-1.136414 0.692936 2.639000 63 18 47
-1.127802 0.692269 2.619000 61 26 41
-1.102395 0.681155 2.560000 60 30 36
-1.086462 0.675726 2.523000 60 29 31
-1.086462 0.680143 2.523000 61 31 19
-1.078711 0.679676 2.505000 53 30 8
-1.070960 0.679145 2.487000 46 30 31
-1.070960 0.683499 2.487000 50 31 54
-1.063208 0.682874 2.469000 55 32 55
-1.048136 0.677454 2.434000 56 31 56
-1.040816 0.676953 2.417000 58 32 60
-1.026605 0.671884 2.384000 59 34 64
-1.019285 0.671236 2.367000 61 32 52
-1.012395 0.670815 2.351000 62 28 41
-1.012395 0.674930 2.351000 63 26 45
-0.999046 0.670092 2.320000 55 25 50
-0.999046 0.674153 2.320000 48 22 53
-0.992156 0.673537 2.304000 56 25 56
-0.992156 0.677570 2.304000 65 28 52
-0.985696 0.677165 2.289000 59 32 49
-0.972778 0.672245 2.259000 53 36 47
-0.972778 0.676199 2.259000 52 40 45
-0.966318 0.675637 2.244000 51 47 65
-0.947801 0.666543 2.201000 52 42 85
-0.941773 0.666132 2.187000 53 39 55
-0.936175 0.665978 2.174000 55 30 26
-0.936175 0.669783 2.174000 58 23 42
-0.936175 0.673589 2.174000 58 34 58
-0.930146 0.673032 2.160000 58 42 44
-0.918519 0.668353 2.133000 54 36 31
-0.912921 0.667991 2.120000 50 30 36
-0.907323 0.667583 2.107000 54 31 41
-0.902155 0.667448 2.095000 59 32 48
-0.896557 0.666951 2.082000 60 29 55
-0.896557 0.670596 2.082000 61 25 57
-0.896557 0.674240 2.082000 59 27 59
-0.896557 0.677885 2.082000 58 30 71
-0.875457 0.665489 2.033000 55 29 83
-0.865122 0.661150 2.009000 52 31 72
-0.855217 0.657057 1.986000 55 31 61
-0.855217 0.660534 1.986000 57 30 60
-0.850481 0.660333 1.975000 54 32 59
-0.850481 0.663790 1.975000 50 32 55
-0.850481 0.667247 1.975000 48 37 51
-0.845744 0.666969 1.964000 46 42 45
-0.840576 0.666310 1.952000 56 41 39
-0.835839 0.665953 1.941000 65 34 47
-0.831533 0.665903 1.931000 62 30 56
-0.826796 0.665470 1.920000 59 27 51
-0.817753 0.661516 1.899000 58 30 47
-0.813016 0.660989 1.888000 58 32 46
-0.808710 0.660775 1.878000 56 33 46
-0.804404 0.660527 1.868000 55 32 46
-0.787179 0.649583 1.828000 55 31 47
-0.787179 0.652783 1.828000 55 33 61
-0.783303 0.652753 1.819000 58 30 75
-0.783303 0.655937 1.819000 60 29 58
-0.778997 0.655498 1.809000 59 30 42
-0.775122 0.655387 1.800000 58 33 46
-0.775122 0.658538 1.800000 62 29 50
-0.770815 0.658013 1.790000 65 28 45
-0.763064 0.654498 1.772000 61 32 41
-0.759188 0.654260 1.763000 57 34 46
-0.759188 0.657346 1.763000 57 31 51
-0.755313 0.657061 1.754000 58 30 51
-0.755313 0.660131 1.754000 59 30 52
-0.751437 0.659799 1.745000 61 31 61
-0.751437 0.662853 1.745000 57 33 70
-0.747562 0.662473 1.736000 53 34 66
-0.732920 0.652478 1.702000 55 36 63
-0.729476 0.652376 1.694000 57 34 67
-0.726031 0.652247 1.686000 56 33 72
-0.722155 0.651701 1.677000 55 35 36
-0.722155 0.654636 1.677000 58 36 1
-1.439725 -1.304567 3.357000 88 66 85
-1.439725 -1.298691 3.357000 90 68 92
-1.439725 -1.292814 3.357000 92 66 89
-1.439725 -1.286938 3.357000 90 69 85
-1.453878 -1.293655 3.390000 88 67 79
-1.453878 -1.287720 3.390000 88 70 73
-1.453878 -1.281786 3.390000 89 65 84
-1.453878 -1.275852 3.390000 89 67 96
-1.453878 -1.269918 3.390000 90 69 93
-1.453878 -1.263984 3.390000 90 74 90
-1.453878 -1.258049 3.390000 90 74 88
-1.453878 -1.252115 3.390000 90 73 86
-1.439725 -1.234050 3.357000 90 72 89
-1.439725 -1.228174 3.357000 89 62 92
-1.439725 -1.222297 3.357000 89 68 91
-1.439725 -1.216421 3.357000 90 67 89
-1.439725 -1.210544 3.357000 91 70 87
-1.439725 -1.204668 3.357000 90 66 85
-1.439725 -1.198792 3.357000 90 69 89
-1.453878 -1.204642 3.390000 89 69 93
-1.453878 -1.198707 3.390000 88 69 92
-1.439725 -1.181162 3.357000 89 77 92
-1.439725 -1.175286 3.357000 91 74 95
-1.439725 -1.169409 3.357000 90 62 99
-1.439725 -1.163533 3.357000 89 63 100
-1.439725 -1.157657 3.357000 91 59 101
-1.439725 -1.151780 3.357000 93 72 99
-1.439725 -1.145904 3.357000 92 77 97
-1.439725 -1.140027 3.357000 92 71 96
-1.439725 -1.134151 3.357000 97 56 95
-1.453878 -1.139366 3.390000 103 65 93
-1.468031 -1.144465 3.423000 98 71 92
-1.453878 -1.127497 3.390000 93 73 90
-1.453878 -1.121563 3.390000 94 62 89
-1.453878 -1.115629 3.390000 95 65 81
-1.453878 -1.109695 3.390000 96 60 73
-1.453878 -1.103760 3.390000 98 71 88
-1.439725 -1.087139 3.357000 97 75 103
-1.439725 -1.081263 3.357000 96 74 103
-1.425572 -1.064815 3.324000 97 77 103
-1.425572 -1.058996 3.324000 99 79 102
-1.425572 -1.053178 3.324000 98 81 100
-1.439725 -1.057757 3.357000 97 80 96
-1.439725 -1.051881 3.357000 97 72 93
-1.439725 -1.046004 3.357000 97 79 100
-1.439725 -1.040128 3.357000 98 81 107
-1.439725 -1.034252 3.357000 100 79 104
-1.439725 -1.028375 3.357000 98 80 101
-1.439725 -1.022499 3.357000 97 82 103
-1.439725 -1.016622 3.357000 96 80 106
-1.453878 -1.020682 3.390000 96 79 105
-1.453878 -1.014747 3.390000 98 82 104
-1.453878 -1.008813 3.390000 100 81 107
-1.453878 -1.002879 3.390000 103 80 110
-1.453878 -0.996945 3.390000 107 81 102
-1.453878 -0.991011 3.390000 101 83 95
-1.453878 -0.985076 3.390000 96 84 103
-1.453878 -0.979142 3.390000 99 83 112
-1.453878 -0.973208 3.390000 103 82 109
-1.453878 -0.967274 3.390000 102 83 107
-1.439725 -0.951981 3.357000 101 84 109
-1.439725 -0.946105 3.357000 100 83 111
-1.439725 -0.940229 3.357000 100 81 114
-1.439725 -0.934352 3.357000 101 82 117
-1.439725 -0.928476 3.357000 103 80 113
-1.425572 -0.913530 3.324000 102 79 109
-1.439725 -0.916723 3.357000 102 83 103
-1.425572 -0.901893 3.324000 100 93 97
-1.439725 -0.904970 3.357000 99 87 101
-1.439725 -0.899094 3.357000 99 86 106
-1.439725 -0.893217 3.357000 99 89 104
-1.439725 -0.887341 3.357000 97 89 103
-1.453878 -0.890129 3.390000 95 85 103
-1.453878 -0.884195 3.390000 98 85 103
-1.453878 -0.878261 3.390000 102 82 108
-1.453878 -0.872327 3.390000 110 78 114
-1.439725 -0.857959 3.357000 118 78 110
-1.453878 -0.860458 3.390000 106 79 105
-1.453878 -0.854524 3.390000 94 76 96
-1.453878 -0.848590 3.390000 88 73 87
-1.453878 -0.842656 3.390000 82 57 77
-1.439725 -0.828576 3.357000 80 45 67
-1.439725 -0.822700 3.357000 78 43 62
-1.453878 -0.824853 3.390000 77 39 58
-1.468031 -0.826891 3.423000 77 40 52
-1.468031 -0.820899 3.423000 76 42 46
-1.498052 -0.831572 3.493000 76 44 53
-1.513062 -0.833728 3.528000 75 44 61
-1.528931 -0.836231 3.565000 74 39 54
-1.528931 -0.829991 3.565000 76 40 47
-1.528931 -0.823750 3.565000 79 40 29
-1.528931 -0.817510 3.565000 81 46 12
-1.544799 -0.819689 3.602000 83 42 18
-1.528931 -0.805029 3.565000 83 34 24
-1.528931 -0.798788 3.565000 83 36 29
-1.528931 -0.792548 3.565000 83 38 33
-1.528931 -0.786307 3.565000 84 36 27
-1.528931 -0.780067 3.565000 83 41 21
-1.513062 -0.765795 3.528000 82 45 23
-1.513062 -0.759619 3.528000 79 45 24
-1.513062 -0.753443 3.528000 77 40 26
-1.528931 -0.755104 3.565000 77 39 28
-1.513062 -0.741092 3.528000 77 38 35
-1.528931 -0.742623 3.565000 76 38 43
-1.513062 -0.728740 3.528000 76 34 38
-1.513062 -0.722564 3.528000 77 34 34
-1.528931 -0.723902 3.565000 79 32 34
-1.528931 -0.717661 3.565000 79 32 35
-1.528931 -0.711421 3.565000 79 34 28
-1.528931 -0.705180 3.565000 79 38 21
-1.544799 -0.706194 3.602000 80 40 18
-1.544799 -0.699888 3.602000 84 38 15
-1.544799 -0.693583 3.602000 89 33 15
-1.544799 -0.687278 3.602000 84 36 15
-1.544799 -0.680973 3.602000 79 35 25
-1.544799 -0.674667 3.602000 80 35 36
-1.544799 -0.668362 3.602000 82 34 44
-1.528931 -0.655256 3.565000 81 34 53
-1.544799 -0.655751 3.602000 81 36 37
-1.544799 -0.649446 3.602000 83 34 20
-1.544799 -0.643141 3.602000 85 36 24
-1.528931 -0.630294 3.565000 83 42 28
-1.528931 -0.624053 3.565000 81 36 20
-1.544799 -0.624225 3.602000 81 32 13
-1.544799 -0.617920 3.602000 82 34 19
-1.544799 -0.611614 3.602000 80 37 26
-1.544799 -0.605309 3.602000 78 38 32
-1.528931 -0.592851 3.565000 77 34 38
-1.544799 -0.592698 3.602000 76 33 40
-1.544799 -0.586393 3.602000 79 38 43
-1.544799 -0.580088 3.602000 83 39 46
-1.544799 -0.573782 3.602000 87 38 49
-1.544799 -0.567477 3.602000 91 36 45
-1.544799 -0.561172 3.602000 86 34 42
-1.544799 -0.554866 3.602000 82 35 33
-1.544799 -0.548561 3.602000 82 33 24
-1.544799 -0.542256 3.602000 82 32 23
-1.544799 -0.535951 3.602000 81 32 23
-1.544799 -0.529645 3.602000 80 36 22
-1.544799 -0.523340 3.602000 79 40 21
