ply
format ascii 1.0
element vertex 1255
property float x
property float y
property float z
property uchar red
property uchar green
property uchar blue
end_header
-1.573339 -0.436746 3.006000 111 63 60
-1.587471 -0.435360 3.033000 112 58 57
-1.573339 -0.426222 3.006000 112 52 54
-1.573339 -0.420960 3.006000 113 56 61
-1.573339 -0.415698 3.006000 114 58 69
-1.573339 -0.410436 3.006000 115 62 64
-1.573339 -0.405174 3.006000 114 59 60
-1.573339 -0.399912 3.006000 113 61 56
-1.573339 -0.394650 3.006000 110 65 51
-1.573339 -0.389388 3.006000 107 64 52
-1.559731 -0.380804 2.980000 109 63 53
-1.559731 -0.375587 2.980000 111 68 50
-1.573339 -0.373602 3.006000 111 73 47
-1.573339 -0.368340 3.006000 112 71 55
-1.587471 -0.366339 3.033000 113 66 63
-1.587471 -0.361030 3.033000 115 65 60
-1.573339 -0.352554 3.006000 120 65 58
-1.573339 -0.347292 3.006000 126 64 57
-1.573339 -0.342030 3.006000 123 62 57
-1.573339 -0.336768 3.006000 120 63 58
-1.573339 -0.331506 3.006000 121 63 60
-1.559731 -0.323422 2.980000 122 65 58
-1.573339 -0.320982 3.006000 121 71 57
-1.573339 -0.315720 3.006000 120 71 65
-1.573339 -0.310458 3.006000 120 73 74
-1.573339 -0.305196 3.006000 121 68 71
-1.573339 -0.299934 3.006000 121 58 69
-1.587471 -0.297319 3.033000 122 61 67
-1.587471 -0.292010 3.033000 123 64 64
-1.587471 -0.286700 3.033000 125 68 59
-1.587471 -0.281391 3.033000 125 75 54
-1.587471 -0.276082 3.033000 125 70 54
-1.587471 -0.270773 3.033000 123 67 54
-1.573339 -0.263100 3.006000 121 68 61
-1.587471 -0.260154 3.033000 118 71 68
-1.587471 -0.254845 3.033000 115 73 63
-1.573339 -0.247314 3.006000 109 73 58
-1.559731 -0.239958 2.980000 104 73 50
-1.559731 -0.234742 2.980000 109 75 42
-1.573339 -0.231528 3.006000 115 72 59
-1.573339 -0.226266 3.006000 118 69 77
-1.573339 -0.221004 3.006000 122 68 71
-1.573339 -0.215742 3.006000 120 69 65
-1.573339 -0.210480 3.006000 118 70 57
-1.573339 -0.205218 3.006000 118 69 49
-1.573339 -0.199956 3.006000 119 70 53
-1.573339 -0.194694 3.006000 117 75 58
-1.573339 -0.189432 3.006000 115 71 59
-1.573339 -0.184170 3.006000 109 69 61
-1.573339 -0.178908 3.006000 104 67 60
-1.573339 -0.173646 3.006000 111 64 59
-1.559731 -0.166928 2.980000 119 67 58
-1.559731 -0.161711 2.980000 119 69 56
-1.559731 -0.156495 2.980000 119 67 57
-1.559731 -0.151278 2.980000 117 64 58
-1.559731 -0.146062 2.980000 115 68 56
-1.559731 -0.140845 2.980000 115 72 55
-1.573339 -0.136812 3.006000 116 70 60
-1.573339 -0.131550 3.006000 115 73 65
-1.573339 -0.126288 3.006000 114 72 64
-1.573339 -0.121026 3.006000 118 66 64
-1.573339 -0.115764 3.006000 122 63 58
-1.573339 -0.110502 3.006000 113 61 52
-1.573339 -0.105240 3.006000 104 65 57
-1.573339 -0.099978 3.006000 110 65 63
-1.573339 -0.094716 3.006000 117 65 61
-1.573339 -0.089454 3.006000 119 67 60
-1.573339 -0.084192 3.006000 122 63 57
-1.573339 -0.078930 3.006000 120 61 54
-1.587471 -0.074330 3.033000 119 65 59
-1.587471 -0.069020 3.033000 114 69 63
-1.559731 -0.062598 2.980000 109 68 53
-1.559731 -0.057381 2.980000 109 71 44
-1.559731 -0.052165 2.980000 109 72 54
-1.573339 -0.047358 3.006000 105 75 65
-1.573339 -0.042096 3.006000 101 68 63
-1.573339 -0.036834 3.006000 106 67 62
-1.573339 -0.031572 3.006000 111 64 62
-1.573339 -0.026310 3.006000 116 59 63
-1.587471 -0.021237 3.033000 122 59 62
-1.587471 -0.015928 3.033000 112 59 62
-1.587471 -0.010618 3.033000 102 60 64
-1.573339 -0.005262 3.006000 107 59 66
-1.573339 -0.000000 3.006000 113 61 55
-1.573339 0.005262 3.006000 117 62 44
-1.573339 0.010524 3.006000 121 63 53
-1.559731 0.015650 2.980000 115 65 62
-1.559731 0.020866 2.980000 110 61 57
-1.573339 0.026310 3.006000 109 61 53
-1.559731 0.031299 2.980000 108 65 51
-1.559731 0.036515 2.980000 108 68 49
-1.559731 0.041732 2.980000 109 65 49
-1.559731 0.046948 2.980000 109 65 49
-1.559731 0.052165 2.980000 109 64 42
-1.559731 0.057381 2.980000 109 63 35
-1.559731 0.062598 2.980000 109 62 48
-1.559731 0.067814 2.980000 108 63 61
-1.573339 0.073668 3.006000 107 63 50
-1.573339 0.078930 3.006000 108 63 39
-1.573339 0.084192 3.006000 109 61 44
-1.573339 0.089454 3.006000 105 58 49
-1.587471 0.095567 3.033000 102 60 48
-1.587471 0.100876 3.033000 103 62 48
-1.587471 0.106185 3.033000 105 60 37
-1.587471 0.111495 3.033000 104 59 26
-1.587471 0.116804 3.033000 104 58 34
-1.587471 0.122113 3.033000 110 57 42
-1.587471 0.127422 3.033000 116 56 46
-1.573339 0.131550 3.006000 109 53 50
-1.573339 0.136812 3.006000 102 55 50
-1.573339 0.142074 3.006000 100 60 51
-1.573339 0.147336 3.006000 99 57 50
-1.573339 0.152598 3.006000 100 55 50
-1.573339 0.157860 3.006000 102 57 46
-1.573339 0.163122 3.006000 100 60 42
-1.573339 0.168384 3.006000 99 57 45
-1.573339 0.173646 3.006000 100 54 48
-1.573339 0.178908 3.006000 101 51 40
-1.573339 0.184170 3.006000 102 48 32
-1.573339 0.189432 3.006000 103 50 43
-1.559731 0.193010 2.980000 101 49 53
-1.573339 0.199956 3.006000 99 52 53
-1.573339 0.205218 3.006000 99 55 53
-1.573339 0.210480 3.006000 100 54 56
-1.587471 0.217680 3.033000 100 53 60
-1.587471 0.222989 3.033000 100 50 50
-1.573339 0.226266 3.006000 104 49 40
-1.573339 0.231528 3.006000 109 50 41
-1.573339 0.236790 3.006000 104 50 42
-1.573339 0.242052 3.006000 99 50 44
-1.573339 0.247314 3.006000 99 49 47
-1.559731 0.250392 2.980000 99 49 45
-1.559731 0.255608 2.980000 94 48 43
-1.559731 0.260825 2.980000 89 51 53
-1.559731 0.266041 2.980000 96 49 64
-1.559731 0.271258 2.980000 103 49 55
-1.559731 0.276474 2.980000 100 50 46
-1.559731 0.281691 2.980000 98 50 43
-1.559731 0.286907 2.980000 97 50 40
-1.559731 0.292123 2.980000 96 51 41
-1.559731 0.297340 2.980000 94 49 43
-1.559731 0.302556 2.980000 92 50 51
-1.559731 0.307773 2.980000 93 53 59
-1.559731 0.312990 2.980000 94 50 44
-1.559731 0.318206 2.980000 95 49 30
-1.573339 0.326244 3.006000 97 51 37
-1.573339 0.331506 3.006000 95 52 44
-1.573339 0.336768 3.006000 94 50 51
-1.573339 0.342030 3.006000 96 47 57
-1.573339 0.347292 3.006000 99 46 54
-1.573339 0.352554 3.006000 92 47 51
-1.573339 0.357816 3.006000 85 51 49
-1.559731 0.359938 2.980000 89 53 47
-1.559731 0.365154 2.980000 94 48 40
-1.559731 0.370371 2.980000 100 45 34
-1.559731 0.375587 2.980000 106 47 32
-1.573339 0.384126 3.006000 101 47 30
-1.573339 0.389388 3.006000 97 45 36
-1.587471 0.398195 3.033000 100 43 42
-1.587471 0.403504 3.033000 104 41 32
-1.587471 0.408814 3.033000 99 41 22
-1.587471 0.414123 3.033000 95 43 28
-1.587471 0.419432 3.033000 94 44 34
-1.587471 0.424741 3.033000 93 42 35
-1.587471 0.430051 3.033000 92 46 37
-1.573339 0.431484 3.006000 91 45 41
-1.573339 0.436746 3.006000 89 45 45
-1.573339 0.442008 3.006000 88 45 38
-1.559731 0.443402 2.980000 88 40 31
-1.559731 0.448618 2.980000 88 41 31
-1.573339 0.457794 3.006000 92 45 32
-1.573339 0.463056 3.006000 97 44 27
-1.573339 0.468318 3.006000 93 42 23
-1.573339 0.473580 3.006000 89 42 31
-1.573339 0.478842 3.006000 94 41 39
-1.573339 0.484104 3.006000 99 38 35
-1.573339 0.489366 3.006000 95 35 32
-1.573339 0.494628 3.006000 91 39 31
-1.573339 0.499890 3.006000 79 39 31
-1.573339 0.505152 3.006000 67 39 30
-1.573339 0.510414 3.006000 77 40 30
-1.573339 0.515676 3.006000 88 38 28
-1.573339 0.520938 3.006000 86 38 27
-1.573339 0.526200 3.006000 84 40 26
-1.573339 0.531462 3.006000 86 44 25
-1.587471 0.541545 3.033000 88 42 28
-1.573339 0.541986 3.006000 89 41 32
-1.573339 0.547248 3.006000 91 38 29
-1.573339 0.552510 3.006000 87 41 27
-1.573339 0.557772 3.006000 84 39 34
-1.573339 0.563035 3.006000 83 37 41
-1.573339 0.568296 3.006000 83 37 35
-1.573339 0.573559 3.006000 83 34 30
-1.559731 0.573814 2.980000 83 37 18
-1.573339 0.584082 3.006000 55 41 6
-1.573339 0.589344 3.006000 27 13 5
-1.573339 0.594606 3.006000 27 4 5
-1.559731 0.594680 2.980000 28 6 5
-1.559731 0.599896 2.980000 33 7 5
-1.559731 0.605113 2.980000 39 6 11
-1.247784 0.646845 2.384000 77 53 76
-1.247784 0.651018 2.384000 81 56 76
-1.247784 0.655191 2.384000 79 58 76
-1.247784 0.659364 2.384000 77 59 76
-1.238887 0.658806 2.367000 80 61 77
-1.238887 0.662950 2.367000 83 57 78
-1.222138 0.658074 2.335000 83 54 79
-1.198062 0.649117 2.289000 84 54 85
-1.190211 0.648844 2.274000 85 57 91
-1.182360 0.648518 2.259000 86 59 86
-1.182360 0.652473 2.259000 86 60 82
-1.174509 0.652068 2.244000 86 57 82
-1.174509 0.655997 2.244000 87 54 82
-1.159330 0.651396 2.215000 88 59 84
-1.144675 0.646990 2.187000 87 59 87
-1.137871 0.646950 2.174000 86 60 87
-1.130543 0.646565 2.160000 84 64 88
-1.123739 0.646432 2.147000 83 66 87
-1.123739 0.650190 2.147000 85 64 86
-1.116411 0.649684 2.133000 87 63 88
-1.109607 0.649436 2.120000 88 65 91
-1.096522 0.645445 2.095000 90 66 94
-1.089718 0.645084 2.082000 89 68 96
-1.089718 0.648728 2.082000 88 67 94
-1.082914 0.648300 2.069000 90 68 91
-1.076633 0.648140 2.057000 92 66 97
-1.076633 0.651741 2.057000 91 63 102
-1.070352 0.651519 2.045000 91 63 98
-1.064071 0.651254 2.033000 93 63 94
-1.039472 0.639675 1.986000 96 62 92
-1.027957 0.636027 1.964000 94 58 90
-1.021676 0.635558 1.952000 93 61 94
-1.015919 0.635374 1.941000 91 69 98
-1.010684 0.635481 1.931000 90 70 91
-1.010684 0.638861 1.931000 91 68 85
-1.004927 0.638583 1.920000 92 66 88
-1.004927 0.641943 1.920000 91 68 91
-0.999170 0.641607 1.909000 91 64 92
-0.993936 0.641571 1.899000 92 60 94
-0.993936 0.644895 1.899000 93 63 93
-0.988178 0.644464 1.888000 97 66 91
-0.972476 0.637476 1.858000 101 72 91
-0.972476 0.640729 1.858000 93 75 90
-0.967242 0.640515 1.848000 85 74 91
-0.962008 0.640266 1.838000 88 76 92
-0.956774 0.639983 1.828000 92 73 95
-0.952064 0.640016 1.819000 94 73 99
-0.936885 0.632946 1.790000 96 71 101
-0.932175 0.632881 1.781000 95 72 103
-0.932175 0.635999 1.781000 94 71 103
-0.927464 0.635887 1.772000 87 71 103
-0.922753 0.635743 1.763000 81 73 99
-0.915426 0.633756 1.749000 86 78 96
-0.915426 0.636818 1.749000 92 79 95
-0.913332 0.638416 1.745000 96 80 95
-0.908622 0.638162 1.736000 101 78 104
-0.904434 0.638246 1.728000 106 77 113
-0.899724 0.637931 1.719000 111 74 106
-0.895537 0.637958 1.711000 102 76 99
-0.890826 0.637581 1.702000 93 78 101
-0.886639 0.637550 1.694000 93 78 103
-0.882452 0.637490 1.686000 94 77 108
-0.877741 0.637023 1.677000 96 78 114
-0.873554 0.636906 1.669000 99 75 112
-0.865180 0.633693 1.653000 98 73 110
-0.860992 0.633506 1.645000 98 75 114
-0.857329 0.633678 1.638000 100 78 117
-0.857329 0.636545 1.638000 103 78 113
-0.853141 0.636289 1.630000 103 78 109
-0.848954 0.636006 1.622000 103 76 108
-1.528432 -1.148888 2.930000 88 35 16
-1.528432 -1.143759 2.930000 86 37 9
-1.528432 -1.138630 2.930000 85 36 15
-1.528432 -1.133501 2.930000 86 39 21
-1.528432 -1.128372 2.930000 87 33 14
-1.528432 -1.123243 2.930000 86 33 8
-1.528432 -1.118114 2.930000 86 30 14
-1.528432 -1.112985 2.930000 86 32 20
-1.528432 -1.107857 2.930000 87 30 16
-1.528432 -1.102728 2.930000 86 35 12
-1.528432 -1.097599 2.930000 85 41 23
-1.528432 -1.092470 2.930000 86 43 34
-1.528432 -1.087341 2.930000 88 44 44
-1.528432 -1.082212 2.930000 88 44 55
-1.528432 -1.077083 2.930000 89 43 44
-1.528432 -1.071954 2.930000 87 43 34
-1.541473 -1.075927 2.955000 86 41 24
-1.541473 -1.070755 2.955000 89 38 15
-1.541473 -1.065582 2.955000 92 34 23
-1.528432 -1.051438 2.930000 91 36 32
-1.515390 -1.037381 2.905000 90 35 23
-1.528432 -1.041180 2.930000 91 39 14
-1.528432 -1.036051 2.930000 93 33 27
-1.528432 -1.030922 2.930000 88 36 41
-1.528432 -1.025793 2.930000 83 32 44
-1.528432 -1.020664 2.930000 87 37 47
-1.541473 -1.024200 2.955000 91 43 46
-1.541473 -1.019027 2.955000 91 43 46
-1.541473 -1.013855 2.955000 92 46 40
-1.541473 -1.008682 2.955000 88 41 34
-1.541473 -1.003509 2.955000 84 39 19
-1.528432 -0.989890 2.930000 92 37 5
-1.541473 -0.993164 2.955000 99 39 22
-1.541473 -0.987991 2.955000 89 40 39
-1.541473 -0.982818 2.955000 80 45 43
-1.541473 -0.977646 2.955000 85 45 47
-1.541473 -0.972473 2.955000 91 44 45
-1.554514 -0.975484 2.980000 92 45 44
-1.554514 -0.970267 2.980000 93 46 41
-1.554514 -0.965051 2.980000 89 43 39
-1.568077 -0.968209 3.006000 84 43 39
-1.568077 -0.962947 3.006000 87 41 40
-1.568077 -0.957685 3.006000 90 42 38
-1.568077 -0.952423 3.006000 92 50 36
-1.568077 -0.947161 3.006000 93 62 28
-1.554514 -0.933752 2.980000 89 51 21
-1.568077 -0.936637 3.006000 86 57 38
-1.568077 -0.931374 3.006000 88 52 56
-1.568077 -0.926113 3.006000 90 54 41
-1.568077 -0.920851 3.006000 90 50 26
-1.568077 -0.915589 3.006000 91 48 26
-1.568077 -0.910327 3.006000 92 45 27
-1.582161 -0.913194 3.033000 93 46 26
-1.582161 -0.907885 3.033000 91 47 25
-1.582161 -0.902575 3.033000 89 50 28
-1.582161 -0.897266 3.033000 87 46 31
-1.582161 -0.891957 3.033000 86 47 25
-1.582161 -0.886648 3.033000 86 49 20
-1.582161 -0.881338 3.033000 87 57 35
-1.582161 -0.876029 3.033000 86 52 50
-1.582161 -0.870720 3.033000 86 51 43
-1.582161 -0.865411 3.033000 90 43 37
-1.568077 -0.852444 3.006000 94 50 45
-1.568077 -0.847183 3.006000 95 42 53
-1.568077 -0.841920 3.006000 96 39 45
-1.568077 -0.836659 3.006000 95 42 37
-1.568077 -0.831397 3.006000 95 44 46
-1.568077 -0.826134 3.006000 92 43 56
-1.582161 -0.828246 3.033000 90 47 46
-1.582161 -0.822936 3.033000 93 47 37
-1.582161 -0.817627 3.033000 95 46 41
-1.582161 -0.812318 3.033000 97 50 46
-1.582161 -0.807009 3.033000 99 63 55
-1.582161 -0.801699 3.033000 97 51 65
-1.582161 -0.796390 3.033000 95 50 55
-1.582161 -0.791081 3.033000 95 47 46
-1.595725 -0.792507 3.059000 95 45 45
-1.582161 -0.780462 3.033000 97 44 45
-1.582161 -0.775153 3.033000 100 42 41
-1.568077 -0.762990 3.006000 98 47 37
-1.582161 -0.764534 3.033000 96 52 38
-1.582161 -0.759225 3.033000 96 50 39
-1.582161 -0.753916 3.033000 97 49 36
-1.582161 -0.748607 3.033000 101 52 34
-1.582161 -0.743297 3.033000 106 59 38
-1.568077 -0.731418 3.006000 101 55 42
-1.568077 -0.726156 3.006000 96 51 46
-1.568077 -0.720894 3.006000 98 48 50
-1.568077 -0.715632 3.006000 100 47 64
-1.568077 -0.710370 3.006000 99 48 78
-1.568077 -0.705108 3.006000 98 46 62
-1.568077 -0.699846 3.006000 98 46 47
-1.568077 -0.694584 3.006000 99 49 51
-1.582161 -0.695514 3.033000 98 50 56
-1.582161 -0.690205 3.033000 98 53 49
-1.582161 -0.684895 3.033000 100 49 43
-1.582161 -0.679586 3.033000 102 44 45
-1.582161 -0.674277 3.033000 101 50 47
-1.568077 -0.663012 3.006000 100 52 59
-1.568077 -0.657750 3.006000 103 53 72
-1.582161 -0.658349 3.033000 107 56 60
-1.568077 -0.647226 3.006000 102 52 49
-1.582161 -0.647731 3.033000 98 48 48
-1.582161 -0.642421 3.033000 102 51 48
-1.582161 -0.637112 3.033000 107 51 52
-1.582161 -0.631803 3.033000 101 50 56
-1.582161 -0.626493 3.033000 95 50 52
-1.582161 -0.621184 3.033000 99 52 49
-1.582161 -0.615875 3.033000 102 54 46
-1.582161 -0.610566 3.033000 105 52 44
-1.568077 -0.599868 3.006000 108 49 48
-1.568077 -0.594606 3.006000 104 54 52
-1.568077 -0.589344 3.006000 100 55 56
-1.568077 -0.584082 3.006000 101 56 61
-1.582161 -0.584019 3.033000 102 56 57
-1.595725 -0.583671 3.059000 104 55 53
-1.595725 -0.578316 3.059000 107 52 48
-1.582161 -0.568092 3.033000 106 57 43
-1.582161 -0.562782 3.033000 105 58 45
-1.582161 -0.557473 3.033000 107 55 48
-1.582161 -0.552164 3.033000 109 54 47
-1.582161 -0.546854 3.033000 107 58 47
-1.582161 -0.541545 3.033000 104 62 49
-1.582161 -0.536236 3.033000 104 58 52
-1.582161 -0.530927 3.033000 103 54 54
-1.582161 -0.525617 3.033000 106 56 56
-1.582161 -0.520308 3.033000 109 56 52
-1.582161 -0.514999 3.033000 106 60 48
-1.582161 -0.509690 3.033000 104 59 45
-1.582161 -0.504380 3.033000 104 59 43
-1.568077 -0.494628 3.006000 103 60 46
-1.568077 -0.489366 3.006000 105 63 50
-1.568077 -0.484104 3.006000 108 63 52
-1.568077 -0.478842 3.006000 111 60 54
-1.568077 -0.473580 3.006000 115 58 59
-1.568077 -0.468318 3.006000 109 60 65
-1.582161 -0.467215 3.033000 102 62 59
-1.582161 -0.461906 3.033000 105 63 53
-1.582161 -0.456597 3.033000 109 66 50
-1.582161 -0.451288 3.033000 109 66 47
-1.582161 -0.445978 3.033000 110 64 50
-1.582161 -0.440669 3.033000 113 64 54
-1.582161 -0.435360 3.033000 117 63 56
-1.568077 -0.426222 3.006000 115 60 58
-1.568077 -0.420960 3.006000 113 59 70
-1.568077 -0.415698 3.006000 114 61 83
-1.568077 -0.410436 3.006000 115 65 75
-1.568077 -0.405174 3.006000 114 62 67
-1.568077 -0.399912 3.006000 114 62 60
-1.568077 -0.394650 3.006000 112 64 54
-1.568077 -0.389388 3.006000 110 63 55
-1.568077 -0.384126 3.006000 111 65 57
-1.554514 -0.375587 2.980000 112 69 55
-1.568077 -0.373602 3.006000 112 70 53
-1.568077 -0.368340 3.006000 112 72 62
-1.582161 -0.366339 3.033000 114 67 71
-1.582161 -0.361030 3.033000 115 64 65
-1.582161 -0.355721 3.033000 118 65 60
-1.568077 -0.347292 3.006000 121 68 60
-1.568077 -0.342030 3.006000 119 66 60
-1.582161 -0.339793 3.033000 117 66 62
-1.568077 -0.331506 3.006000 119 65 65
-1.568077 -0.326244 3.006000 120 65 64
-1.568077 -0.320982 3.006000 119 69 63
-1.568077 -0.315720 3.006000 118 69 74
-1.568077 -0.310458 3.006000 119 69 85
-1.582161 -0.307937 3.033000 120 69 78
-1.582161 -0.302628 3.033000 116 63 72
-1.582161 -0.297319 3.033000 113 63 69
-1.582161 -0.292010 3.033000 121 65 67
-1.582161 -0.286700 3.033000 130 63 60
-1.582161 -0.281391 3.033000 127 68 53
-1.582161 -0.276082 3.033000 125 69 50
-1.582161 -0.270773 3.033000 124 67 48
-1.582161 -0.265463 3.033000 122 68 54
-1.582161 -0.260154 3.033000 120 70 61
-1.582161 -0.254845 3.033000 118 75 56
-1.582161 -0.249535 3.033000 116 73 51
-1.582161 -0.244226 3.033000 114 73 41
-1.582161 -0.238917 3.033000 114 75 31
-1.582161 -0.233608 3.033000 115 76 58
-1.568077 -0.226266 3.006000 115 71 86
-1.568077 -0.221004 3.006000 115 69 77
-1.568077 -0.215742 3.006000 115 70 68
-1.568077 -0.210480 3.006000 116 70 57
-1.568077 -0.205218 3.006000 118 68 46
-1.568077 -0.199956 3.006000 121 66 49
-1.568077 -0.194694 3.006000 122 70 53
-1.568077 -0.189432 3.006000 123 67 60
-1.582161 -0.185824 3.033000 117 68 68
-1.582161 -0.180515 3.033000 111 70 66
-1.568077 -0.173646 3.006000 116 67 65
-1.568077 -0.168384 3.006000 121 67 72
-1.568077 -0.163122 3.006000 120 67 80
-1.568077 -0.157860 3.006000 120 69 71
-1.568077 -0.152598 3.006000 119 66 63
-1.568077 -0.147336 3.006000 119 70 56
-1.568077 -0.142074 3.006000 117 70 50
-1.568077 -0.136812 3.006000 116 68 49
-1.568077 -0.131550 3.006000 114 71 49
-1.568077 -0.126288 3.006000 113 74 56
-1.568077 -0.121026 3.006000 115 66 63
-1.568077 -0.115764 3.006000 118 63 59
-1.568077 -0.110502 3.006000 114 64 56
-1.568077 -0.105240 3.006000 109 67 60
-1.582161 -0.100876 3.033000 113 65 64
-1.582161 -0.095567 3.033000 116 65 62
-1.582161 -0.090257 3.033000 117 66 60
-1.582161 -0.084948 3.033000 117 67 57
-1.582161 -0.079639 3.033000 116 66 55
-1.582161 -0.074330 3.033000 116 65 64
-1.582161 -0.069020 3.033000 114 67 74
-1.568077 -0.063144 3.006000 112 69 65
-1.554514 -0.057381 2.980000 113 70 56
-1.554514 -0.052165 2.980000 115 74 55
-1.554514 -0.046948 2.980000 111 72 54
-1.554514 -0.041732 2.980000 107 69 56
-1.554514 -0.036515 2.980000 109 69 58
-1.554514 -0.031299 2.980000 112 68 58
-1.568077 -0.026310 3.006000 115 61 59
-1.568077 -0.021048 3.006000 119 63 62
-1.582161 -0.015928 3.033000 113 63 65
-1.568077 -0.010524 3.006000 107 64 74
-1.568077 -0.005262 3.006000 110 61 84
-1.568077 -0.000000 3.006000 113 61 72
-1.582161 0.005309 3.033000 114 59 61
-1.568077 0.010524 3.006000 116 58 65
-1.568077 0.015786 3.006000 113 60 70
-1.568077 0.021048 3.006000 110 60 64
-1.568077 0.026310 3.006000 109 60 59
-1.568077 0.031572 3.006000 109 63 55
-1.568077 0.036834 3.006000 109 62 52
-1.568077 0.042096 3.006000 110 61 53
-1.568077 0.047358 3.006000 109 62 54
-1.568077 0.052620 3.006000 108 66 49
-1.568077 0.057882 3.006000 110 63 45
-1.568077 0.063144 3.006000 113 62 47
-1.568077 0.068406 3.006000 109 62 49
-1.582161 0.074330 3.033000 105 63 40
-1.568077 0.078930 3.006000 105 61 32
-1.568077 0.084192 3.006000 105 62 38
-1.582161 0.090258 3.033000 102 60 45
-1.582161 0.095567 3.033000 99 61 50
-1.582161 0.100876 3.033000 106 59 56
-1.582161 0.106185 3.033000 114 56 50
-1.582161 0.111495 3.033000 109 56 45
-1.582161 0.116804 3.033000 104 58 44
-1.582161 0.122113 3.033000 108 56 44
-1.582161 0.127422 3.033000 112 55 48
-1.568077 0.131550 3.006000 107 53 53
-1.568077 0.136812 3.006000 102 53 52
-1.582161 0.143350 3.033000 101 60 51
-1.582161 0.148659 3.033000 100 62 50
-1.582161 0.153969 3.033000 101 56 50
-1.582161 0.159278 3.033000 102 55 47
-1.582161 0.164587 3.033000 101 56 45
-1.582161 0.169897 3.033000 101 58 47
-1.582161 0.175206 3.033000 101 54 50
-1.582161 0.180515 3.033000 102 53 47
-1.582161 0.185824 3.033000 103 51 44
-1.582161 0.191134 3.033000 104 50 50
-1.582161 0.196443 3.033000 102 50 57
-1.568077 0.199956 3.006000 99 54 54
-1.568077 0.205218 3.006000 99 55 51
-1.568077 0.210480 3.006000 100 55 50
-1.568077 0.215742 3.006000 100 53 49
-1.568077 0.221004 3.006000 101 49 39
-1.568077 0.226266 3.006000 103 51 30
-1.568077 0.231528 3.006000 105 53 37
-1.568077 0.236790 3.006000 102 51 45
-1.568077 0.242052 3.006000 99 51 48
-1.568077 0.247314 3.006000 100 51 52
-1.568077 0.252576 3.006000 101 51 48
-1.568077 0.257838 3.006000 96 50 45
-1.568077 0.263100 3.006000 92 53 59
-1.568077 0.268362 3.006000 96 50 74
-1.568077 0.273624 3.006000 101 49 60
-1.568077 0.278886 3.006000 101 48 47
-1.568077 0.284148 3.006000 100 49 44
-1.568077 0.289410 3.006000 102 50 41
-1.554514 0.292123 2.980000 105 54 46
-1.554514 0.297340 2.980000 99 47 52
-1.554514 0.302556 2.980000 93 44 60
-1.554514 0.307773 2.980000 94 47 69
-1.568077 0.315720 3.006000 95 47 47
-1.554514 0.318206 2.980000 98 48 26
-1.568077 0.326244 3.006000 101 49 37
-1.568077 0.331506 3.006000 97 49 49
-1.568077 0.336768 3.006000 94 49 57
-1.568077 0.342030 3.006000 94 46 65
-1.582161 0.350412 3.033000 95 44 57
-1.568077 0.352554 3.006000 91 49 50
-1.568077 0.357816 3.006000 87 53 47
-1.568077 0.363078 3.006000 90 50 45
-1.568077 0.368340 3.006000 93 47 39
-1.568077 0.373602 3.006000 97 47 34
-1.582161 0.382267 3.033000 101 50 32
-1.582161 0.387577 3.033000 96 46 30
-1.582161 0.392886 3.033000 92 46 34
-1.582161 0.398195 3.033000 96 44 39
-1.582161 0.403504 3.033000 100 42 34
-1.595725 0.412318 3.059000 96 42 30
-1.595725 0.417673 3.059000 93 44 35
-1.595725 0.423028 3.059000 94 41 41
-1.595725 0.428382 3.059000 95 39 41
-1.595725 0.433737 3.059000 92 41 41
-1.582161 0.435360 3.033000 89 44 46
-1.582161 0.440669 3.033000 85 46 52
-1.582161 0.445978 3.033000 80 50 38
-1.582161 0.451288 3.033000 83 45 24
-1.568077 0.452532 3.006000 87 44 30
-1.568077 0.457794 3.006000 89 44 37
-1.568077 0.463056 3.006000 92 44 35
-1.582161 0.472525 3.033000 90 42 34
-1.568077 0.473580 3.006000 88 41 37
-1.568077 0.478842 3.006000 92 41 41
-1.582161 0.488453 3.033000 96 42 39
-1.582161 0.493762 3.033000 94 40 38
-1.568077 0.494628 3.006000 92 41 46
-1.582161 0.504380 3.033000 86 38 54
-1.582161 0.509690 3.033000 81 37 47
-1.582161 0.514999 3.033000 86 38 41
-1.582161 0.520308 3.033000 90 39 35
-1.582161 0.525617 3.033000 91 38 30
-1.582161 0.530927 3.033000 92 38 38
-1.582161 0.536236 3.033000 90 39 46
-1.582161 0.541545 3.033000 88 40 40
-1.582161 0.546855 3.033000 87 36 34
-1.568077 0.547248 3.006000 87 33 31
-1.568077 0.552510 3.006000 86 37 28
-1.568077 0.557772 3.006000 85 39 30
-1.568077 0.563035 3.006000 87 38 33
-1.568077 0.568296 3.006000 89 36 35
-1.568077 0.573559 3.006000 81 33 37
-1.554514 0.573814 2.980000 74 34 21
-1.568077 0.584082 3.006000 51 23 5
-1.568077 0.589344 3.006000 28 4 5
-1.568077 0.594606 3.006000 27 6 5
-1.568077 0.599868 3.006000 27 7 7
-1.260826 0.651568 2.417000 75 45 73
-1.251958 0.651186 2.400000 77 52 83
-1.243611 0.651018 2.384000 79 60 79
-1.243611 0.655191 2.384000 73 60 76
-1.243611 0.659364 2.384000 67 62 76
-1.234743 0.658806 2.367000 74 60 77
-1.226397 0.658468 2.351000 82 58 79
-1.210226 0.653847 2.320000 84 54 82
-1.194055 0.649117 2.289000 87 52 84
-1.178405 0.644564 2.259000 90 55 87
-1.178405 0.648518 2.259000 94 56 86
-1.170581 0.648140 2.244000 90 57 86
-1.170581 0.652068 2.244000 87 58 84
-1.170581 0.655997 2.244000 87 60 82
-1.163277 0.655807 2.230000 88 64 85
-1.148150 0.651132 2.201000 87 61 88
-1.140846 0.650818 2.187000 87 59 89
-1.126762 0.646565 2.160000 86 63 90
-1.126762 0.650346 2.160000 86 68 87
-1.119981 0.650190 2.147000 87 66 84
-1.112677 0.649684 2.133000 88 64 88
-1.105896 0.649436 2.120000 89 66 92
-1.099115 0.649142 2.107000 91 68 93
-1.092855 0.649112 2.095000 90 66 95
-1.086073 0.648728 2.082000 90 65 93
-1.079292 0.648300 2.069000 93 65 92
-1.073032 0.648140 2.057000 96 64 93
-1.073032 0.651741 2.057000 91 64 95
-1.066772 0.651519 2.045000 86 67 93
-1.042255 0.640042 1.998000 90 66 92
-1.035995 0.639675 1.986000 94 67 91
-1.030257 0.639589 1.975000 93 63 91
-1.024519 0.639465 1.964000 92 63 98
-1.018259 0.638975 1.952000 88 68 106
-1.012521 0.638772 1.941000 85 71 99
-1.007304 0.638861 1.931000 90 66 93
-1.001566 0.638583 1.920000 95 64 92
-0.995828 0.638266 1.909000 94 63 92
-0.995828 0.641607 1.909000 93 64 92
-0.990611 0.641571 1.899000 92 64 92
-0.984873 0.641159 1.888000 92 64 91
-0.974440 0.637637 1.868000 94 70 91
-0.969224 0.637476 1.858000 96 76 91
-0.969224 0.640729 1.858000 93 74 92
-0.964007 0.640515 1.848000 90 74 90
-0.964007 0.643750 1.848000 94 75 89
-0.953574 0.639983 1.828000 98 76 94
-0.948880 0.640016 1.819000 98 72 100
-0.938968 0.636482 1.800000 97 71 103
-0.938968 0.639633 1.800000 96 72 106
-0.933752 0.639213 1.790000 95 76 104
-0.933752 0.642346 1.790000 92 74 103
-0.919667 0.635743 1.763000 88 73 99
-0.914972 0.635568 1.754000 91 75 95
-0.914972 0.638639 1.754000 93 79 91
-0.910278 0.638416 1.745000 93 78 87
-0.910278 0.641471 1.745000 93 78 105
-0.896715 0.634922 1.719000 98 76 123
-0.896715 0.637931 1.719000 103 72 116
-0.892541 0.637958 1.711000 95 74 110
-0.887847 0.637581 1.702000 87 77 109
-0.887847 0.640561 1.702000 90 76 108
-0.883673 0.640515 1.694000 94 72 114
-0.870632 0.633984 1.669000 98 76 121
-0.866459 0.633853 1.661000 102 77 117
-0.862286 0.633693 1.653000 101 74 113
-0.858113 0.633506 1.645000 100 72 118
-0.858113 0.636386 1.645000 102 77 124
-0.854461 0.636545 1.638000 104 79 116
-0.854461 0.639412 1.638000 108 76 108
-0.850288 0.639143 1.630000 112 77 106
-1.536300 -1.158691 2.955000 88 42 18
-1.523303 -1.143759 2.930000 85 41 14
-1.523303 -1.138630 2.930000 82 42 19
-1.536300 -1.143173 2.955000 85 41 24
-1.536300 -1.138000 2.955000 88 38 18
-1.523303 -1.123243 2.930000 88 35 12
-1.536300 -1.127655 2.955000 88 36 20
-1.536300 -1.122482 2.955000 88 38 27
-1.536300 -1.117309 2.955000 89 35 26
-1.536300 -1.112136 2.955000 90 30 24
-1.536300 -1.106964 2.955000 91 39 30
-1.536300 -1.101791 2.955000 90 45 35
-1.536300 -1.096618 2.955000 90 45 38
-1.536300 -1.091446 2.955000 90 42 41
-1.536300 -1.086273 2.955000 91 42 33
-1.536300 -1.081100 2.955000 92 36 26
-1.536300 -1.075927 2.955000 93 42 24
-1.536300 -1.070755 2.955000 93 45 22
-1.536300 -1.065582 2.955000 94 41 29
-1.536300 -1.060409 2.955000 93 41 35
-1.536300 -1.055237 2.955000 92 41 35
-1.523303 -1.041180 2.930000 95 44 35
-1.536300 -1.044891 2.955000 98 40 39
-1.536300 -1.039718 2.955000 94 44 43
-1.536300 -1.034546 2.955000 91 39 44
-1.536300 -1.029373 2.955000 93 36 46
-1.549298 -1.032865 2.980000 95 42 45
-1.549298 -1.027649 2.980000 96 45 45
-1.549298 -1.022432 2.980000 98 46 42
-1.549298 -1.017216 2.980000 98 48 39
-1.549298 -1.011999 2.980000 99 42 31
-1.536300 -0.998337 2.955000 105 39 23
-1.549298 -1.001566 2.980000 112 43 29
-1.549298 -0.996350 2.980000 105 49 36
-1.549298 -0.991133 2.980000 98 47 42
-1.549298 -0.985917 2.980000 98 47 47
-1.549298 -0.980700 2.980000 98 45 54
-1.562815 -0.983995 3.006000 97 45 61
-1.562815 -0.978733 3.006000 97 45 53
-1.562815 -0.973471 3.006000 94 46 45
-1.576852 -0.976905 3.033000 92 45 44
-1.562815 -0.962947 3.006000 93 46 42
-1.576852 -0.966287 3.033000 94 47 40
-1.562815 -0.952423 3.006000 96 51 38
-1.562815 -0.947161 3.006000 99 55 30
-1.562815 -0.941898 3.006000 104 54 23
-1.562815 -0.936637 3.006000 110 53 34
-1.562815 -0.931374 3.006000 102 55 45
-1.562815 -0.926113 3.006000 95 53 38
-1.562815 -0.920851 3.006000 96 52 32
-1.562815 -0.915589 3.006000 97 48 33
-1.562815 -0.910327 3.006000 104 48 34
-1.576852 -0.913194 3.033000 112 47 37
-1.576852 -0.907885 3.033000 104 51 39
-1.576852 -0.902575 3.033000 97 51 37
-1.576852 -0.897266 3.033000 103 49 34
-1.576852 -0.891957 3.033000 110 52 28
-1.576852 -0.886648 3.033000 101 59 21
-1.576852 -0.881338 3.033000 92 54 34
-1.576852 -0.876029 3.033000 94 51 46
-1.576852 -0.870720 3.033000 96 49 42
-1.576852 -0.865411 3.033000 97 50 38
-1.576852 -0.860101 3.033000 99 47 43
-1.576852 -0.854792 3.033000 99 45 49
-1.562815 -0.841920 3.006000 100 41 43
-1.562815 -0.836659 3.006000 98 44 37
-1.576852 -0.838864 3.033000 96 44 43
-1.576852 -0.833555 3.033000 92 44 48
-1.576852 -0.828246 3.033000 88 48 42
-1.576852 -0.822936 3.033000 92 50 37
-1.576852 -0.817627 3.033000 96 47 40
-1.576852 -0.812318 3.033000 100 46 43
-1.576852 -0.807009 3.033000 105 53 39
-1.576852 -0.801699 3.033000 100 54 36
-1.576852 -0.796390 3.033000 96 54 35
-1.576852 -0.791081 3.033000 96 57 35
-1.590370 -0.792507 3.059000 97 49 39
-1.590370 -0.787153 3.059000 102 44 43
-1.590370 -0.781798 3.059000 107 44 42
-1.590370 -0.776443 3.059000 104 47 41
-1.590370 -0.771088 3.059000 101 49 44
-1.590370 -0.765734 3.059000 99 50 48
-1.576852 -0.753916 3.033000 98 50 41
-1.576852 -0.748607 3.033000 100 52 35
-1.576852 -0.743297 3.033000 103 55 39
-1.576852 -0.737988 3.033000 102 56 44
-1.562815 -0.726156 3.006000 101 52 44
-1.576852 -0.727370 3.033000 105 46 45
-1.562815 -0.715632 3.006000 109 48 52
-1.562815 -0.710370 3.006000 106 50 60
-1.576852 -0.711442 3.033000 103 47 46
-1.576852 -0.706133 3.033000 102 49 33
-1.576852 -0.700823 3.033000 101 48 41
-1.576852 -0.695514 3.033000 100 48 50
-1.576852 -0.690205 3.033000 100 50 45
-1.576852 -0.684895 3.033000 100 53 40
-1.576852 -0.679586 3.033000 101 51 39
-1.576852 -0.674277 3.033000 101 54 38
-1.576852 -0.668968 3.033000 101 53 48
-1.576852 -0.663658 3.033000 102 54 58
-1.576852 -0.658349 3.033000 103 54 48
-1.576852 -0.653040 3.033000 99 54 39
-1.576852 -0.647731 3.033000 96 51 44
-1.576852 -0.642421 3.033000 105 51 48
-1.576852 -0.637112 3.033000 115 49 56
-1.590370 -0.637219 3.059000 102 46 63
-1.590370 -0.631864 3.059000 90 51 56
-1.576852 -0.621184 3.033000 96 54 49
-1.576852 -0.615875 3.033000 102 53 46
-1.576852 -0.610566 3.033000 102 54 44
-1.576852 -0.605256 3.033000 102 53 46
-1.576852 -0.599947 3.033000 102 55 49
-1.576852 -0.594638 3.033000 102 55 53
-1.576852 -0.589329 3.033000 103 56 58
-1.590370 -0.589026 3.059000 105 54 54
-1.590370 -0.583671 3.059000 109 53 51
-1.590370 -0.578316 3.059000 113 53 48
-1.590370 -0.572961 3.059000 111 54 45
-1.590370 -0.567607 3.059000 109 54 49
-1.576852 -0.557473 3.033000 113 52 53
-1.576852 -0.552164 3.033000 118 54 55
-1.576852 -0.546854 3.033000 113 58 57
-1.576852 -0.541545 3.033000 108 58 55
-1.590370 -0.540833 3.059000 106 57 53
-1.576852 -0.530927 3.033000 105 55 56
-1.590370 -0.530123 3.059000 105 55 60
-1.590370 -0.524768 3.059000 106 57 54
-1.576852 -0.514999 3.033000 104 59 48
-1.576852 -0.509690 3.033000 102 60 47
-1.576852 -0.504380 3.033000 103 59 47
-1.576852 -0.499071 3.033000 104 61 48
-1.562815 -0.489366 3.006000 105 63 50
-1.562815 -0.484104 3.006000 107 60 51
-1.562815 -0.478842 3.006000 107 58 52
-1.576852 -0.477834 3.033000 108 62 54
-1.576852 -0.472525 3.033000 102 64 56
-1.576852 -0.467215 3.033000 97 63 53
-1.576852 -0.461906 3.033000 103 63 51
-1.576852 -0.456597 3.033000 110 65 52
-1.576852 -0.451288 3.033000 109 68 52
-1.576852 -0.445978 3.033000 109 66 57
-1.576852 -0.440669 3.033000 115 66 62
-1.576852 -0.435360 3.033000 122 66 59
-1.576852 -0.430051 3.033000 118 68 57
-1.590370 -0.428382 3.059000 114 63 63
-1.576852 -0.419432 3.033000 114 62 69
-1.576852 -0.414123 3.033000 115 63 65
-1.576852 -0.408814 3.033000 115 63 61
-1.576852 -0.403504 3.033000 116 64 57
-1.576852 -0.398195 3.033000 114 67 53
-1.576852 -0.392886 3.033000 113 65 54
-1.576852 -0.387576 3.033000 113 67 56
-1.576852 -0.382267 3.033000 113 68 56
-1.576852 -0.376958 3.033000 113 69 55
-1.576852 -0.371649 3.033000 113 70 59
-1.576852 -0.366339 3.033000 114 69 63
-1.576852 -0.361030 3.033000 116 66 61
-1.576852 -0.355721 3.033000 116 65 58
-1.576852 -0.350412 3.033000 116 68 60
-1.576852 -0.345102 3.033000 115 68 62
-1.576852 -0.339793 3.033000 115 69 66
-1.576852 -0.334484 3.033000 117 67 71
-1.576852 -0.329174 3.033000 119 70 66
-1.562815 -0.320982 3.006000 117 72 61
-1.562815 -0.315720 3.006000 116 68 62
-1.562815 -0.310458 3.006000 117 66 64
-1.590370 -0.310577 3.059000 119 67 64
-1.590370 -0.305222 3.059000 111 64 64
-1.590370 -0.299868 3.059000 104 67 63
-1.590370 -0.294513 3.059000 119 71 62
-1.576852 -0.286700 3.033000 135 67 60
-1.576852 -0.281391 3.033000 130 68 58
-1.576852 -0.276082 3.033000 126 69 56
-1.576852 -0.270773 3.033000 125 67 54
-1.576852 -0.265463 3.033000 124 68 61
-1.576852 -0.260154 3.033000 123 69 69
-1.576852 -0.254845 3.033000 122 72 62
-1.576852 -0.249535 3.033000 123 72 56
-1.576852 -0.244226 3.033000 124 74 50
-1.576852 -0.238917 3.033000 119 79 43
-1.576852 -0.233608 3.033000 115 76 60
-1.576852 -0.228298 3.033000 111 71 77
-1.576852 -0.222989 3.033000 108 70 72
-1.576852 -0.217680 3.033000 111 74 67
-1.576852 -0.212371 3.033000 114 71 60
-1.562815 -0.205218 3.006000 118 68 52
-1.562815 -0.199956 3.006000 123 68 53
-1.576852 -0.196443 3.033000 127 73 53
-1.576852 -0.191134 3.033000 132 69 63
-1.576852 -0.185824 3.033000 125 66 73
-1.576852 -0.180515 3.033000 119 68 67
-1.576852 -0.175206 3.033000 121 68 62
-1.576852 -0.169896 3.033000 123 65 61
-1.576852 -0.164587 3.033000 122 64 59
-1.562815 -0.157860 3.006000 121 65 60
-1.576852 -0.153969 3.033000 122 64 60
-1.562815 -0.147336 3.006000 124 68 56
-1.562815 -0.142074 3.006000 120 72 52
-1.562815 -0.136812 3.006000 116 70 51
-1.562815 -0.131550 3.006000 114 72 50
-1.562815 -0.126288 3.006000 112 68 54
-1.562815 -0.121026 3.006000 113 63 59
-1.562815 -0.115764 3.006000 115 65 56
-1.562815 -0.110502 3.006000 115 67 54
-1.562815 -0.105240 3.006000 115 66 57
-1.576852 -0.100876 3.033000 115 66 60
-1.576852 -0.095567 3.033000 116 66 64
-1.576852 -0.090257 3.033000 114 67 68
-1.576852 -0.084948 3.033000 113 68 61
-1.590370 -0.080322 3.059000 113 72 54
-1.590370 -0.074967 3.059000 113 68 61
-1.590370 -0.069612 3.059000 114 65 68
-1.576852 -0.063711 3.033000 115 66 60
-1.576852 -0.058402 3.033000 118 67 52
-1.576852 -0.053093 3.033000 122 69 48
-1.576852 -0.047783 3.033000 117 71 44
-1.562815 -0.042096 3.006000 113 69 49
-1.562815 -0.036834 3.006000 113 73 55
-1.562815 -0.031572 3.006000 113 66 55
-1.562815 -0.026310 3.006000 115 57 56
-1.576852 -0.021237 3.033000 117 62 56
-1.576852 -0.015928 3.033000 114 68 56
-1.576852 -0.010618 3.033000 112 63 64
-1.576852 -0.005309 3.033000 112 61 73
-1.576852 -0.000000 3.033000 113 58 66
-1.576852 0.005309 3.033000 112 56 60
-1.576852 0.010619 3.033000 111 58 64
-1.562815 0.015786 3.006000 110 59 69
-1.562815 0.021048 3.006000 110 58 64
-1.576852 0.026546 3.033000 110 57 59
-1.562815 0.031572 3.006000 111 58 54
-1.562815 0.036834 3.006000 111 57 49
-1.576852 0.042474 3.033000 111 58 50
-1.576852 0.047783 3.033000 109 59 50
-1.576852 0.053093 3.033000 107 61 41
-1.576852 0.058402 3.033000 112 63 33
-1.576852 0.063711 3.033000 117 62 40
-1.576852 0.069020 3.033000 110 61 47
-1.576852 0.074330 3.033000 104 60 43
-1.576852 0.079639 3.033000 103 59 40
-1.576852 0.084948 3.033000 102 60 43
-1.590370 0.091031 3.059000 99 62 45
-1.576852 0.095567 3.033000 96 60 52
-1.590370 0.101741 3.059000 109 60 60
-1.576852 0.106185 3.033000 123 57 53
-1.576852 0.111495 3.033000 114 54 47
-1.576852 0.116804 3.033000 105 54 41
-1.576852 0.122113 3.033000 107 54 35
-1.576852 0.127422 3.033000 109 54 44
-1.576852 0.132732 3.033000 106 53 53
-1.576852 0.138041 3.033000 103 57 53
-1.576852 0.143350 3.033000 102 68 53
-1.576852 0.148659 3.033000 101 61 51
-1.576852 0.153969 3.033000 102 55 49
-1.576852 0.159278 3.033000 103 54 47
-1.576852 0.164587 3.033000 103 53 44
-1.576852 0.169897 3.033000 103 53 48
-1.576852 0.175206 3.033000 103 53 53
-1.576852 0.180515 3.033000 104 54 49
-1.576852 0.185824 3.033000 105 54 45
-1.576852 0.191134 3.033000 106 51 50
-1.576852 0.196443 3.033000 103 48 55
-1.576852 0.201752 3.033000 100 53 53
-1.576852 0.207061 3.033000 100 58 52
-1.576852 0.212371 3.033000 100 55 50
-1.576852 0.217680 3.033000 101 55 49
-1.576852 0.222989 3.033000 102 53 44
-1.576852 0.228298 3.033000 101 55 40
-1.576852 0.233608 3.033000 101 53 42
-1.576852 0.238917 3.033000 100 52 44
-1.576852 0.244226 3.033000 100 52 45
-1.562815 0.247314 3.006000 102 55 45
-1.562815 0.252576 3.006000 104 52 42
-1.562815 0.257838 3.006000 99 48 38
-1.562815 0.263100 3.006000 95 49 48
-1.562815 0.268362 3.006000 97 50 59
-1.562815 0.273624 3.006000 100 47 52
-1.562815 0.278886 3.006000 101 45 45
-1.562815 0.284148 3.006000 103 48 44
-1.562815 0.289410 3.006000 108 47 43
-1.549298 0.292123 2.980000 114 46 47
-1.549298 0.297340 2.980000 104 42 52
-1.549298 0.302556 2.980000 94 44 56
-1.549298 0.307773 2.980000 95 46 60
-1.562815 0.315720 3.006000 96 46 47
-1.562815 0.320982 3.006000 100 47 35
-1.576852 0.329175 3.033000 105 48 42
-1.576852 0.334484 3.033000 99 47 49
-1.576852 0.339793 3.033000 94 48 51
-1.576852 0.345102 3.033000 93 45 54
-1.576852 0.350412 3.033000 92 47 45
-1.576852 0.355721 3.033000 91 55 37
-1.562815 0.357816 3.006000 90 53 39
-1.562815 0.363078 3.006000 91 49 41
-1.562815 0.368340 3.006000 92 48 38
-1.562815 0.373602 3.006000 94 48 35
-1.576852 0.382267 3.033000 96 47 32
-1.576852 0.387577 3.033000 91 44 30
-1.576852 0.392886 3.033000 87 45 32
-1.576852 0.398195 3.033000 91 47 34
-1.576852 0.403504 3.033000 96 45 25
-1.576852 0.408814 3.033000 94 44 16
-1.576852 0.414123 3.033000 92 43 32
-1.576852 0.419432 3.033000 94 40 49
-1.576852 0.424741 3.033000 97 38 45
-1.576852 0.430051 3.033000 92 38 40
-1.576852 0.435360 3.033000 88 42 43
-1.576852 0.440669 3.033000 80 45 46
-1.576852 0.445978 3.033000 73 47 38
-1.576852 0.451288 3.033000 79 48 29
-1.576852 0.456597 3.033000 86 45 32
-1.576852 0.461906 3.033000 87 44 35
-1.576852 0.467216 3.033000 88 44 29
-1.576852 0.472525 3.033000 88 41 24
-1.562815 0.473580 3.006000 88 40 31
-1.562815 0.478842 3.006000 90 42 38
-1.576852 0.488453 3.033000 93 42 32
-1.576852 0.493762 3.033000 93 42 27
-1.576852 0.499071 3.033000 93 40 34
-1.576852 0.504380 3.033000 94 37 41
-1.576852 0.509690 3.033000 96 36 37
-1.576852 0.514999 3.033000 94 38 32
-1.576852 0.520308 3.033000 93 38 29
-1.576852 0.525617 3.033000 96 39 27
-1.576852 0.530927 3.033000 100 38 30
-1.576852 0.536236 3.033000 94 35 33
-1.576852 0.541545 3.033000 88 35 29
-1.576852 0.546855 3.033000 86 33 24
-1.576852 0.552164 3.033000 84 33 26
-1.576852 0.557473 3.033000 85 37 27
-1.576852 0.562782 3.033000 87 39 29
-1.576852 0.568092 3.033000 91 40 31
-1.562815 0.568296 3.006000 95 36 29
-1.562815 0.573559 3.006000 80 30 28
-1.562815 0.578820 3.006000 65 25 20
-1.562815 0.584082 3.006000 47 14 13
-1.562815 0.589344 3.006000 30 10 9
-1.562815 0.594606 3.006000 28 9 5
-1.562815 0.599868 3.006000 26 10 7
-1.274271 0.656443 2.451000 73 50 63
-1.265433 0.656151 2.434000 78 49 68
-1.256595 0.655799 2.417000 77 52 74
-1.239438 0.651018 2.384000 77 58 70
-1.239438 0.655191 2.384000 67 63 66
-1.239438 0.659364 2.384000 57 61 71
-1.230600 0.658806 2.367000 69 60 76
-1.222282 0.658468 2.351000 81 57 78
-1.213963 0.658074 2.335000 85 54 80
-1.197846 0.653371 2.304000 90 54 82
-1.182249 0.648844 2.274000 96 57 84
-1.174451 0.648518 2.259000 102 57 89
-1.174451 0.652473 2.259000 95 55 94
-1.166652 0.652068 2.244000 89 60 90
-1.166652 0.655997 2.244000 88 65 87
-1.151575 0.651396 2.215000 88 63 87
-1.144297 0.651132 2.201000 88 63 87
-1.137018 0.650818 2.187000 88 61 91
-1.130259 0.650755 2.174000 89 63 95
-1.130259 0.654561 2.174000 90 65 91
-1.122981 0.654127 2.160000 90 68 88
-1.108944 0.649684 2.133000 90 67 94
-1.102185 0.649436 2.120000 91 68 100
-1.089188 0.645445 2.095000 92 67 98
-1.082429 0.645084 2.082000 92 66 96
-1.075670 0.644678 2.069000 92 66 93
-1.075670 0.648300 2.069000 96 65 91
-1.069431 0.648140 2.057000 100 64 89
-1.069431 0.651741 2.057000 91 64 88
-1.063193 0.651519 2.045000 82 65 89
-1.056954 0.651254 2.033000 87 68 90
-1.032519 0.639675 1.986000 92 66 89
-1.026800 0.639589 1.975000 91 65 88
-1.021081 0.639465 1.964000 91 65 93
-1.014842 0.638975 1.952000 85 71 98
-1.009123 0.638772 1.941000 80 67 94
-1.003924 0.638861 1.931000 89 62 90
-0.998205 0.638583 1.920000 98 61 92
-0.998205 0.641943 1.920000 97 59 95
-0.992486 0.641607 1.909000 96 65 93
-0.987287 0.641571 1.899000 93 71 91
-0.987287 0.644895 1.899000 91 70 92
-0.981568 0.644464 1.888000 91 77 92
-0.965971 0.637476 1.858000 92 74 94
-0.965971 0.640729 1.858000 93 72 95
-0.960773 0.640515 1.848000 95 74 93
-0.955574 0.640266 1.838000 100 76 91
-0.950375 0.639983 1.828000 105 72 97
-0.945696 0.640016 1.819000 102 70 102
-0.930618 0.632946 1.790000 99 71 108
-0.935817 0.639633 1.800000 98 69 113
-0.930618 0.639213 1.790000 97 74 108
-0.921260 0.635887 1.772000 96 76 104
-0.916581 0.635743 1.763000 96 74 100
-0.911902 0.635568 1.754000 95 73 97
-0.911902 0.638639 1.754000 95 77 96
-0.907223 0.638416 1.745000 90 78 95
-0.893706 0.631913 1.719000 85 77 105
-0.893706 0.634922 1.719000 90 77 115
-0.893706 0.637931 1.719000 96 75 113
-0.893706 0.640940 1.719000 88 74 110
-0.889546 0.640953 1.711000 81 76 110
-0.884867 0.640561 1.702000 88 77 109
-0.880708 0.640515 1.694000 95 76 110
-0.863552 0.630945 1.661000 100 80 111
-0.863552 0.633853 1.661000 106 78 109
-0.859392 0.633693 1.653000 104 77 108
-0.855233 0.633506 1.645000 103 77 111
-0.855233 0.636386 1.645000 104 80 115
-0.855233 0.639265 1.645000 106 77 108
-0.851594 0.639412 1.638000 113 72 101
-0.847435 0.639143 1.630000 121 75 101
-1.531128 -1.158691 2.955000 95 46 21
-1.531128 -1.153518 2.955000 91 45 19
-1.531128 -1.148346 2.955000 87 50 23
-1.531128 -1.143173 2.955000 88 46 28
-1.531128 -1.138000 2.955000 90 45 22
-1.531128 -1.132828 2.955000 93 42 17
-1.531128 -1.127655 2.955000 96 44 26
-1.531128 -1.122482 2.955000 94 42 35
-1.531128 -1.117309 2.955000 91 43 36
-1.531128 -1.112136 2.955000 92 40 37
-1.531128 -1.106964 2.955000 93 42 37
-1.531128 -1.101791 2.955000 93 46 37
-1.544081 -1.105896 2.980000 93 49 32
-1.544081 -1.100679 2.980000 95 46 28
-1.531128 -1.086273 2.955000 97 47 23
-1.531128 -1.081100 2.955000 96 45 18
-1.544081 -1.085030 2.980000 95 48 24
-1.557553 -1.089235 3.006000 95 47 30
-1.544081 -1.074597 2.980000 96 47 34
-1.544081 -1.069381 2.980000 94 44 39
-1.571543 -1.083091 3.033000 93 44 47
-1.571543 -1.077781 3.033000 94 44 56
-1.571543 -1.072472 3.033000 96 42 50
-1.571543 -1.067163 3.033000 95 45 45
-1.544081 -1.043298 2.980000 94 45 45
-1.544081 -1.038082 2.980000 98 43 46
-1.544081 -1.032865 2.980000 103 46 45
-1.544081 -1.027649 2.980000 101 44 44
-1.544081 -1.022432 2.980000 100 45 44
-1.544081 -1.017216 2.980000 100 46 44
-1.544081 -1.011999 2.980000 100 44 42
-1.544081 -1.006783 2.980000 101 42 41
-1.544081 -1.001566 2.980000 102 45 37
-1.544081 -0.996350 2.980000 101 48 34
-1.557553 -0.999781 3.006000 99 49 41
-1.557553 -0.994519 3.006000 100 46 48
-1.557553 -0.989257 3.006000 100 46 63
-1.557553 -0.983995 3.006000 100 44 78
-1.557553 -0.978733 3.006000 100 43 65
-1.571543 -0.982214 3.033000 100 45 52
-1.571543 -0.976905 3.033000 101 47 48
-1.571543 -0.971596 3.033000 99 46 45
-1.571543 -0.966287 3.033000 97 49 42
-1.571543 -0.960977 3.033000 98 51 40
-1.571543 -0.955668 3.033000 99 54 32
-1.571543 -0.950359 3.033000 102 52 25
-1.557553 -0.936637 3.006000 104 49 29
-1.571543 -0.939740 3.033000 100 52 34
-1.571543 -0.934431 3.033000 96 52 36
-1.557553 -0.920851 3.006000 96 49 39
-1.557553 -0.915589 3.006000 96 46 40
-1.557553 -0.910327 3.006000 100 43 42
-1.571543 -0.913194 3.033000 104 45 48
-1.571543 -0.907885 3.033000 97 50 54
-1.571543 -0.902575 3.033000 91 54 46
-1.571543 -0.897266 3.033000 97 51 38
-1.571543 -0.891957 3.033000 103 54 30
-1.571543 -0.886648 3.033000 99 54 23
-1.571543 -0.881338 3.033000 94 51 33
-1.571543 -0.876029 3.033000 98 48 43
-1.571543 -0.870720 3.033000 103 46 41
-1.571543 -0.865411 3.033000 100 47 39
-1.571543 -0.860101 3.033000 98 46 42
-1.571543 -0.854792 3.033000 100 43 45
-1.571543 -0.849483 3.033000 102 39 41
-1.571543 -0.844173 3.033000 100 43 38
-1.571543 -0.838864 3.033000 98 45 39
-1.571543 -0.833555 3.033000 94 47 41
-1.571543 -0.828246 3.033000 91 52 39
-1.571543 -0.822936 3.033000 93 50 37
-1.571543 -0.817627 3.033000 96 49 39
-1.571543 -0.812318 3.033000 97 48 41
-1.571543 -0.807009 3.033000 99 49 24
-1.585015 -0.808572 3.059000 97 52 7
-1.585015 -0.803217 3.059000 95 55 16
-1.585015 -0.797862 3.059000 96 54 25
-1.585015 -0.792507 3.059000 96 50 33
-1.585015 -0.787153 3.059000 100 45 41
-1.585015 -0.781798 3.059000 105 45 43
-1.585015 -0.776443 3.059000 101 45 45
-1.585015 -0.771088 3.059000 98 47 51
-1.585015 -0.765734 3.059000 98 48 57
-1.571543 -0.753916 3.033000 98 49 46
-1.571543 -0.748607 3.033000 103 53 36
-1.571543 -0.743297 3.033000 108 56 41
-1.571543 -0.737988 3.033000 102 55 47
-1.571543 -0.732679 3.033000 97 56 43
-1.571543 -0.727370 3.033000 100 53 40
-1.557553 -0.715632 3.006000 104 52 41
-1.557553 -0.710370 3.006000 102 49 42
-1.571543 -0.711442 3.033000 101 46 31
-1.571543 -0.706133 3.033000 99 47 20
-1.571543 -0.700823 3.033000 96 49 32
-1.571543 -0.695514 3.033000 101 48 44
-1.571543 -0.690205 3.033000 106 49 40
-1.571543 -0.684895 3.033000 103 51 37
-1.571543 -0.679586 3.033000 101 53 33
-1.571543 -0.674277 3.033000 100 53 30
-1.571543 -0.668968 3.033000 100 55 37
-1.571543 -0.663658 3.033000 101 54 44
-1.571543 -0.658349 3.033000 103 55 37
-1.571543 -0.653040 3.033000 100 53 30
-1.571543 -0.647731 3.033000 98 51 39
-1.571543 -0.642421 3.033000 104 51 49
-1.585015 -0.642574 3.059000 110 50 60
-1.585015 -0.637219 3.059000 103 51 71
-1.585015 -0.631864 3.059000 96 54 60
-1.585015 -0.626509 3.059000 99 53 49
-1.571543 -0.615875 3.033000 101 53 46
-1.571543 -0.610566 3.033000 102 53 44
-1.571543 -0.605256 3.033000 102 54 45
-1.571543 -0.599947 3.033000 103 54 47
-1.571543 -0.594638 3.033000 104 55 51
-1.571543 -0.589329 3.033000 104 53 55
-1.585015 -0.589026 3.059000 105 53 52
-1.585015 -0.583671 3.059000 107 53 49
-1.585015 -0.578316 3.059000 109 54 48
-1.585015 -0.572961 3.059000 107 53 48
-1.585015 -0.567607 3.059000 106 53 53
-1.585015 -0.562252 3.059000 106 53 58
-1.571543 -0.552164 3.033000 106 53 63
-1.571543 -0.546854 3.033000 107 56 68
-1.571543 -0.541545 3.033000 108 58 61
-1.585015 -0.540833 3.059000 107 57 54
-1.585015 -0.535478 3.059000 106 55 59
-1.585015 -0.530123 3.059000 106 56 65
-1.585015 -0.524768 3.059000 106 60 57
-1.585015 -0.519414 3.059000 101 61 49
-1.585015 -0.514059 3.059000 97 63 50
-1.571543 -0.504380 3.033000 99 62 51
-1.571543 -0.499071 3.033000 102 62 51
-1.571543 -0.493762 3.033000 103 61 51
-1.571543 -0.488453 3.033000 105 56 51
-1.571543 -0.483143 3.033000 108 60 51
-1.571543 -0.477834 3.033000 110 69 49
-1.571543 -0.472525 3.033000 106 66 47
-1.571543 -0.467215 3.033000 101 65 48
-1.585015 -0.465866 3.059000 106 65 50
-1.585015 -0.460511 3.059000 111 66 54
-1.585015 -0.455156 3.059000 109 67 58
-1.571543 -0.445978 3.033000 108 66 64
-1.571543 -0.440669 3.033000 108 66 71
-1.585015 -0.439092 3.059000 109 69 63
-1.585015 -0.433737 3.059000 112 66 56
-1.585015 -0.428382 3.059000 114 64 56
-1.571543 -0.419432 3.033000 117 61 56
-1.571543 -0.414123 3.033000 120 62 56
-1.571543 -0.408814 3.033000 119 63 56
-1.571543 -0.403504 3.033000 118 64 54
-1.571543 -0.398195 3.033000 116 65 52
-1.571543 -0.392886 3.033000 115 66 54
-1.571543 -0.387576 3.033000 116 64 56
-1.571543 -0.382267 3.033000 117 67 57
-1.571543 -0.376958 3.033000 117 68 58
-1.571543 -0.371649 3.033000 117 73 57
-1.571543 -0.366339 3.033000 119 71 56
-1.571543 -0.361030 3.033000 120 69 56
-1.571543 -0.355721 3.033000 118 69 57
-1.571543 -0.350412 3.033000 117 74 61
-1.571543 -0.345102 3.033000 115 74 65
-1.571543 -0.339793 3.033000 113 76 71
-1.571543 -0.334484 3.033000 115 74 77
-1.571543 -0.329174 3.033000 117 76 68
-1.571543 -0.323865 3.033000 117 70 59
