ply
format ascii 1.0
element vertex 1328
property float x
property float y
property float z
property uchar red
property uchar green
property uchar blue
end_header
0.190514 0.773263 3.201000 77 63 51
0.188788 0.771810 3.172000 78 60 58
0.187062 0.770255 3.143000 79 58 52
0.183729 0.761935 3.087000 81 61 47
0.182063 0.760379 3.059000 83 65 43
0.180515 0.759225 3.033000 81 62 39
0.178908 0.757729 3.006000 79 63 46
0.177361 0.756391 2.980000 76 62 53
0.177361 0.761608 2.980000 73 64 53
0.175873 0.760391 2.955000 75 62 54
0.174385 0.759087 2.930000 77 58 58
0.172897 0.757695 2.905000 74 58 62
0.171468 0.756479 2.881000 71 59 49
0.167243 0.742755 2.810000 75 59 37
0.165933 0.741820 2.788000 80 60 50
0.164564 0.740540 2.765000 79 60 63
0.163255 0.739450 2.743000 77 59 67
0.163255 0.744251 2.743000 77 59 71
0.162005 0.743318 2.722000 78 60 76
0.160755 0.742312 2.701000 77 60 81
0.159506 0.741232 2.680000 77 61 73
0.158256 0.740078 2.659000 79 59 66
0.157065 0.739131 2.639000 82 58 62
0.155875 0.738114 2.619000 77 60 58
0.153554 0.731639 2.580000 73 62 54
0.151292 0.725313 2.542000 74 62 50
0.150161 0.724308 2.523000 75 63 57
0.149090 0.723526 2.505000 71 64 65
0.149090 0.727911 2.505000 68 68 67
0.148019 0.727034 2.487000 70 66 69
0.146947 0.726094 2.469000 73 68 76
0.145876 0.725091 2.451000 74 65 84
0.144864 0.724322 2.434000 75 68 79
0.143853 0.723494 2.417000 74 63 75
0.142841 0.722606 2.400000 73 62 78
0.141889 0.721962 2.384000 72 61 82
0.140877 0.720958 2.367000 72 63 82
0.139924 0.720200 2.351000 70 60 82
0.138079 0.714764 2.320000 68 60 79
0.137127 0.713868 2.304000 73 61 77
0.136234 0.713227 2.289000 78 64 64
0.136234 0.717234 2.289000 74 65 52
0.135342 0.716515 2.274000 71 71 67
0.134449 0.715743 2.259000 72 66 82
0.133556 0.714918 2.244000 73 61 79
0.132723 0.714362 2.230000 75 61 76
0.131830 0.713434 2.215000 78 64 79
0.130997 0.712777 2.201000 77 61 82
0.130164 0.712072 2.187000 76 59 79
0.129390 0.711645 2.174000 76 58 76
0.129390 0.715450 2.174000 77 60 77
0.126950 0.705691 2.133000 77 62 78
0.126950 0.709425 2.133000 78 63 80
0.126176 0.708813 2.120000 75 61 82
0.125402 0.708154 2.107000 73 62 77
0.124688 0.707789 2.095000 76 65 72
0.123914 0.707041 2.082000 80 68 75
0.123914 0.710686 2.082000 79 65 79
0.123141 0.709870 2.069000 78 62 79
0.121712 0.705215 2.045000 76 62 79
0.120998 0.704636 2.033000 74 66 77
0.120998 0.708195 2.033000 76 64 76
0.118915 0.699500 1.998000 78 65 70
0.118915 0.702997 1.998000 76 66 64
0.118201 0.702252 1.986000 74 70 67
0.116891 0.697910 1.964000 75 67 71
0.116177 0.697063 1.952000 77 67 72
0.115523 0.696533 1.941000 75 63 73
0.115523 0.699931 1.941000 74 60 79
0.114927 0.699705 1.931000 70 61 85
0.114273 0.699080 1.920000 66 65 87
0.113618 0.698416 1.909000 73 63 89
0.113023 0.698082 1.899000 80 63 85
0.112368 0.697343 1.888000 78 60 82
0.111773 0.696937 1.878000 77 59 74
0.111773 0.700225 1.878000 75 61 66
0.110583 0.696020 1.858000 74 65 78
0.109987 0.695509 1.848000 73 65 90
0.108797 0.691182 1.828000 72 64 73
0.108261 0.690963 1.819000 73 67 57
0.107666 0.690331 1.809000 74 70 61
0.107131 0.690047 1.800000 76 68 65
0.106535 0.689347 1.790000 78 69 70
0.106000 0.688999 1.781000 78 64 76
0.243538 0.814114 3.975000 81 65 57
0.232817 0.804880 3.800000 78 63 56
0.232817 0.811532 3.800000 79 59 57
0.225403 0.792131 3.679000 79 59 58
0.225403 0.798571 3.679000 79 61 56
0.220686 0.788163 3.602000 79 64 55
0.220686 0.794468 3.602000 80 66 57
0.218419 0.792548 3.565000 81 66 59
0.216152 0.790498 3.528000 83 63 63
0.214007 0.788770 3.493000 83 63 67
0.211863 0.786920 3.458000 84 61 72
0.209719 0.784947 3.423000 81 64 77
0.207697 0.783314 3.390000 79 63 67
0.205675 0.781565 3.357000 79 59 57
0.201754 0.772429 3.293000 79 60 54
0.199855 0.770868 3.262000 77 62 51
0.197955 0.769198 3.231000 76 61 56
0.197955 0.774854 3.231000 77 65 62
0.196117 0.773263 3.201000 78 63 60
0.192564 0.764753 3.143000 78 61 58
0.190848 0.763393 3.115000 78 60 53
0.189133 0.761935 3.087000 79 64 48
0.187417 0.760379 3.059000 80 63 39
0.185824 0.759225 3.033000 79 61 30
0.184170 0.757729 3.006000 79 61 43
0.182577 0.756391 2.980000 74 64 56
0.182577 0.761608 2.980000 69 65 57
0.179514 0.753958 2.930000 74 67 58
0.179514 0.759087 2.930000 79 62 61
0.177982 0.757695 2.905000 78 63 64
0.176512 0.756479 2.881000 78 62 56
0.172162 0.742755 2.810000 78 62 48
0.169405 0.735700 2.765000 78 60 55
0.169405 0.740540 2.765000 78 60 62
0.168057 0.739450 2.743000 78 60 61
0.166770 0.738554 2.722000 78 59 61
0.165484 0.737584 2.701000 79 58 70
0.164197 0.736540 2.680000 79 61 79
0.162910 0.735424 2.659000 79 60 73
0.162910 0.740078 2.659000 83 61 67
0.161685 0.739131 2.639000 87 59 68
0.160460 0.738114 2.619000 82 61 68
0.158070 0.731639 2.580000 77 60 71
0.155742 0.725313 2.542000 78 61 74
0.154578 0.724308 2.523000 79 63 72
0.153475 0.723526 2.505000 78 64 71
0.153475 0.727911 2.505000 78 66 71
0.152372 0.727034 2.487000 75 70 70
0.152372 0.731387 2.487000 73 65 65
0.151269 0.730416 2.469000 75 62 59
0.149125 0.724322 2.434000 78 64 66
0.148084 0.723494 2.417000 74 65 74
0.147042 0.722606 2.400000 70 63 75
0.146062 0.721962 2.384000 71 65 77
0.145020 0.720958 2.367000 73 61 80
0.144040 0.720200 2.351000 75 58 83
0.143060 0.719386 2.335000 77 59 85
0.142141 0.718825 2.320000 79 62 87
0.141160 0.717901 2.304000 82 63 75
0.140241 0.717234 2.289000 77 65 64
0.139322 0.716515 2.274000 72 66 72
0.137484 0.710990 2.244000 72 67 81
0.137484 0.714918 2.244000 73 61 79
0.136627 0.714362 2.230000 76 59 77
0.135708 0.713434 2.215000 79 61 79
0.134850 0.712777 2.201000 77 62 81
0.133992 0.712072 2.187000 76 57 78
0.133196 0.711645 2.174000 76 55 76
0.133196 0.715450 2.174000 77 59 75
0.130684 0.705691 2.133000 78 62 75
0.130684 0.709425 2.133000 79 62 77
0.129887 0.708813 2.120000 75 60 79
0.129091 0.708154 2.107000 71 63 67
0.128355 0.707789 2.095000 77 69 55
0.127559 0.707041 2.082000 83 68 66
0.127559 0.710686 2.082000 80 67 77
0.126762 0.709870 2.069000 78 64 82
0.125292 0.705215 2.045000 74 65 87
0.124557 0.704636 2.033000 71 64 82
0.124557 0.708195 2.033000 74 61 77
0.122719 0.701250 2.003000 77 64 71
0.121677 0.698775 1.986000 73 70 66
0.121677 0.702252 1.986000 69 69 65
0.120329 0.697910 1.964000 73 65 65
0.119594 0.697063 1.952000 77 65 67
0.118920 0.696533 1.941000 75 67 70
0.118920 0.699931 1.941000 74 64 77
0.118308 0.699705 1.931000 64 62 83
0.117634 0.699080 1.920000 55 63 84
0.116960 0.698416 1.909000 66 68 86
0.116347 0.698082 1.899000 78 64 83
0.115673 0.697343 1.888000 77 62 80
0.114448 0.693226 1.868000 77 61 76
0.114448 0.696496 1.868000 76 62 72
0.113835 0.696020 1.858000 75 66 79
0.113222 0.695509 1.848000 77 71 86
0.111997 0.691182 1.828000 80 67 76
0.111446 0.690963 1.819000 77 70 67
0.110833 0.690331 1.809000 74 69 68
0.110833 0.693498 1.809000 75 68 69
0.110281 0.693198 1.800000 77 68 73
0.109117 0.688999 1.781000 78 63 77
0.236885 0.802776 3.759000 79 60 56
0.229386 0.790106 3.640000 76 65 59
0.226991 0.788163 3.602000 78 66 61
0.224659 0.786307 3.565000 79 67 61
0.222328 0.784322 3.528000 80 64 62
0.222328 0.790498 3.528000 82 62 63
0.220122 0.788770 3.493000 81 60 65
0.217916 0.786920 3.458000 81 60 69
0.215711 0.784947 3.423000 78 62 74
0.213631 0.783314 3.390000 76 65 67
0.209472 0.773882 3.324000 77 60 61
0.207518 0.772429 3.293000 79 57 59
0.205565 0.770868 3.262000 78 57 58
0.203611 0.769198 3.231000 77 58 69
0.201721 0.767659 3.201000 77 63 80
0.201721 0.773263 3.201000 78 65 69
0.198066 0.764753 3.143000 77 59 58
0.196301 0.763393 3.115000 77 58 53
0.194537 0.761935 3.087000 78 61 49
0.191134 0.753916 3.033000 79 62 35
0.189432 0.752467 3.006000 80 60 21
0.189432 0.757729 3.006000 82 59 40
0.187794 0.756391 2.980000 77 63 59
0.186218 0.755218 2.955000 73 67 60
0.184643 0.753958 2.930000 75 63 62
0.184643 0.759087 2.930000 78 61 64
0.183067 0.757695 2.905000 78 61 67
0.181555 0.756479 2.881000 79 65 63
0.177081 0.742755 2.810000 78 62 59
0.174245 0.735700 2.765000 77 60 60
0.174245 0.740540 2.765000 75 62 61
0.172858 0.739450 2.743000 73 65 56
0.172858 0.744251 2.743000 78 60 51
0.171535 0.743318 2.722000 83 55 64
0.170212 0.742312 2.701000 81 57 77
0.168888 0.741232 2.680000 79 59 73
0.167565 0.740078 2.659000 81 58 69
0.166305 0.739131 2.639000 83 58 74
0.165044 0.738114 2.619000 80 59 79
0.162586 0.731639 2.580000 78 59 88
0.158994 0.719892 2.523000 80 61 98
0.158994 0.724308 2.523000 83 65 88
0.157860 0.723526 2.505000 80 62 78
0.157860 0.727911 2.505000 78 63 75
0.156726 0.727034 2.487000 74 63 72
0.156726 0.731387 2.487000 70 61 53
0.155591 0.730416 2.469000 74 61 35
0.153386 0.724322 2.434000 77 62 54
0.152315 0.723494 2.417000 75 63 73
0.151243 0.722606 2.400000 74 62 72
0.150235 0.721962 2.384000 74 61 72
0.149164 0.720958 2.367000 75 61 78
0.148155 0.720200 2.351000 76 57 84
0.147147 0.719386 2.335000 78 56 90
0.146202 0.718825 2.320000 79 57 97
0.145194 0.717901 2.304000 80 62 86
0.144248 0.717234 2.289000 75 63 76
0.144248 0.721241 2.289000 71 63 78
0.142358 0.715743 2.259000 70 62 81
0.141412 0.714918 2.244000 69 59 79
0.140530 0.714362 2.230000 73 59 78
0.139585 0.713434 2.215000 77 59 79
0.138703 0.712777 2.201000 75 57 81
0.137820 0.712072 2.187000 74 55 78
0.137820 0.715900 2.187000 76 57 76
0.137001 0.715450 2.174000 78 59 74
0.135300 0.710323 2.147000 78 61 73
0.133598 0.705102 2.120000 79 63 74
0.132779 0.704466 2.107000 77 61 76
0.132023 0.704121 2.095000 75 64 57
0.132023 0.707789 2.095000 77 66 39
0.131204 0.707041 2.082000 80 68 57
0.130384 0.706248 2.069000 79 67 76
0.130384 0.709870 2.069000 78 65 85
0.128872 0.705215 2.045000 76 65 95
0.128872 0.708795 2.045000 75 67 87
0.128116 0.708195 2.033000 77 62 79
0.126603 0.703351 2.009000 80 60 73
0.125154 0.698775 1.986000 78 65 68
0.124461 0.698362 1.975000 75 72 63
0.123011 0.693646 1.952000 77 66 59
0.123011 0.697063 1.952000 79 62 63
0.122318 0.696533 1.941000 77 66 68
0.122318 0.699931 1.941000 76 69 75
0.121688 0.699705 1.931000 73 62 82
0.120995 0.699080 1.920000 70 59 82
0.120301 0.698416 1.909000 74 62 83
0.119671 0.698082 1.899000 79 63 80
0.118978 0.697343 1.888000 78 62 78
0.117718 0.693226 1.868000 78 64 78
0.117718 0.696496 1.868000 76 65 78
0.117087 0.696020 1.858000 75 68 80
0.116457 0.695509 1.848000 77 67 82
0.115197 0.691182 1.828000 78 64 80
0.114630 0.690963 1.819000 76 66 78
0.114000 0.690331 1.809000 74 71 75
0.114000 0.693498 1.809000 73 71 73
0.113432 0.693198 1.800000 72 72 76
0.112802 0.692480 1.790000 75 62 79
0.228503 0.784322 3.528000 80 62 65
0.228503 0.790498 3.528000 81 60 66
0.223969 0.780867 3.458000 79 58 68
0.223969 0.786920 3.458000 78 60 75
0.221703 0.784947 3.423000 75 62 83
0.217428 0.775689 3.357000 73 61 72
0.213283 0.766665 3.293000 76 59 62
0.213283 0.772429 3.293000 79 56 60
0.211275 0.770868 3.262000 78 54 58
0.209267 0.769198 3.231000 78 58 65
0.207324 0.767659 3.201000 78 64 72
0.205446 0.766257 3.172000 78 62 68
0.203567 0.764753 3.143000 77 55 64
0.201754 0.763393 3.115000 77 58 65
0.199940 0.761935 3.087000 77 61 66
0.198127 0.760379 3.059000 78 60 56
0.196443 0.759225 3.033000 82 59 46
0.194694 0.757729 3.006000 86 61 62
0.193010 0.756391 2.980000 81 64 78
0.191391 0.755218 2.955000 77 63 75
0.189772 0.753958 2.930000 77 60 72
0.189772 0.759087 2.930000 77 58 74
0.188152 0.757695 2.905000 78 56 77
0.185044 0.750177 2.857000 80 61 71
0.181999 0.742755 2.810000 78 63 65
0.180575 0.741820 2.788000 76 60 65
0.179085 0.740540 2.765000 72 63 66
0.177660 0.739450 2.743000 68 63 63
0.177660 0.744251 2.743000 77 63 61
0.176300 0.743318 2.722000 87 57 72
0.174940 0.742312 2.701000 83 55 83
0.173580 0.741232 2.680000 80 56 77
0.172219 0.740078 2.659000 79 54 71
0.170924 0.739131 2.639000 79 56 75
0.169629 0.738114 2.619000 79 58 80
0.167103 0.731639 2.580000 80 59 84
0.164641 0.725313 2.542000 83 59 88
0.163411 0.724308 2.523000 87 59 83
0.162245 0.723526 2.505000 83 59 78
0.162245 0.727911 2.505000 79 60 78
0.161079 0.727034 2.487000 73 60 78
0.161079 0.731387 2.487000 68 60 64
0.158748 0.725091 2.451000 72 61 51
0.157646 0.724322 2.434000 77 61 65
0.156545 0.723494 2.417000 77 63 80
0.155444 0.722606 2.400000 78 61 77
0.154408 0.721962 2.384000 77 59 74
0.153307 0.720958 2.367000 77 57 75
0.153307 0.725101 2.367000 78 54 77
0.151234 0.719386 2.335000 80 53 82
0.150263 0.718825 2.320000 79 51 88
0.149227 0.717901 2.304000 78 59 81
0.148255 0.717234 2.289000 74 63 74
0.148255 0.721241 2.289000 71 61 78
0.147284 0.720495 2.274000 68 62 83
0.145340 0.714918 2.244000 65 62 80
0.144434 0.714362 2.230000 70 62 78
0.143462 0.713434 2.215000 75 59 83
0.142555 0.712777 2.201000 74 55 88
0.141649 0.712072 2.187000 73 55 83
0.140807 0.711645 2.174000 76 59 79
0.140807 0.715450 2.174000 80 58 76
0.138151 0.705691 2.133000 79 61 74
0.137309 0.705102 2.120000 79 60 79
0.136467 0.704466 2.107000 79 60 83
0.135690 0.704121 2.095000 79 63 70
0.134848 0.703397 2.082000 78 65 58
0.134848 0.707041 2.082000 77 66 66
0.134006 0.706248 2.069000 78 69 74
0.133229 0.705753 2.057000 79 66 80
0.132452 0.705215 2.045000 79 65 87
0.132452 0.708795 2.045000 79 63 80
0.131674 0.708195 2.033000 81 60 73
0.130120 0.703351 2.009000 84 59 71
0.129407 0.702997 1.998000 83 60 69
0.127918 0.698362 1.975000 82 63 68
0.126428 0.693646 1.952000 82 65 67
0.125716 0.693135 1.941000 82 63 68
0.125716 0.696533 1.941000 80 67 70
0.125068 0.696325 1.931000 78 66 71
0.125068 0.699705 1.931000 82 61 73
0.124355 0.699080 1.920000 86 59 82
0.124355 0.702441 1.920000 83 60 90
0.122995 0.698082 1.899000 80 61 84
0.122283 0.697343 1.888000 79 62 79
0.120988 0.693226 1.868000 79 63 79
0.120988 0.696496 1.868000 77 67 80
0.119692 0.692274 1.848000 76 65 81
0.119044 0.691745 1.838000 76 65 82
0.118397 0.691182 1.828000 77 63 81
0.117814 0.690963 1.819000 76 62 80
0.117166 0.690331 1.809000 75 67 76
0.117166 0.693498 1.809000 71 73 72
0.116583 0.693198 1.800000 68 68 77
0.116583 0.696349 1.800000 72 60 82
0.234679 0.784322 3.528000 81 61 68
0.234679 0.790498 3.528000 81 59 70
0.232351 0.788770 3.493000 80 59 72
0.232351 0.794885 3.493000 80 62 82
0.227695 0.784947 3.423000 80 62 92
0.223304 0.775689 3.357000 81 61 77
0.219047 0.766665 3.293000 80 58 63
0.219047 0.772429 3.293000 80 55 60
0.216985 0.770868 3.262000 79 56 58
0.214923 0.769198 3.231000 78 59 61
0.212927 0.767659 3.201000 78 62 65
0.210998 0.766257 3.172000 78 65 68
0.207207 0.757940 3.115000 77 60 71
0.205344 0.756531 3.087000 77 58 77
0.203482 0.755024 3.059000 75 59 84
0.201752 0.753916 3.033000 73 58 77
0.199956 0.752467 3.006000 81 58 71
0.199956 0.757729 3.006000 90 62 84
0.198227 0.756391 2.980000 80 61 97
0.196564 0.755218 2.955000 71 64 89
0.194901 0.753958 2.930000 73 58 82
0.193238 0.752610 2.905000 75 56 84
0.191641 0.751436 2.881000 76 57 87
0.190045 0.750177 2.857000 78 60 79
0.186918 0.742755 2.810000 77 59 71
0.186918 0.747674 2.810000 76 57 71
0.185455 0.746700 2.788000 74 60 71
0.183925 0.745381 2.765000 73 62 71
0.182462 0.744251 2.743000 78 60 71
0.181065 0.743318 2.722000 83 56 80
0.179668 0.742312 2.701000 81 56 89
0.179668 0.747040 2.701000 80 56 81
0.178271 0.745923 2.680000 79 55 73
0.176874 0.744733 2.659000 78 55 77
0.175544 0.743751 2.639000 78 58 81
0.172883 0.737027 2.599000 78 60 80
0.169091 0.725313 2.542000 80 59 79
0.167827 0.724308 2.523000 83 55 79
0.166630 0.723526 2.505000 80 56 79
0.165433 0.722680 2.487000 78 58 81
0.165433 0.727034 2.487000 76 58 84
0.165433 0.731387 2.487000 73 59 75
0.164235 0.730416 2.469000 77 60 67
0.161907 0.724322 2.434000 80 59 77
0.160776 0.723494 2.417000 79 61 88
0.160776 0.727725 2.417000 79 62 82
0.159646 0.726808 2.400000 79 57 76
0.158581 0.726136 2.384000 80 57 73
0.157450 0.725101 2.367000 82 54 70
0.155322 0.719386 2.335000 85 53 74
0.154324 0.718825 2.320000 82 55 79
0.153260 0.717901 2.304000 79 60 75
0.152262 0.717234 2.289000 76 61 72
0.152262 0.721241 2.289000 74 59 79
0.151264 0.720495 2.274000 72 61 86
0.150266 0.719697 2.259000 71 65 82
0.148337 0.714362 2.230000 74 63 78
0.147340 0.713434 2.215000 77 63 87
0.146408 0.712777 2.201000 74 57 96
0.145477 0.712072 2.187000 72 54 89
0.144612 0.711645 2.174000 77 57 82
0.144612 0.715450 2.174000 83 56 79
0.142816 0.710323 2.147000 81 58 76
0.141020 0.705102 2.120000 79 58 83
0.141020 0.708813 2.120000 79 61 91
0.139357 0.704121 2.095000 79 63 84
0.138493 0.703397 2.082000 78 63 77
0.138493 0.707041 2.082000 78 64 75
0.137628 0.706248 2.069000 81 66 73
0.136830 0.705753 2.057000 84 68 76
0.136031 0.705215 2.045000 82 64 79
0.135233 0.704636 2.033000 80 63 73
0.135233 0.708195 2.033000 81 62 68
0.134435 0.707552 2.021000 82 59 69
0.132107 0.698775 1.986000 82 58 71
0.131375 0.698362 1.975000 81 57 73
0.129845 0.693646 1.952000 83 59 76
0.129845 0.697063 1.952000 85 60 74
0.129113 0.696533 1.941000 78 64 72
0.129113 0.699931 1.941000 71 67 68
0.128448 0.699705 1.931000 77 62 65
0.128448 0.703085 1.931000 83 58 81
0.127716 0.702441 1.920000 81 60 98
0.126320 0.698082 1.899000 79 62 89
0.125588 0.697343 1.888000 80 61 80
0.124257 0.693226 1.868000 81 62 81
0.124257 0.696496 1.868000 79 62 82
0.122927 0.692274 1.848000 78 63 82
0.121597 0.687982 1.828000 79 64 82
0.121597 0.691182 1.828000 80 64 82
0.120998 0.690963 1.819000 79 63 83
0.120333 0.690331 1.809000 78 65 77
0.119734 0.690047 1.800000 76 68 72
0.119734 0.693198 1.800000 75 68 78
0.119069 0.692480 1.790000 76 63 85
0.240855 0.784322 3.528000 83 61 73
0.240855 0.790498 3.528000 82 59 68
0.238465 0.788770 3.493000 82 58 63
0.238465 0.794885 3.493000 82 60 69
0.233686 0.784947 3.423000 85 64 75
0.229181 0.775689 3.357000 89 62 63
0.224811 0.766665 3.293000 85 57 52
0.224811 0.772429 3.293000 82 57 54
0.222695 0.770868 3.262000 80 56 56
0.220579 0.769198 3.231000 79 60 61
0.220579 0.774854 3.231000 78 63 66
0.218531 0.773263 3.201000 78 62 65
0.212659 0.757940 3.115000 77 62 64
0.210748 0.756531 3.087000 77 60 66
0.208836 0.755024 3.059000 73 60 69
0.207061 0.753916 3.033000 69 57 68
0.205218 0.752467 3.006000 81 54 68
0.205218 0.757729 3.006000 94 56 72
0.203443 0.756391 2.980000 79 54 77
0.201736 0.755218 2.955000 65 58 78
0.200030 0.753958 2.930000 69 54 79
0.198323 0.752610 2.905000 73 55 78
0.196684 0.751436 2.881000 75 58 78
0.195046 0.750177 2.857000 77 59 72
0.193476 0.749099 2.834000 77 59 66
0.191837 0.747674 2.810000 77 58 65
0.191837 0.752593 2.810000 77 60 64
0.188765 0.745381 2.765000 78 61 59
0.187263 0.744251 2.743000 78 59 54
0.185830 0.743318 2.722000 79 59 66
0.184396 0.742312 2.701000 79 58 79
0.182962 0.741232 2.680000 80 57 71
0.181529 0.740078 2.659000 79 55 64
0.181529 0.744733 2.659000 78 56 70
0.180163 0.743751 2.639000 77 60 77
0.177432 0.737027 2.599000 77 62 76
0.173541 0.725313 2.542000 78 64 75
0.173541 0.729763 2.542000 79 59 76
0.171015 0.723526 2.505000 78 55 77
0.169786 0.722680 2.487000 78 56 76
0.169786 0.727034 2.487000 78 55 76
0.168557 0.726094 2.469000 79 58 69
0.167329 0.725091 2.451000 81 62 62
0.166168 0.724322 2.434000 84 59 70
0.165007 0.723494 2.417000 82 60 77
0.165007 0.727725 2.417000 80 58 71
0.163847 0.726808 2.400000 81 53 65
0.161594 0.720958 2.367000 83 54 58
0.161594 0.725101 2.367000 86 54 51
0.158385 0.714764 2.320000 90 54 62
0.157293 0.713868 2.304000 85 56 73
0.157293 0.717901 2.304000 80 61 69
0.156269 0.717234 2.289000 78 64 65
0.156269 0.721241 2.289000 77 61 69
0.155245 0.720495 2.274000 77 60 73
0.154221 0.719697 2.259000 77 62 66
0.152241 0.714362 2.230000 78 64 59
0.151217 0.713434 2.215000 79 61 72
0.150261 0.712777 2.201000 75 58 85
0.149305 0.712072 2.187000 71 56 81
0.149305 0.715900 2.187000 79 60 77
0.148418 0.715450 2.174000 87 58 68
0.145619 0.705691 2.133000 83 57 59
0.144731 0.705102 2.120000 80 59 70
0.144731 0.708813 2.120000 80 64 82
0.143025 0.704121 2.095000 80 63 76
0.142137 0.703397 2.082000 79 63 71
0.142137 0.707041 2.082000 79 64 69
0.141250 0.706248 2.069000 84 65 68
0.141250 0.709870 2.069000 89 65 70
0.140430 0.709354 2.057000 85 63 73
0.139611 0.708795 2.045000 82 64 68
0.138792 0.708195 2.033000 81 67 64
0.137973 0.707552 2.021000 81 62 61
0.136402 0.702997 1.998000 81 58 59
0.135583 0.702252 1.986000 81 58 67
0.133262 0.693646 1.952000 84 57 75
0.133262 0.697063 1.952000 88 59 79
0.132511 0.696533 1.941000 76 62 83
0.132511 0.699931 1.941000 64 63 76
0.131828 0.699705 1.931000 72 62 69
0.131828 0.703085 1.931000 81 61 78
0.131077 0.702441 1.920000 80 60 87
0.129644 0.698082 1.899000 79 61 73
0.129644 0.701406 1.899000 81 60 60
0.128210 0.696937 1.878000 83 58 73
0.127527 0.696496 1.868000 82 58 86
0.126162 0.692274 1.848000 81 61 85
0.125479 0.691745 1.838000 82 64 83
0.124797 0.691182 1.828000 84 62 87
0.124182 0.690963 1.819000 82 61 90
0.123500 0.690331 1.809000 81 64 82
0.122885 0.690047 1.800000 82 67 75
0.122885 0.693198 1.800000 83 65 79
0.122202 0.692480 1.790000 81 64 84
0.247031 0.784322 3.528000 82 62 79
0.244580 0.782656 3.493000 82 58 66
0.244580 0.788770 3.493000 81 58 54
0.244580 0.794885 3.493000 80 59 56
0.237368 0.777380 3.390000 82 64 58
0.232746 0.768064 3.324000 85 66 49
0.230576 0.766665 3.293000 82 61 41
0.230576 0.772429 3.293000 80 60 47
0.228405 0.770868 3.262000 79 61 54
0.226235 0.769198 3.231000 78 64 60
0.226235 0.774854 3.231000 78 61 67
0.224134 0.773263 3.201000 78 59 62
0.218112 0.757940 3.115000 78 60 57
0.216152 0.756531 3.087000 79 60 56
0.214191 0.755024 3.059000 77 58 55
0.212371 0.753916 3.033000 75 58 60
0.210480 0.752467 3.006000 82 56 65
0.208660 0.751175 2.980000 89 54 61
0.206909 0.750046 2.955000 80 59 58
0.205159 0.748829 2.930000 71 63 67
0.205159 0.753958 2.930000 73 57 76
0.203408 0.752610 2.905000 75 54 73
0.201728 0.751436 2.881000 77 58 70
0.200047 0.750177 2.857000 80 60 66
0.198437 0.749099 2.834000 78 58 62
0.196756 0.747674 2.810000 77 59 60
0.196756 0.752593 2.810000 80 61 58
0.195216 0.751581 2.788000 82 65 48
0.193605 0.750221 2.765000 78 61 38
0.190594 0.743318 2.722000 75 64 53
0.189124 0.742312 2.701000 78 61 69
0.189124 0.747040 2.701000 82 59 62
0.187654 0.745923 2.680000 80 56 56
0.186183 0.744733 2.659000 78 55 64
0.184783 0.743751 2.639000 78 60 73
0.181982 0.737027 2.599000 78 64 72
0.179251 0.730449 2.560000 77 64 72
0.177991 0.729763 2.542000 76 64 74
0.176660 0.728725 2.523000 77 60 76
0.175400 0.727911 2.505000 78 56 72
0.174140 0.727034 2.487000 78 57 68
0.172879 0.726094 2.469000 79 59 63
0.171619 0.725091 2.451000 80 60 58
0.170429 0.724322 2.434000 81 58 62
0.169238 0.723494 2.417000 80 58 67
0.169238 0.727725 2.417000 79 60 60
0.168048 0.726808 2.400000 80 55 54
0.166928 0.726136 2.384000 81 54 43
0.165737 0.725101 2.367000 83 55 33
0.163497 0.719386 2.335000 86 56 50
0.161326 0.713868 2.304000 78 59 67
0.160276 0.713227 2.289000 71 67 63
0.160276 0.717234 2.289000 74 62 59
0.159225 0.716515 2.274000 77 63 60
0.159225 0.720495 2.274000 77 61 61
0.157125 0.714918 2.244000 78 61 50
0.156145 0.714362 2.230000 80 62 40
0.156145 0.718265 2.230000 83 61 57
0.154114 0.712777 2.201000 79 59 75
0.153134 0.712072 2.187000 76 55 73
0.153134 0.715900 2.187000 80 57 72
0.152223 0.715450 2.174000 84 59 57
0.149353 0.705691 2.133000 82 58 42
0.148442 0.705102 2.120000 80 58 58
0.148442 0.708813 2.120000 79 60 74
0.146692 0.704121 2.095000 79 63 69
0.145782 0.703397 2.082000 79 64 65
0.145782 0.707041 2.082000 79 66 64
0.144871 0.706248 2.069000 82 66 63
0.144031 0.705753 2.057000 86 67 65
0.144031 0.709354 2.057000 83 64 67
0.143191 0.708795 2.045000 80 63 63
0.142351 0.708195 2.033000 80 63 60
0.142351 0.711753 2.033000 80 64 53
0.140670 0.706868 2.009000 79 62 47
0.139060 0.702252 1.986000 79 62 60
0.137519 0.697910 1.964000 81 60 74
0.136679 0.697063 1.952000 84 60 84
0.136679 0.700480 1.952000 77 61 95
0.135909 0.699931 1.941000 71 62 84
0.135209 0.699705 1.931000 77 63 74
0.134438 0.699080 1.920000 83 65 75
0.133668 0.698416 1.909000 81 63 76
0.133668 0.701758 1.909000 79 62 58
0.132968 0.701406 1.899000 80 58 41
0.131498 0.696937 1.878000 81 55 66
0.130797 0.696496 1.868000 80 58 91
0.130097 0.696020 1.858000 79 60 88
0.128697 0.691745 1.838000 80 60 85
0.127997 0.691182 1.828000 81 61 91
0.127366 0.690963 1.819000 80 61 98
0.126666 0.690331 1.809000 80 64 88
0.126036 0.690047 1.800000 80 64 78
0.126036 0.693198 1.800000 81 63 81
0.125336 0.692480 1.790000 80 62 84
0.253206 0.784322 3.528000 82 63 72
0.250694 0.782656 3.493000 82 61 65
0.250694 0.788770 3.493000 80 59 58
0.248182 0.786920 3.458000 78 60 58
0.243302 0.777380 3.390000 80 67 58
0.238565 0.768064 3.324000 82 66 52
0.236340 0.766665 3.293000 80 63 46
0.236340 0.772429 3.293000 78 63 51
0.234115 0.770868 3.262000 77 65 57
0.231891 0.769198 3.231000 77 63 62
0.231891 0.774854 3.231000 78 61 67
0.229737 0.773263 3.201000 79 59 63
0.225575 0.764753 3.143000 80 60 59
0.223565 0.763393 3.115000 81 58 57
0.219546 0.755024 3.059000 81 56 55
0.215742 0.747204 3.006000 82 58 61
0.215742 0.752467 3.006000 83 59 66
0.213876 0.751175 2.980000 85 58 64
0.212082 0.750046 2.955000 81 65 61
0.210288 0.748829 2.930000 78 64 65
0.210288 0.753958 2.930000 78 60 68
0.208493 0.752610 2.905000 78 59 64
0.205048 0.745176 2.857000 80 60 59
0.205048 0.750177 2.857000 83 59 62
0.203398 0.749099 2.834000 80 54 65
0.201675 0.747674 2.810000 78 56 62
0.201675 0.752593 2.810000 82 63 60
0.200096 0.751581 2.788000 87 63 55
0.198445 0.750221 2.765000 79 59 50
0.195359 0.743318 2.722000 71 61 62
0.193852 0.742312 2.701000 77 64 74
0.193852 0.747040 2.701000 84 60 68
0.192345 0.745923 2.680000 81 58 62
0.190838 0.744733 2.659000 78 57 68
0.189402 0.743751 2.639000 78 61 74
0.187967 0.742699 2.619000 79 63 73
0.183733 0.730449 2.560000 76 64 72
0.183733 0.734930 2.560000 74 64 73
0.181077 0.728725 2.523000 76 67 74
0.179785 0.727911 2.505000 79 61 71
0.178493 0.727034 2.487000 79 58 69
0.177201 0.726094 2.469000 79 59 65
0.175910 0.725091 2.451000 78 62 61
0.174689 0.724322 2.434000 78 58 65
0.173469 0.723494 2.417000 78 56 69
0.173469 0.727725 2.417000 78 57 65
0.172249 0.726808 2.400000 79 53 60
0.171101 0.726136 2.384000 80 55 59
0.169881 0.725101 2.367000 81 57 59
0.167584 0.719386 2.335000 82 58 64
0.165359 0.713868 2.304000 72 60 69
0.164283 0.713227 2.289000 62 60 65
0.164283 0.717234 2.289000 69 56 61
0.163206 0.716515 2.274000 77 60 61
0.163206 0.720495 2.274000 78 63 62
0.161053 0.714918 2.244000 79 62 58
0.161053 0.718846 2.244000 83 63 54
0.160048 0.718265 2.230000 87 62 66
0.158972 0.717311 2.215000 84 62 79
0.156962 0.712072 2.187000 81 58 77
0.156962 0.715900 2.187000 81 56 76
0.156029 0.715450 2.174000 81 57 68
0.155024 0.714624 2.160000 80 60 59
0.153086 0.709425 2.133000 80 57 67
0.151220 0.704466 2.107000 79 58 75
0.150359 0.704121 2.095000 78 60 73
0.149426 0.703397 2.082000 79 65 71
0.148493 0.702626 2.069000 80 66 68
0.148493 0.706248 2.069000 81 68 65
0.147632 0.705753 2.057000 83 64 64
0.147632 0.709354 2.057000 81 65 63
0.146771 0.708795 2.045000 79 64 62
0.145909 0.708195 2.033000 79 61 62
0.145048 0.707552 2.021000 79 62 58
0.144187 0.706868 2.009000 78 64 55
0.142536 0.702252 1.986000 78 63 62
0.140957 0.697910 1.964000 79 64 69
0.140096 0.697063 1.952000 80 62 79
0.140096 0.700480 1.952000 79 62 89
0.139307 0.699931 1.941000 79 61 82
0.138589 0.699705 1.931000 82 63 75
0.137799 0.699080 1.920000 85 65 77
0.137010 0.698416 1.909000 82 67 79
0.136292 0.698082 1.899000 79 62 70
0.135503 0.697343 1.888000 79 58 61
0.134785 0.696937 1.878000 79 57 72
0.134067 0.696496 1.868000 78 60 84
0.133350 0.696020 1.858000 78 60 79
0.132632 0.695509 1.848000 78 58 74
0.131196 0.691182 1.828000 79 58 82
0.131196 0.694381 1.828000 79 59 90
0.129833 0.690331 1.809000 79 61 82
0.129187 0.690047 1.800000 79 62 74
0.129187 0.693198 1.800000 79 62 78
0.128469 0.692480 1.790000 78 58 82
0.256809 0.782656 3.493000 83 65 63
0.254236 0.780867 3.458000 80 59 62
0.251662 0.778955 3.423000 78 56 60
0.246810 0.769812 3.357000 79 63 58
0.244384 0.768064 3.324000 80 68 55
0.242105 0.766665 3.293000 76 65 52
0.242105 0.772429 3.293000 71 67 56
0.239825 0.770868 3.262000 74 66 60
0.237546 0.769198 3.231000 77 63 64
0.237546 0.774854 3.231000 78 60 68
0.235341 0.773263 3.201000 80 58 65
0.231076 0.764753 3.143000 82 59 62
0.226959 0.756531 3.087000 85 59 59
0.222989 0.748607 3.033000 84 58 56
0.221004 0.747204 3.006000 83 59 62
0.221004 0.752467 3.006000 83 58 68
0.219093 0.751175 2.980000 83 57 66
0.217255 0.750046 2.955000 77 61 65
0.217255 0.755218 2.955000 72 69 63
0.215416 0.753958 2.930000 74 64 61
0.213578 0.752610 2.905000 77 65 55
0.211814 0.751436 2.881000 79 62 49
0.210049 0.750177 2.857000 81 62 58
0.208358 0.749099 2.834000 79 53 68
0.206594 0.747674 2.810000 77 50 65
0.206594 0.752593 2.810000 80 59 63
0.204976 0.751581 2.788000 83 65 63
0.203286 0.750221 2.765000 78 60 63
0.200124 0.743318 2.722000 74 58 71
0.198580 0.742312 2.701000 77 59 79
0.197036 0.741232 2.680000 81 59 73
0.195492 0.740078 2.659000 80 56 68
0.195492 0.744733 2.659000 79 55 72
0.194022 0.743751 2.639000 79 59 76
0.192551 0.742699 2.619000 79 63 74
0.188214 0.730449 2.560000 77 62 72
0.188214 0.734930 2.560000 76 63 72
0.185493 0.728725 2.523000 78 63 73
0.184170 0.727911 2.505000 80 63 71
0.182847 0.727034 2.487000 79 59 70
0.181523 0.726094 2.469000 78 58 67
0.180200 0.725091 2.451000 78 57 65
0.178950 0.724322 2.434000 78 58 68
0.178950 0.728583 2.434000 77 58 72
0.177700 0.727725 2.417000 77 60 69
0.176450 0.726808 2.400000 77 57 67
0.175274 0.726136 2.384000 77 56 76
0.174024 0.725101 2.367000 78 56 85
0.170569 0.714764 2.320000 80 59 78
0.169392 0.713868 2.304000 75 59 71
0.168290 0.713227 2.289000 70 58 67
0.168290 0.717234 2.289000 75 59 63
0.167187 0.716515 2.274000 79 60 63
0.167187 0.720495 2.274000 79 62 63
0.166084 0.719697 2.259000 78 62 65
0.164981 0.718846 2.244000 79 62 68
0.163952 0.718265 2.230000 80 62 75
0.162849 0.717311 2.215000 80 61 83
0.160790 0.712072 2.187000 81 60 82
0.160790 0.715900 2.187000 81 56 81
0.159835 0.715450 2.174000 81 53 79
0.157850 0.710323 2.147000 82 55 77
0.156820 0.709425 2.133000 83 54 76
0.154909 0.704466 2.107000 76 55 76
0.154026 0.704121 2.095000 69 56 77
0.153071 0.703397 2.082000 73 61 78
0.152115 0.702626 2.069000 78 65 72
0.152115 0.706248 2.069000 79 62 67
0.151233 0.705753 2.057000 81 58 63
0.151233 0.709354 2.057000 80 63 60
0.149468 0.704636 2.033000 79 67 62
0.148586 0.704014 2.021000 80 62 64
0.148586 0.707552 2.021000 81 62 63
0.147704 0.706868 2.009000 79 62 63
0.146895 0.706495 1.998000 78 63 64
0.144395 0.697910 1.964000 78 64 65
0.144395 0.701349 1.964000 78 64 74
0.143513 0.700480 1.952000 78 61 84
0.142704 0.699931 1.941000 78 58 80
0.141969 0.699705 1.931000 80 63 77
0.141160 0.699080 1.920000 83 68 79
0.141160 0.702441 1.920000 80 66 82
0.140352 0.701758 1.909000 77 63 81
0.139616 0.701406 1.899000 77 58 81
0.138072 0.696937 1.878000 77 56 79
0.137337 0.696496 1.868000 78 59 78
0.136602 0.696020 1.858000 78 62 71
0.135132 0.691745 1.838000 78 59 64
0.134396 0.691182 1.828000 78 54 73
0.134396 0.694381 1.828000 78 58 82
0.132999 0.690331 1.809000 79 60 76
0.132338 0.690047 1.800000 78 62 71
0.131603 0.689347 1.790000 78 65 76
0.130941 0.688999 1.781000 76 60 81
0.262923 0.782656 3.493000 84 61 71
0.260289 0.780867 3.458000 81 59 74
0.257654 0.778955 3.423000 79 59 68
0.252686 0.769812 3.357000 79 63 63
0.250202 0.768064 3.324000 79 64 60
0.250202 0.773882 3.324000 72 65 57
0.247869 0.772429 3.293000 65 66 59
0.245536 0.770868 3.262000 71 69 61
0.245536 0.776578 3.262000 77 63 68
0.243202 0.774854 3.231000 79 59 75
0.240944 0.773263 3.201000 82 59 70
0.236578 0.764753 3.143000 85 60 65
0.232363 0.756531 3.087000 89 60 62
0.230256 0.755024 3.059000 86 60 59
0.226266 0.747204 3.006000 84 58 69
0.226266 0.752467 3.006000 82 58 79
0.226266 0.757729 3.006000 81 56 75
0.224309 0.756391 2.980000 74 56 72
0.222427 0.755218 2.955000 67 61 68
0.220545 0.753958 2.930000 71 65 65
0.218664 0.752610 2.905000 76 62 60
0.216857 0.751436 2.881000 78 62 55
0.215051 0.750177 2.857000 80 57 63
0.213319 0.749099 2.834000 78 47 72
0.213319 0.754060 2.834000 77 51 72
0.211513 0.752593 2.810000 78 59 73
0.211513 0.757512 2.810000 79 60 67
0.208126 0.750221 2.765000 78 61 62
0.206470 0.749053 2.743000 77 58 67
0.203308 0.742312 2.701000 78 58 73
0.201728 0.741232 2.680000 79 56 72
0.200147 0.740078 2.659000 79 54 71
0.200147 0.744733 2.659000 80 54 76
0.198641 0.743751 2.639000 80 58 82
0.197136 0.742699 2.619000 80 59 78
0.194200 0.736156 2.580000 79 59 74
0.192695 0.734930 2.560000 78 61 71
0.189910 0.728725 2.523000 79 62 69
0.188555 0.727911 2.505000 81 61 69
0.187200 0.727034 2.487000 79 57 70
0.184490 0.720800 2.451000 78 55 67
0.184490 0.725091 2.451000 78 53 63
0.183211 0.724322 2.434000 78 58 64
0.183211 0.728583 2.434000 77 60 65
0.183211 0.732843 2.434000 77 59 65
0.181931 0.731956 2.417000 75 59 66
0.180652 0.731009 2.400000 74 57 73
0.179447 0.730309 2.384000 76 53 81
0.174630 0.714764 2.320000 79 57 72
0.173426 0.713868 2.304000 79 62 63
0.172296 0.713227 2.289000 79 61 64
0.171167 0.712534 2.274000 80 63 65
0.171167 0.716515 2.274000 82 61 65
0.170038 0.715743 2.259000 80 63 65
0.168909 0.714918 2.244000 78 63 65
0.167855 0.714362 2.230000 75 63 65
0.167855 0.718265 2.230000 73 63 69
0.166726 0.717311 2.215000 77 63 74
0.164619 0.712072 2.187000 81 59 75
0.164619 0.715900 2.187000 81 55 77
0.163640 0.715450 2.174000 82 55 77
0.161608 0.710323 2.147000 84 54 78
0.160554 0.709425 2.133000 87 54 79
0.158597 0.704466 2.107000 73 55 80
0.157694 0.704121 2.095000 60 55 79
0.156715 0.703397 2.082000 68 59 78
0.155737 0.702626 2.069000 77 60 75
0.155737 0.706248 2.069000 78 60 71
0.153930 0.701636 2.045000 79 61 67
0.153930 0.705215 2.045000 79 65 63
0.153027 0.704636 2.033000 80 65 64
0.152124 0.704014 2.021000 81 61 65
0.152124 0.707552 2.021000 83 59 67
0.150392 0.702997 1.998000 81 61 70
0.149489 0.702252 1.986000 79 63 66
0.148661 0.701819 1.975000 78 65 63
0.147833 0.701349 1.964000 77 65 71
0.146930 0.700480 1.952000 77 63 80
0.146102 0.699931 1.941000 78 62 78
0.145349 0.699705 1.931000 79 63 77
0.144521 0.699080 1.920000 81 66 81
0.143693 0.698416 1.909000 78 67 85
0.142941 0.698082 1.899000 75 64 87
0.142113 0.697343 1.888000 75 58 89
0.141360 0.696937 1.878000 76 57 85
0.140607 0.696496 1.868000 77 58 81
0.139854 0.696020 1.858000 79 61 76
0.139102 0.695509 1.848000 78 62 72
0.138349 0.694963 1.838000 78 59 77
0.137596 0.694381 1.828000 78 59 82
0.136166 0.690331 1.809000 79 61 75
0.135489 0.690047 1.800000 78 64 69
0.134736 0.689347 1.790000 78 64 76
0.134059 0.688999 1.781000 74 60 83
0.269038 0.782656 3.493000 87 59 80
0.266342 0.780867 3.458000 84 60 86
0.263646 0.778955 3.423000 81 60 77
0.258563 0.769812 3.357000 81 61 68
0.256021 0.768064 3.324000 81 62 65
0.253633 0.766665 3.293000 80 63 62
0.253633 0.772429 3.293000 79 64 62
0.251246 0.770868 3.262000 79 64 62
0.251246 0.776578 3.262000 79 64 72
0.248858 0.774854 3.231000 80 60 83
0.246547 0.773263 3.201000 81 59 75
0.244314 0.771810 3.172000 83 61 68
0.239924 0.763393 3.115000 84 62 65
0.235610 0.755024 3.059000 83 59 62
0.231528 0.747204 3.006000 82 58 76
0.231528 0.752467 3.006000 83 55 91
0.231528 0.757729 3.006000 85 53 85
0.229526 0.756391 2.980000 80 53 79
0.227600 0.755218 2.955000 75 56 74
0.225674 0.753958 2.930000 76 59 69
0.223749 0.752610 2.905000 77 58 65
0.221900 0.751436 2.881000 80 59 61
0.220052 0.750177 2.857000 82 60 68
0.218280 0.749099 2.834000 80 52 76
0.216432 0.747674 2.810000 78 50 80
0.216432 0.752593 2.810000 78 56 84
0.214737 0.751581 2.788000 77 58 72
0.212966 0.750221 2.765000 76 59 61
0.209654 0.743318 2.722000 74 55 64
0.208036 0.742312 2.701000 77 55 67
0.206419 0.741232 2.680000 80 56 70
0.204801 0.740078 2.659000 82 53 74
0.204801 0.744733 2.659000 85 51 81
0.203261 0.743751 2.639000 83 55 89
0.201721 0.742699 2.619000 81 59 82
0.198717 0.736156 2.580000 79 60 76
0.198717 0.740672 2.580000 78 63 70
0.195790 0.734212 2.542000 78 63 65
0.192940 0.727911 2.505000 79 63 68
0.190167 0.721772 2.469000 76 59 71
0.188781 0.720800 2.451000 74 54 66
0.187472 0.720061 2.434000 77 57 62
0.187472 0.724322 2.434000 79 64 60
0.187472 0.728583 2.434000 80 61 59
0.186162 0.727725 2.417000 81 59 62
0.186162 0.731956 2.417000 78 59 65
0.184853 0.731009 2.400000 76 62 71
0.182311 0.725101 2.367000 77 57 77
0.178691 0.714764 2.320000 78 54 66
0.177459 0.713868 2.304000 78 59 56
0.176303 0.713227 2.289000 78 64 62
0.175148 0.712534 2.274000 79 60 68
0.173993 0.711788 2.259000 80 59 67
0.173993 0.715743 2.259000 79 61 67
0.172837 0.714918 2.244000 78 65 64
0.171759 0.714362 2.230000 76 65 62
0.171759 0.718265 2.230000 74 67 63
0.170604 0.717311 2.215000 77 63 65
0.168447 0.712072 2.187000 80 60 69
0.168447 0.715900 2.187000 80 58 73
0.167446 0.715450 2.174000 80 59 76
0.165366 0.710323 2.147000 81 56 79
0.164288 0.709425 2.133000 83 53 81
0.163287 0.708813 2.120000 75 53 84
0.161361 0.704121 2.095000 68 51 81
0.160360 0.703397 2.082000 73 56 79
0.159359 0.702626 2.069000 77 58 77
0.159359 0.706248 2.069000 78 59 76
0.158434 0.705753 2.057000 78 61 71
0.157510 0.705215 2.045000 77 65 66
0.156586 0.704636 2.033000 77 67 66
0.155661 0.704014 2.021000 78 61 66
0.154737 0.703351 2.009000 80 54 71
0.153890 0.702997 1.998000 79 61 77
0.152966 0.702252 1.986000 78 66 69
0.152118 0.701819 1.975000 76 66 62
0.151271 0.701349 1.964000 75 69 69
0.150347 0.700480 1.952000 76 65 76
0.149500 0.699931 1.941000 77 64 77
0.148729 0.699705 1.931000 78 64 78
0.147882 0.699080 1.920000 79 67 83
0.147035 0.698416 1.909000 78 65 89
0.146265 0.698082 1.899000 77 68 93
0.145418 0.697343 1.888000 76 60 98
0.144647 0.696937 1.878000 76 56 91
0.143877 0.696496 1.868000 77 59 85
0.143107 0.696020 1.858000 78 63 82
0.142337 0.695509 1.848000 78 62 80
0.142337 0.698744 1.848000 78 63 81
0.140796 0.694381 1.828000 80 63 82
0.137869 0.683080 1.790000 81 64 74
0.137176 0.682763 1.781000 79 64 67
0.137176 0.685881 1.781000 78 67 76
0.136483 0.685517 1.772000 75 63 86
0.275152 0.782656 3.493000 91 61 71
0.272395 0.780867 3.458000 87 63 72
0.269638 0.778955 3.423000 84 61 71
0.264439 0.769812 3.357000 83 62 69
0.264439 0.775689 3.357000 83 62 71
0.261840 0.773882 3.324000 88 62 73
0.259398 0.772429 3.293000 93 62 67
0.256956 0.770868 3.262000 87 60 62
0.256956 0.776578 3.262000 81 61 68
0.254514 0.774854 3.231000 81 58 75
0.252151 0.773263 3.201000 81 61 69
0.247582 0.764753 3.143000 80 64 64
0.245376 0.763393 3.115000 80 62 63
0.243171 0.761935 3.087000 80 59 61
0.238917 0.753916 3.033000 81 57 70
0.236790 0.752467 3.006000 85 54 79
0.236790 0.757729 3.006000 89 55 71
0.234742 0.756391 2.980000 86 50 64
0.234742 0.761608 2.980000 83 56 62
0.230803 0.753958 2.930000 81 59 61
0.228834 0.752610 2.905000 79 59 60
0.226944 0.751436 2.881000 82 59 59
0.225053 0.750177 2.857000 85 57 66
0.223241 0.749099 2.834000 82 54 73
0.221351 0.747674 2.810000 80 55 74
0.221351 0.752593 2.810000 78 57 76
0.219618 0.751581 2.788000 76 59 61
0.217806 0.750221 2.765000 74 62 46
0.216073 0.749053 2.743000 72 58 57
0.212765 0.742312 2.701000 76 52 68
0.211110 0.741232 2.680000 81 53 68
0.209456 0.740078 2.659000 85 51 68
0.209456 0.744733 2.659000 90 52 70
0.207881 0.743751 2.639000 86 52 71
0.206305 0.742699 2.619000 82 58 70
0.203233 0.736156 2.580000 80 60 69
0.201658 0.734930 2.560000 78 63 68
0.200240 0.734212 2.542000 77 65 67
0.197325 0.727911 2.505000 77 64 74
0.194489 0.721772 2.469000 74 64 82
0.193071 0.720800 2.451000 71 60 65
0.191732 0.720061 2.434000 76 58 48
0.191732 0.724322 2.434000 81 61 53
0.190393 0.723494 2.417000 83 64 59
0.190393 0.727725 2.417000 85 60 64
0.189054 0.726808 2.400000 81 59 70
0.189054 0.731009 2.400000 78 62 74
0.186455 0.725101 2.367000 78 62 78
0.182752 0.714764 2.320000 78 58 75
0.181492 0.713868 2.304000 78 59 72
0.180310 0.713227 2.289000 78 60 72
0.179129 0.712534 2.274000 78 55 72
0.177947 0.711788 2.259000 78 58 69
0.176766 0.710990 2.244000 78 60 66
0.176766 0.714918 2.244000 78 64 60
0.175663 0.714362 2.230000 77 68 55
0.174481 0.713434 2.215000 76 65 56
0.174481 0.717311 2.215000 77 64 57
0.173378 0.716630 2.201000 79 62 58
0.172275 0.715900 2.187000 79 61 59
0.171251 0.715450 2.174000 79 60 67
0.169125 0.710323 2.147000 79 59 75
0.168022 0.709425 2.133000 79 58 81
0.166998 0.708813 2.120000 78 56 87
0.165028 0.704121 2.095000 77 54 84
0.164004 0.703397 2.082000 77 56 80
0.162980 0.702626 2.069000 78 58 77
0.162980 0.706248 2.069000 78 59 74
0.162035 0.705753 2.057000 78 62 72
0.162035 0.709354 2.057000 76 67 71
0.161090 0.708795 2.045000 74 66 72
0.160144 0.708195 2.033000 75 63 74
0.159199 0.707552 2.021000 77 61 82
0.157387 0.702997 1.998000 77 65 91
0.156442 0.702252 1.986000 77 66 67
0.155576 0.701819 1.975000 75 67 44
0.154709 0.701349 1.964000 73 68 57
0.153764 0.700480 1.952000 75 67 69
0.152897 0.699931 1.941000 77 64 73
0.152110 0.699705 1.931000 77 63 77
0.151243 0.699080 1.920000 78 64 81
0.150377 0.698416 1.909000 79 61 86
0.149589 0.698082 1.899000 80 61 78
0.148722 0.697343 1.888000 78 60 70
0.147935 0.696937 1.878000 76 57 75
0.147147 0.696496 1.868000 77 59 81
0.146359 0.696020 1.858000 78 62 80
0.145572 0.695509 1.848000 78 62 80
0.145572 0.698744 1.848000 79 63 78
0.144784 0.698180 1.838000 81 68 77
0.141003 0.683080 1.790000 84 65 67
0.141003 0.686214 1.790000 81 63 58
0.140294 0.685881 1.781000 78 65 70
0.140294 0.688999 1.781000 77 62 82
0.281267 0.782656 3.493000 87 67 63
0.281267 0.788770 3.493000 85 64 59
0.275630 0.778955 3.423000 83 60 65
0.272973 0.777380 3.390000 83 63 71
0.270316 0.775689 3.357000 82 65 77
0.267658 0.773882 3.324000 85 64 84
0.265162 0.772429 3.293000 88 63 73
0.262666 0.770868 3.262000 84 62 62
0.262666 0.776578 3.262000 80 64 64
0.260170 0.774854 3.231000 80 63 67
0.257754 0.773263 3.201000 80 66 64
0.253084 0.764753 3.143000 77 64 61
0.250829 0.763393 3.115000 75 64 61
0.248575 0.761935 3.087000 77 60 61
0.244226 0.753916 3.033000 79 59 64
0.242052 0.752467 3.006000 82 60 67
0.242052 0.757729 3.006000 85 63 58
0.239959 0.756391 2.980000 84 57 49
0.239959 0.761608 2.980000 82 59 51
0.235932 0.753958 2.930000 79 61 54
0.233919 0.752610 2.905000 76 63 56
0.231987 0.751436 2.881000 79 59 58
0.230054 0.750177 2.857000 81 58 64
0.228202 0.749099 2.834000 80 58 71
0.226270 0.747674 2.810000 78 62 69
0.226270 0.752593 2.810000 78 60 68
0.224498 0.751581 2.788000 77 60 49
0.222646 0.750221 2.765000 76 62 31
0.219184 0.743318 2.722000 74 63 50
0.215802 0.736540 2.680000 77 56 69
0.214111 0.735424 2.659000 80 53 66
0.214111 0.740078 2.659000 82 53 63
0.212500 0.739131 2.639000 85 54 58
0.212500 0.743751 2.639000 81 57 54
0.210890 0.742699 2.619000 77 61 58
0.207749 0.736156 2.580000 77 63 62
0.206139 0.734930 2.560000 77 65 66
0.204690 0.734212 2.542000 77 64 70
0.203160 0.733141 2.523000 77 64 81
0.200261 0.727034 2.487000 76 63 93
0.198811 0.726094 2.469000 74 64 63
0.197362 0.725091 2.451000 76 59 34
0.195993 0.724322 2.434000 78 59 46
0.195993 0.728583 2.434000 79 60 59
0.194624 0.727725 2.417000 81 59 67
0.194624 0.731956 2.417000 79 61 76
0.193255 0.731009 2.400000 77 67 77
0.190598 0.725101 2.367000 77 63 79
0.186813 0.714764 2.320000 77 59 83
0.185525 0.713868 2.304000 76 61 88
0.184317 0.713227 2.289000 75 64 82
0.183109 0.712534 2.274000 76 59 76
0.181901 0.711788 2.259000 77 59 70
0.181901 0.715743 2.259000 79 61 65
0.180694 0.714918 2.244000 81 63 57
0.179566 0.714362 2.230000 79 64 49
0.178358 0.713434 2.215000 77 64 49
0.177231 0.712777 2.201000 78 64 50
0.176104 0.712072 2.187000 80 63 47
0.175057 0.711645 2.174000 79 61 45
0.173930 0.710843 2.160000 79 61 58
0.171756 0.705691 2.133000 78 64 71
0.170709 0.705102 2.120000 78 66 81
0.170709 0.708813 2.120000 78 60 91
0.168696 0.704121 2.095000 79 55 86
0.167649 0.703397 2.082000 80 57 82
0.166602 0.702626 2.069000 82 60 77
0.166602 0.706248 2.069000 78 61 73
0.165636 0.705753 2.057000 75 62 74
0.164670 0.705215 2.045000 75 66 76
0.163703 0.704636 2.033000 75 69 79
0.163703 0.708195 2.033000 74 64 83
0.162737 0.707552 2.021000 73 63 94
0.160885 0.702997 1.998000 74 66 105
0.159919 0.702252 1.986000 75 68 66
0.159033 0.701819 1.975000 74 66 27
0.158147 0.701349 1.964000 74 69 45
0.157181 0.700480 1.952000 75 65 63
0.156295 0.699931 1.941000 76 62 70
0.155490 0.699705 1.931000 75 65 77
0.154604 0.699080 1.920000 73 67 80
0.153718 0.698416 1.909000 78 60 83
0.152913 0.698082 1.899000 83 56 63
0.152027 0.697343 1.888000 77 57 43
0.151222 0.696937 1.878000 70 55 60
0.150417 0.696496 1.868000 76 61 77
0.149612 0.696020 1.858000 82 67 78
0.148807 0.695509 1.848000 78 61 80
0.148807 0.698744 1.848000 75 59 76
0.148001 0.698180 1.838000 78 64 72
0.144941 0.686896 1.800000 81 67 60
0.144136 0.686214 1.790000 77 66 49
0.143411 0.685881 1.781000 73 70 64
0.142687 0.685517 1.772000 75 63 79
0.290261 0.790498 3.528000 84 66 62
0.287381 0.788770 3.493000 83 67 59
0.281622 0.778955 3.423000 83 64 63
0.278907 0.777380 3.390000 82 65 67
0.276192 0.775689 3.357000 82 65 71
0.273477 0.773882 3.324000 83 67 75
0.270927 0.772429 3.293000 84 65 69
0.268376 0.770868 3.262000 81 64 64
0.265826 0.769198 3.231000 79 63 63
0.263357 0.767659 3.201000 79 66 61
0.263357 0.773263 3.201000 79 64 55
0.258586 0.764753 3.143000 75 64 50
0.256282 0.763393 3.115000 71 62 55
0.256282 0.768846 3.115000 74 61 61
0.251675 0.760379 3.059000 78 62 65
0.249535 0.759225 3.033000 80 65 69
0.247314 0.757729 3.006000 82 61 62
0.245175 0.756391 2.980000 82 58 55
0.243118 0.755218 2.955000 82 59 56
0.239004 0.747525 2.905000 78 64 57
0.237030 0.746392 2.881000 74 62 53
0.235055 0.745176 2.857000 76 59 48
0.235055 0.750177 2.857000 78 58 61
0.233163 0.749099 2.834000 77 58 75
0.231189 0.747674 2.810000 77 60 76
0.231189 0.752593 2.810000 78 61 77
0.229378 0.751581 2.788000 79 61 62
0.225676 0.744251 2.743000 78 65 46
0.222221 0.737584 2.701000 77 62 63
0.220493 0.736540 2.680000 78 56 80
0.218765 0.735424 2.659000 79 54 73
0.218765 0.740078 2.659000 80 56 66
0.217120 0.739131 2.639000 81 57 63
0.217120 0.743751 2.639000 76 62 60
0.215474 0.742699 2.619000 72 64 61
0.212266 0.736156 2.580000 74 68 62
0.210620 0.734930 2.560000 77 66 62
0.207576 0.728725 2.523000 77 64 63
0.206095 0.727911 2.505000 78 62 73
0.204614 0.727034 2.487000 78 62 82
0.203133 0.726094 2.469000 78 61 67
0.201652 0.725091 2.451000 77 58 52
0.200254 0.724322 2.434000 76 59 60
0.200254 0.728583 2.434000 76 59 67
0.198855 0.727725 2.417000 77 58 70
0.198855 0.731956 2.417000 77 59 73
0.197456 0.731009 2.400000 77 64 72
0.194741 0.725101 2.367000 77 67 70
0.190875 0.714764 2.320000 77 64 70
0.189558 0.713868 2.304000 74 64 69
0.188324 0.713227 2.289000 72 61 73
0.188324 0.717234 2.289000 74 60 77
0.187090 0.716515 2.274000 77 60 73
0.185856 0.715743 2.259000 81 63 69
0.184622 0.714918 2.244000 85 63 64
0.183470 0.714362 2.230000 81 64 60
0.182236 0.713434 2.215000 78 64 57
0.181084 0.712777 2.201000 79 67 54
0.179932 0.712072 2.187000 81 64 54
0.178863 0.711645 2.174000 80 62 53
0.177711 0.710843 2.160000 79 64 62
0.175489 0.705691 2.133000 78 71 72
0.174420 0.705102 2.120000 78 67 79
0.173350 0.704466 2.107000 79 63 86
0.172363 0.704121 2.095000 81 59 79
0.171293 0.703397 2.082000 83 60 73
0.170224 0.702626 2.069000 86 61 67
0.170224 0.706248 2.069000 79 64 61
0.169237 0.705753 2.057000 72 64 74
0.168249 0.705215 2.045000 74 68 88
0.167262 0.704636 2.033000 76 65 84
0.166275 0.704014 2.021000 72 62 80
0.164382 0.699500 1.998000 69 63 86
0.163395 0.698775 1.986000 71 68 93
0.163395 0.702252 1.986000 73 65 71
0.161585 0.697910 1.964000 74 60 50
0.160598 0.697063 1.952000 76 64 58
0.159693 0.696533 1.941000 76 65 66
0.158870 0.696325 1.931000 76 66 71
0.157965 0.695719 1.920000 72 70 76
0.157060 0.695075 1.909000 69 65 81
0.156237 0.694758 1.899000 78 58 86
0.155332 0.694038 1.888000 87 58 73
0.154510 0.693650 1.878000 76 58 60
0.153687 0.693226 1.868000 65 61 70
0.152864 0.692768 1.858000 75 66 80
0.152864 0.696020 1.858000 86 63 79
0.152041 0.695509 1.848000 79 59 78
0.151219 0.694963 1.838000 72 60 76
0.150396 0.694381 1.828000 75 64 75
0.148092 0.686896 1.800000 78 65 69
0.147270 0.686214 1.790000 73 65 63
0.146529 0.685881 1.781000 69 65 71
0.145789 0.685517 1.772000 73 62 79
0.305847 0.796478 3.640000 79 62 58
0.305847 0.802850 3.640000 78 62 60
0.299546 0.792548 3.565000 80 64 63
0.299546 0.798788 3.565000 82 65 61
