ply
format ascii 1.0
element vertex 1217
property float x
property float y
property float z
property uchar red
property uchar green
property uchar blue
end_header
-0.744164 0.649164 1.809000 97 79 101
-0.740461 0.649086 1.800000 89 83 95
-0.736348 0.648613 1.790000 98 86 90
-0.732646 0.648469 1.781000 108 85 95
-0.732646 0.651587 1.781000 106 83 99
-0.728943 0.651396 1.772000 104 82 102
-0.725241 0.651174 1.763000 107 82 106
-0.725241 0.654260 1.763000 111 82 105
-0.719482 0.652126 1.749000 109 83 104
-0.714134 0.650318 1.736000 107 85 104
-0.710843 0.650346 1.728000 109 88 105
-0.707141 0.649968 1.719000 112 84 106
-0.703850 0.649938 1.711000 115 82 106
-0.700148 0.649499 1.702000 119 85 103
-0.696857 0.649411 1.694000 116 89 100
-0.693566 0.649296 1.686000 113 86 98
-0.689863 0.648765 1.677000 112 83 97
-0.689863 0.651701 1.677000 111 85 103
-0.686572 0.651513 1.669000 109 90 110
-1.080979 0.669838 2.639000 97 70 81
-1.072787 0.669346 2.619000 99 72 82
-1.072787 0.673930 2.619000 98 67 83
-1.072787 0.678515 2.619000 98 67 86
-1.072787 0.683100 2.619000 101 64 89
-1.064595 0.682433 2.599000 105 64 88
-1.056812 0.681960 2.580000 98 67 87
-1.041247 0.676365 2.542000 90 69 84
-1.033464 0.675726 2.523000 93 69 81
-1.033464 0.680143 2.523000 96 70 76
-1.018718 0.674792 2.487000 99 68 72
-1.011345 0.674230 2.469000 101 68 75
-0.997008 0.668933 2.434000 99 68 78
-0.976527 0.659364 2.384000 97 64 81
-0.976527 0.663538 2.384000 96 65 84
-0.963010 0.658468 2.351000 95 67 87
-0.963010 0.662584 2.351000 96 70 90
-0.956456 0.662162 2.335000 97 74 89
-0.956456 0.666249 2.335000 94 74 88
-0.950312 0.666030 2.320000 92 74 87
-0.943758 0.665470 2.304000 96 73 87
-0.943758 0.669503 2.304000 100 69 88
-0.931469 0.664767 2.274000 99 72 90
-0.925325 0.664336 2.259000 99 74 99
-0.907302 0.655274 2.215000 100 73 108
-0.907302 0.659151 2.215000 101 72 103
-0.901567 0.658838 2.201000 102 72 98
-0.901567 0.662690 2.201000 103 76 96
-0.890507 0.658367 2.174000 104 77 94
-0.884773 0.657908 2.160000 105 79 91
-0.884773 0.661689 2.160000 100 77 89
-0.879448 0.661465 2.147000 96 78 81
-0.879448 0.665223 2.147000 100 78 73
-0.879448 0.668982 2.147000 103 77 82
-0.868388 0.664280 2.120000 107 75 92
-0.858148 0.660114 2.095000 111 73 94
-0.852823 0.659662 2.082000 106 76 97
-0.847498 0.659165 2.069000 102 79 102
-0.842582 0.658943 2.057000 100 79 108
-0.837667 0.658678 2.045000 98 80 101
-0.822921 0.650600 2.009000 101 78 95
-0.822921 0.654116 2.009000 105 78 95
-0.813499 0.650104 1.986000 105 77 95
-0.813499 0.653581 1.986000 105 78 95
-0.813499 0.657057 1.986000 105 79 96
-0.813499 0.660534 1.986000 105 80 97
-0.804488 0.656655 1.964000 109 80 99
-0.795067 0.652362 1.941000 113 79 100
-0.790971 0.652382 1.931000 111 79 102
-0.786465 0.652026 1.920000 108 80 109
-0.786465 0.655387 1.920000 110 77 117
-0.781959 0.654974 1.909000 112 76 111
-0.781959 0.658316 1.909000 110 79 105
-0.777863 0.658192 1.899000 109 81 103
-0.769261 0.654201 1.878000 104 82 101
-0.756972 0.646985 1.848000 100 84 95
-0.752876 0.646701 1.838000 107 85 89
-0.752876 0.649919 1.838000 115 85 94
-0.748780 0.649583 1.828000 112 83 99
-0.745093 0.649569 1.819000 109 81 98
-0.740997 0.649164 1.809000 107 80 98
-0.737311 0.649086 1.800000 105 82 96
-0.733215 0.648613 1.790000 108 85 94
-0.729528 0.648469 1.781000 112 87 96
-0.725841 0.648294 1.772000 114 84 98
-0.725841 0.651396 1.772000 116 83 100
-0.722155 0.651174 1.763000 114 82 102
-0.722155 0.654260 1.763000 112 84 102
-0.718468 0.653990 1.754000 110 84 102
-0.711095 0.650318 1.736000 108 87 104
-0.707818 0.650346 1.728000 110 86 106
-0.700855 0.646943 1.711000 112 85 104
-0.697168 0.646519 1.702000 114 84 102
-0.697168 0.649499 1.702000 116 87 101
-0.693891 0.649411 1.694000 113 88 100
-0.690614 0.649296 1.686000 110 87 96
-0.686928 0.648765 1.677000 109 86 93
-0.683651 0.648592 1.669000 109 87 104
-0.680374 0.648391 1.661000 110 88 115
-1.076360 0.669838 2.639000 100 71 76
-1.068202 0.669346 2.619000 105 70 75
-1.068202 0.673930 2.619000 102 67 74
-1.068202 0.678515 2.619000 100 65 81
-1.060045 0.677883 2.599000 101 64 88
-1.052296 0.677444 2.580000 103 66 87
-1.044138 0.676673 2.560000 99 72 86
-1.036797 0.676365 2.542000 95 72 84
-1.029047 0.675726 2.523000 96 71 82
-1.021706 0.675291 2.505000 97 69 79
-1.021706 0.679676 2.505000 98 68 75
-1.007023 0.674230 2.469000 100 66 77
-0.999681 0.673605 2.451000 99 70 78
-0.972354 0.659364 2.384000 98 67 82
-0.972354 0.663538 2.384000 98 65 85
-0.972354 0.667711 2.384000 99 68 86
-0.958894 0.662584 2.351000 99 68 86
-0.958894 0.666699 2.351000 100 72 86
-0.952368 0.666249 2.335000 99 75 87
-0.946250 0.666030 2.320000 98 75 87
-0.946250 0.670092 2.320000 102 76 88
-0.939725 0.669503 2.304000 106 74 87
-0.927489 0.664767 2.274000 101 74 87
-0.903424 0.651396 2.215000 96 72 90
-0.903424 0.655274 2.215000 95 72 92
-0.903424 0.659151 2.215000 95 72 93
-0.897714 0.658838 2.201000 99 73 95
-0.897714 0.662690 2.201000 103 75 93
-0.892004 0.662304 2.187000 102 79 91
-0.886702 0.662172 2.174000 101 78 91
-0.880992 0.661689 2.160000 101 79 90
-0.875689 0.661465 2.147000 102 77 89
-0.875689 0.665223 2.147000 103 76 87
-0.875689 0.668982 2.147000 104 76 89
-0.869979 0.668353 2.133000 105 76 91
-0.854480 0.660114 2.095000 107 77 92
-0.843876 0.655543 2.069000 105 80 94
-0.838982 0.655342 2.057000 104 79 97
-0.838982 0.658943 2.057000 103 81 100
-0.829193 0.654813 2.033000 102 80 96
-0.819404 0.650600 2.009000 104 77 92
-0.819404 0.654116 2.009000 107 78 95
-0.814917 0.654032 1.998000 106 79 98
-0.810023 0.653581 1.986000 106 79 98
-0.810023 0.657057 1.986000 106 81 99
-0.805536 0.656875 1.975000 106 80 99
-0.796155 0.652643 1.952000 107 80 100
-0.791669 0.652362 1.941000 109 79 101
-0.791669 0.655760 1.941000 109 80 103
-0.778617 0.648291 1.909000 109 79 106
-0.783104 0.655387 1.920000 112 74 110
-0.778617 0.654974 1.909000 115 72 103
-0.778617 0.658316 1.909000 112 77 96
-0.770052 0.654379 1.888000 109 81 97
-0.765973 0.654201 1.878000 102 84 99
-0.753737 0.646985 1.848000 95 85 95
-0.753737 0.650220 1.848000 108 89 92
-0.749659 0.649919 1.838000 121 84 95
-0.745580 0.649583 1.828000 117 82 98
-0.745580 0.652783 1.828000 114 81 95
-0.737831 0.649164 1.809000 117 81 93
-0.734160 0.649086 1.800000 121 82 95
-0.730081 0.648613 1.790000 118 85 97
-0.726410 0.648469 1.781000 116 85 100
-0.722739 0.648294 1.772000 122 86 103
-0.722739 0.651396 1.772000 128 83 100
-0.719069 0.651174 1.763000 120 79 97
-0.719069 0.654260 1.763000 113 82 98
-0.715398 0.653990 1.754000 111 85 100
-0.708056 0.650318 1.736000 109 86 102
-0.704793 0.650346 1.728000 111 86 104
-0.697860 0.646943 1.711000 113 85 105
-0.694189 0.646519 1.702000 113 84 105
-0.694189 0.649499 1.702000 114 86 104
-0.690926 0.649411 1.694000 111 89 103
-0.687663 0.649296 1.686000 108 89 102
-0.683992 0.648765 1.677000 107 89 101
-0.683992 0.651701 1.677000 107 88 104
-0.680729 0.651513 1.669000 111 87 108
-1.071740 0.669838 2.639000 99 69 72
-1.063618 0.669346 2.619000 101 70 68
-1.063618 0.673930 2.619000 99 66 65
-1.063618 0.678515 2.619000 98 63 76
-1.055496 0.677883 2.599000 97 63 87
-1.055496 0.682433 2.599000 97 65 86
-1.047779 0.681960 2.580000 96 71 86
-1.032347 0.676365 2.542000 95 76 85
-1.024631 0.675726 2.523000 96 71 84
-1.017321 0.675291 2.505000 98 69 81
-1.017321 0.679676 2.505000 100 65 79
-1.002701 0.674230 2.469000 102 60 79
-0.995390 0.673605 2.451000 100 66 79
-0.968181 0.659364 2.384000 99 70 83
-0.968181 0.663538 2.384000 99 68 87
-0.968181 0.667711 2.384000 99 72 85
-0.961277 0.667093 2.367000 101 71 83
-0.954779 0.666699 2.351000 103 72 84
-0.948281 0.666249 2.335000 99 74 86
-0.942189 0.666030 2.320000 96 76 87
-0.935691 0.665470 2.304000 96 75 89
-0.929600 0.665145 2.289000 96 77 87
-0.929600 0.669152 2.289000 96 74 85
-0.899547 0.651396 2.215000 97 71 81
-0.899547 0.655274 2.215000 97 73 77
-0.899547 0.659151 2.215000 98 74 84
-0.893861 0.658838 2.201000 100 73 92
-0.893861 0.662690 2.201000 102 72 90
-0.888176 0.662304 2.187000 103 73 89
-0.882896 0.662172 2.174000 103 76 90
-0.877211 0.661689 2.160000 106 77 92
-0.871931 0.661465 2.147000 108 77 97
-0.871931 0.665223 2.147000 103 77 102
-0.866246 0.664620 2.133000 97 77 96
-0.866246 0.668353 2.133000 102 77 90
-0.850813 0.660114 2.095000 106 79 91
-0.840254 0.655543 2.069000 108 79 92
-0.835381 0.655342 2.057000 109 78 92
-0.830507 0.655098 2.045000 107 80 93
-0.820760 0.650948 2.021000 105 82 91
-0.815887 0.650600 2.009000 107 79 90
-0.815887 0.654116 2.009000 110 79 95
-0.811420 0.654032 1.998000 107 78 101
-0.806546 0.653581 1.986000 105 79 101
-0.802079 0.653418 1.975000 105 80 102
-0.797612 0.653217 1.964000 104 81 101
-0.792739 0.652643 1.952000 106 79 101
-0.784210 0.649001 1.931000 107 79 102
-0.784210 0.652382 1.931000 108 80 104
-0.779743 0.652026 1.920000 109 82 103
-0.779743 0.655387 1.920000 110 74 103
-0.775276 0.654974 1.909000 112 62 95
-0.775276 0.658316 1.909000 111 76 87
-0.775276 0.661658 1.909000 110 82 92
-0.762686 0.654201 1.878000 106 84 98
-0.750502 0.646985 1.848000 102 86 96
-0.750502 0.650220 1.848000 109 85 95
-0.746441 0.649919 1.838000 117 82 96
-0.746441 0.653136 1.838000 115 82 97
-0.742380 0.652783 1.828000 113 83 92
-0.738725 0.652753 1.819000 113 82 88
-0.734664 0.652331 1.809000 113 82 94
-0.731009 0.652236 1.800000 112 83 101
-0.726948 0.651746 1.790000 111 84 105
-0.723293 0.651587 1.781000 116 85 109
-0.719638 0.651396 1.772000 120 87 100
-0.719638 0.654498 1.772000 116 84 92
-0.719638 0.657600 1.772000 111 83 95
-0.708672 0.650635 1.745000 110 85 99
-0.701769 0.647321 1.728000 110 88 101
-0.698114 0.646959 1.719000 114 86 103
-0.694865 0.646943 1.711000 118 85 106
-0.691209 0.646519 1.702000 116 83 109
-0.691209 0.649499 1.702000 114 85 107
-0.687961 0.649411 1.694000 109 88 106
-0.684712 0.649296 1.686000 103 91 107
-0.681057 0.648765 1.677000 105 89 109
-0.677808 0.648592 1.669000 108 89 105
-0.677808 0.651513 1.669000 110 89 101
-1.067121 0.669838 2.639000 98 65 77
-1.059034 0.669346 2.619000 98 66 79
-1.059034 0.673930 2.619000 97 64 81
-1.059034 0.678515 2.619000 96 63 85
-1.050946 0.677883 2.599000 93 63 89
-1.050946 0.682433 2.599000 91 68 90
-1.043263 0.681960 2.580000 93 73 92
-1.027897 0.676365 2.542000 96 73 88
-1.027897 0.680815 2.542000 97 71 84
-1.012936 0.675291 2.505000 99 69 83
-0.998379 0.669908 2.469000 102 66 82
-0.998379 0.674230 2.469000 105 65 82
-0.991100 0.673605 2.451000 102 66 82
-0.964007 0.659364 2.384000 100 68 84
-0.964007 0.663538 2.384000 99 67 86
-0.957133 0.662950 2.367000 99 70 85
-0.957133 0.667093 2.367000 103 73 85
-0.957133 0.671236 2.367000 107 72 86
-0.950663 0.670815 2.351000 100 73 87
-0.944194 0.670337 2.335000 94 74 88
-0.938128 0.670092 2.320000 90 73 89
-0.931658 0.669503 2.304000 86 75 89
-0.925593 0.669152 2.289000 92 75 88
-0.895670 0.651396 2.215000 98 73 85
-0.895670 0.655274 2.215000 99 75 82
-0.895670 0.659151 2.215000 101 75 89
-0.895670 0.663028 2.215000 101 76 96
-0.890009 0.662690 2.201000 102 73 94
-0.884347 0.662304 2.187000 104 68 91
-0.873430 0.657908 2.160000 106 73 91
-0.873430 0.661689 2.160000 110 76 90
-0.868173 0.661465 2.147000 115 77 94
-0.862512 0.660886 2.133000 103 79 98
-0.862512 0.664620 2.133000 91 78 94
-0.857255 0.664280 2.120000 98 78 91
-0.847146 0.660114 2.095000 106 79 94
-0.836632 0.655543 2.069000 110 79 98
-0.831780 0.655342 2.057000 115 79 91
-0.826928 0.655098 2.045000 111 82 85
-0.817223 0.650948 2.021000 108 81 89
-0.817223 0.654486 2.021000 110 80 93
-0.812370 0.654116 2.009000 113 78 102
-0.807922 0.654032 1.998000 109 78 112
-0.803070 0.653581 1.986000 105 79 107
-0.798622 0.653418 1.975000 104 82 103
-0.794174 0.653217 1.964000 103 80 101
-0.784874 0.648965 1.941000 104 78 100
-0.780830 0.649001 1.931000 106 78 104
-0.780830 0.652382 1.931000 107 79 108
-0.776382 0.652026 1.920000 109 80 106
-0.776382 0.655387 1.920000 109 81 103
-0.771934 0.654974 1.909000 110 78 101
-0.771934 0.658316 1.909000 110 84 98
-0.771934 0.661658 1.909000 111 83 98
-0.755355 0.650717 1.868000 110 85 98
-0.747268 0.646985 1.848000 109 85 98
-0.747268 0.650220 1.848000 111 85 97
-0.743224 0.649919 1.838000 114 83 98
-0.739180 0.649583 1.828000 113 81 100
-0.739180 0.652783 1.828000 112 83 102
-0.735541 0.652753 1.819000 108 83 104
-0.731497 0.652331 1.809000 105 84 103
-0.727858 0.652236 1.800000 106 83 103
-0.723814 0.651746 1.790000 107 84 104
-0.720175 0.651587 1.781000 110 84 106
-0.720175 0.654705 1.781000 113 85 102
-0.716536 0.654498 1.772000 111 87 99
-0.712897 0.654260 1.763000 110 85 98
-0.705618 0.650635 1.745000 110 85 98
-0.701979 0.650318 1.736000 111 86 101
-0.695104 0.646959 1.719000 117 86 104
-0.691869 0.646943 1.711000 124 84 106
-0.691869 0.649938 1.711000 119 81 108
-0.688230 0.649499 1.702000 115 85 109
-0.684995 0.649411 1.694000 107 90 109
-0.681760 0.649296 1.686000 99 89 113
-0.681760 0.652247 1.686000 104 87 116
-0.674886 0.648592 1.669000 109 88 103
-0.674886 0.651513 1.669000 109 91 90
-1.079008 0.680244 2.680000 94 67 82
-1.062501 0.674457 2.639000 94 67 89
-1.054449 0.673930 2.619000 98 64 97
-1.054449 0.678515 2.619000 102 65 94
-1.046396 0.677883 2.599000 97 66 91
-1.046396 0.682433 2.599000 93 71 94
-1.038747 0.681960 2.580000 95 71 98
-1.023447 0.676365 2.542000 97 73 91
-1.015798 0.675726 2.523000 97 69 85
-0.994057 0.665586 2.469000 97 71 85
-0.994057 0.669908 2.469000 97 68 86
-0.994057 0.674230 2.469000 97 68 86
-0.979965 0.668933 2.434000 97 68 86
-0.973121 0.668492 2.417000 97 69 86
-0.959834 0.663538 2.384000 97 69 86
-0.952990 0.662950 2.367000 98 69 86
-0.952990 0.667093 2.367000 99 72 87
-0.946548 0.666699 2.351000 101 73 88
-0.946548 0.670815 2.351000 98 74 89
-0.940106 0.670337 2.335000 95 75 89
-0.934067 0.670092 2.320000 93 75 90
-0.927625 0.669503 2.304000 92 78 91
-0.921586 0.669152 2.289000 95 74 92
-0.909507 0.664336 2.259000 98 74 90
-0.891792 0.655274 2.215000 100 75 88
-0.891792 0.659151 2.215000 102 78 94
-0.891792 0.663028 2.215000 104 76 101
-0.886156 0.662690 2.201000 107 76 97
-0.880519 0.662304 2.187000 107 73 94
-0.869648 0.657908 2.160000 107 75 91
-0.864415 0.657707 2.147000 108 76 89
-0.864415 0.661465 2.147000 110 77 91
-0.858778 0.660886 2.133000 102 78 94
-0.858778 0.664620 2.133000 95 80 93
-0.853544 0.664280 2.120000 100 80 93
-0.848310 0.663895 2.107000 104 81 98
-0.828179 0.651741 2.057000 108 79 104
-0.828179 0.655342 2.057000 111 78 91
-0.823348 0.655098 2.045000 109 79 78
-0.813685 0.650948 2.021000 107 80 87
-0.813685 0.654486 2.021000 108 79 97
-0.808854 0.654116 2.009000 109 77 110
-0.804425 0.654032 1.998000 107 78 123
-0.799593 0.653581 1.986000 105 79 113
-0.799593 0.657057 1.986000 104 81 104
-0.795165 0.656875 1.975000 104 82 102
-0.785905 0.652643 1.952000 102 80 100
-0.777450 0.649001 1.931000 101 79 106
-0.777450 0.652382 1.931000 105 80 113
-0.773021 0.652026 1.920000 109 81 108
-0.773021 0.655387 1.920000 109 82 104
-0.768592 0.654974 1.909000 110 85 107
-0.768592 0.658316 1.909000 110 84 110
-0.764566 0.658192 1.899000 111 83 104
-0.752085 0.650717 1.868000 110 83 99
-0.748059 0.650486 1.858000 109 85 99
-0.744033 0.650220 1.848000 112 84 100
-0.740006 0.649919 1.838000 115 84 101
-0.735980 0.649583 1.828000 112 83 103
-0.735980 0.652783 1.828000 110 85 112
-0.732357 0.652753 1.819000 104 87 121
-0.728331 0.652331 1.809000 99 91 113
-0.724707 0.652236 1.800000 102 87 105
-0.720681 0.651746 1.790000 106 86 104
-0.717057 0.651587 1.781000 111 84 103
-0.713434 0.651396 1.772000 115 84 104
-0.709810 0.651174 1.763000 112 86 106
-0.709810 0.654260 1.763000 108 87 102
-0.702563 0.650635 1.745000 107 86 98
-0.698940 0.650318 1.736000 105 87 101
-0.692095 0.646959 1.719000 111 86 105
-0.688874 0.646943 1.711000 118 85 106
-0.685251 0.646519 1.702000 117 84 108
-0.685251 0.649499 1.702000 116 85 110
-0.682030 0.649411 1.694000 111 88 113
-0.682030 0.652376 1.694000 105 91 118
-0.678809 0.652247 1.686000 107 88 124
-0.675185 0.651701 1.677000 110 88 102
-0.675185 0.654636 1.677000 111 89 80
-1.074317 0.680244 2.680000 91 71 83
-1.057882 0.674457 2.639000 91 67 88
-1.049864 0.678515 2.619000 108 67 90
-1.041847 0.677883 2.599000 102 68 88
-1.041847 0.682433 2.599000 96 68 91
-1.018998 0.671916 2.542000 97 69 93
-1.018998 0.676365 2.542000 99 68 89
-1.018998 0.680815 2.542000 97 64 85
-1.004166 0.675291 2.505000 95 68 85
-1.004166 0.679676 2.505000 92 69 86
-0.982519 0.669314 2.451000 90 69 84
-0.975704 0.668933 2.434000 92 69 82
-0.962075 0.663790 2.400000 94 70 84
-0.955661 0.663538 2.384000 95 71 86
-0.955661 0.667711 2.384000 97 70 86
-0.948846 0.667093 2.367000 96 73 86
-0.948846 0.671236 2.367000 96 74 87
-0.942433 0.670815 2.351000 96 76 88
-0.936019 0.670337 2.335000 96 75 90
-0.930006 0.670092 2.320000 97 77 92
-0.923592 0.669503 2.304000 99 75 94
-0.917579 0.669152 2.289000 99 72 96
-0.905553 0.664336 2.259000 99 73 89
-0.887915 0.655274 2.215000 101 76 83
-0.887915 0.659151 2.215000 103 76 89
-0.887915 0.663028 2.215000 107 77 96
-0.882303 0.662690 2.201000 112 75 94
-0.882303 0.666543 2.201000 110 73 92
-0.865867 0.657908 2.160000 108 75 88
-0.860656 0.657707 2.147000 106 78 84
-0.860656 0.661465 2.147000 105 78 89
-0.855044 0.660886 2.133000 102 79 95
-0.849833 0.660569 2.120000 100 81 94
-0.849833 0.664280 2.120000 101 84 93
-0.839811 0.660114 2.095000 103 81 96
-0.834600 0.659662 2.082000 105 79 99
-0.829389 0.659165 2.069000 108 78 92
-0.819768 0.655098 2.045000 107 78 85
-0.810147 0.650948 2.021000 106 79 90
-0.810147 0.654486 2.021000 106 79 96
-0.805337 0.654116 2.009000 106 78 101
-0.800927 0.654032 1.998000 105 79 107
-0.796117 0.653581 1.986000 105 80 104
-0.791708 0.653418 1.975000 105 81 102
-0.787298 0.653217 1.964000 105 82 101
-0.778078 0.648965 1.941000 101 83 101
-0.774069 0.649001 1.931000 97 81 104
-0.774069 0.652382 1.931000 103 81 108
-0.769660 0.652026 1.920000 109 81 104
-0.769660 0.655387 1.920000 110 84 101
-0.765250 0.654974 1.909000 111 84 105
-0.765250 0.658316 1.909000 111 84 108
-0.761242 0.658192 1.899000 111 83 104
-0.748815 0.650717 1.868000 110 81 99
-0.744806 0.650486 1.858000 110 83 100
-0.740798 0.650220 1.848000 113 84 100
-0.740798 0.653455 1.848000 117 84 102
-0.736789 0.653136 1.838000 112 84 103
-0.736789 0.656354 1.838000 108 85 108
-0.732780 0.655982 1.828000 100 89 113
-0.729173 0.655937 1.819000 93 89 109
-0.721556 0.652236 1.800000 99 88 105
-0.717548 0.651746 1.790000 106 84 102
-0.710332 0.648294 1.772000 112 82 100
-0.710332 0.651396 1.772000 118 84 103
-0.706724 0.651174 1.763000 112 86 106
-0.706724 0.654260 1.763000 107 87 100
-0.695901 0.647279 1.736000 103 88 93
-0.692694 0.647321 1.728000 100 87 98
-0.689086 0.646959 1.719000 106 87 104
-0.689086 0.649968 1.719000 112 86 106
-0.685879 0.649938 1.711000 115 87 109
-0.682271 0.649499 1.702000 118 86 110
-0.682271 0.652478 1.702000 115 88 110
-0.679065 0.652376 1.694000 112 89 113
-0.675858 0.652247 1.686000 111 89 116
-0.669043 0.648592 1.669000 111 88 104
-0.669043 0.651513 1.669000 114 89 92
-1.069626 0.680244 2.680000 94 68 84
-1.053262 0.674457 2.639000 94 68 86
-1.045280 0.678515 2.619000 102 72 87
-1.037297 0.677883 2.599000 100 68 86
-1.029714 0.677444 2.580000 98 64 87
-1.029714 0.681960 2.580000 102 68 89
-1.014548 0.676365 2.542000 106 67 87
-1.014548 0.680815 2.542000 101 67 86
-0.999781 0.675291 2.505000 96 68 86
-0.999781 0.679676 2.505000 94 69 86
-0.978229 0.669314 2.451000 93 71 82
-0.971443 0.668933 2.434000 94 69 79
-0.957874 0.663790 2.400000 96 71 83
-0.957874 0.667991 2.400000 96 68 87
-0.951488 0.667711 2.384000 97 69 86
-0.944703 0.667093 2.367000 93 72 86
-0.944703 0.671236 2.367000 90 76 87
-0.938317 0.670815 2.351000 92 74 88
-0.931931 0.670337 2.335000 93 74 91
-0.925945 0.670092 2.320000 96 75 94
-0.919559 0.669503 2.304000 99 76 97
-0.907585 0.664767 2.274000 99 72 101
-0.901599 0.664336 2.259000 99 72 89
-0.884038 0.655274 2.215000 100 73 78
-0.884038 0.659151 2.215000 101 76 84
-0.884038 0.663028 2.215000 102 76 91
-0.878450 0.662690 2.201000 103 74 90
-0.878450 0.666543 2.201000 104 74 90
-0.862086 0.657908 2.160000 105 75 85
-0.862086 0.661689 2.160000 105 77 80
-0.856898 0.661465 2.147000 104 79 88
-0.856898 0.665223 2.147000 102 80 96
-0.851310 0.664620 2.133000 101 82 94
-0.846122 0.664280 2.120000 103 82 93
-0.840933 0.663895 2.107000 105 82 93
-0.836144 0.663781 2.095000 108 79 94
-0.830955 0.663307 2.082000 111 77 93
-0.825767 0.662787 2.069000 109 78 92
-0.806609 0.650948 2.021000 106 80 93
-0.806609 0.654486 2.021000 104 79 95
-0.801820 0.654116 2.009000 103 79 93
-0.797430 0.654032 1.998000 103 79 92
-0.788250 0.649961 1.975000 104 82 96
-0.788250 0.653418 1.975000 104 82 100
-0.783860 0.653217 1.964000 104 83 101
-0.779071 0.652643 1.952000 102 82 102
-0.770689 0.649001 1.931000 100 83 102
-0.770689 0.652382 1.931000 105 82 103
-0.766299 0.652026 1.920000 111 81 101
-0.766299 0.655387 1.920000 112 83 99
-0.761909 0.654974 1.909000 113 85 103
-0.761909 0.658316 1.909000 112 84 107
-0.757918 0.658192 1.899000 112 84 103
-0.745545 0.650717 1.868000 109 82 100
-0.741554 0.650486 1.858000 106 82 100
-0.737563 0.650220 1.848000 110 84 101
-0.733572 0.649919 1.838000 114 85 102
-0.733572 0.653136 1.838000 111 84 104
-0.733572 0.656354 1.838000 108 84 104
-0.729580 0.655982 1.828000 104 86 105
-0.725988 0.655937 1.819000 100 90 105
-0.721997 0.655498 1.809000 104 87 105
-0.714414 0.651746 1.790000 108 83 101
-0.707230 0.648294 1.772000 111 83 98
-0.703638 0.648088 1.763000 114 85 102
-0.700046 0.647850 1.754000 111 86 107
-0.700046 0.650920 1.754000 108 89 98
-0.696454 0.650635 1.745000 107 88 89
-0.689669 0.647321 1.728000 106 89 96
-0.686077 0.646959 1.719000 109 87 103
-0.682884 0.646943 1.711000 112 87 107
-0.679292 0.646519 1.702000 114 86 111
-0.679292 0.649499 1.702000 117 86 109
-0.676099 0.649411 1.694000 115 88 108
-0.672906 0.649296 1.686000 112 90 108
-0.672906 0.652247 1.686000 109 89 108
-0.666121 0.648592 1.669000 106 89 106
-0.666121 0.651513 1.669000 111 88 105
-1.040695 0.678515 2.619000 97 69 92
-1.032748 0.677883 2.599000 98 71 93
-1.025198 0.677444 2.580000 100 70 91
-1.025198 0.681960 2.580000 106 72 89
-1.017251 0.681155 2.560000 113 69 84
-1.010098 0.680815 2.542000 105 69 79
-0.995396 0.675291 2.505000 98 70 82
-0.995396 0.679676 2.505000 97 70 86
-0.973938 0.669314 2.451000 96 69 86
-0.967183 0.668933 2.434000 97 68 87
-0.953673 0.663790 2.400000 99 68 87
-0.947315 0.663538 2.384000 98 64 87
-0.947315 0.667711 2.384000 97 67 87
-0.940559 0.667093 2.367000 91 72 86
-0.934202 0.666699 2.351000 85 71 87
-0.934202 0.670815 2.351000 88 71 87
-0.927844 0.670337 2.335000 91 71 90
-0.921884 0.670092 2.320000 95 75 93
-0.915526 0.669503 2.304000 99 73 94
-0.903605 0.664767 2.274000 99 70 96
-0.897644 0.664336 2.259000 100 71 89
-0.886121 0.659711 2.230000 99 71 83
-0.880160 0.659151 2.215000 99 75 87
-0.880160 0.663028 2.215000 97 77 91
-0.874597 0.662690 2.201000 95 76 91
-0.869034 0.662304 2.187000 99 77 91
-0.858305 0.657908 2.160000 103 75 89
-0.853140 0.657707 2.147000 103 77 88
-0.853140 0.661465 2.147000 104 78 93
-0.847576 0.660886 2.133000 103 80 99
-0.847576 0.664620 2.133000 102 81 97
-0.837245 0.660206 2.107000 105 83 95
-0.832477 0.660114 2.095000 108 81 96
-0.827311 0.659662 2.082000 111 80 97
-0.822145 0.659165 2.069000 115 77 94
-0.817377 0.658943 2.057000 111 77 92
-0.803072 0.650948 2.021000 107 79 94
-0.803072 0.654486 2.021000 103 81 97
-0.798303 0.654116 2.009000 100 78 96
-0.793932 0.654032 1.998000 102 79 96
-0.780422 0.646341 1.964000 104 81 98
-0.780422 0.649779 1.964000 103 83 100
-0.780422 0.653217 1.964000 103 82 101
-0.775654 0.652643 1.952000 103 81 101
-0.771283 0.652362 1.941000 104 81 100
-0.767309 0.652382 1.931000 108 83 100
-0.762938 0.652026 1.920000 113 83 100
-0.762938 0.655387 1.920000 114 85 101
-0.762938 0.658748 1.920000 115 83 106
-0.758567 0.658316 1.909000 114 84 112
-0.754593 0.658192 1.899000 114 83 108
-0.742275 0.650717 1.868000 108 83 103
-0.738301 0.650486 1.858000 103 83 103
-0.734328 0.650220 1.848000 107 87 103
-0.730354 0.649919 1.838000 111 86 106
-0.730354 0.653136 1.838000 110 86 109
-0.730354 0.656354 1.838000 109 84 105
-0.730354 0.659571 1.838000 108 84 102
-0.718831 0.652331 1.809000 107 86 104
-0.715254 0.652236 1.800000 109 89 107
-0.711281 0.651746 1.790000 111 85 109
-0.704128 0.648294 1.772000 111 83 110
-0.700552 0.648088 1.763000 111 85 110
-0.696976 0.647850 1.754000 110 87 111
-0.696976 0.650920 1.754000 110 87 103
-0.693399 0.650635 1.745000 111 88 96
-0.686644 0.647321 1.728000 112 87 100
-0.683068 0.646959 1.719000 112 86 105
-0.683068 0.649968 1.719000 112 85 107
-0.679889 0.649938 1.711000 114 86 110
-0.676313 0.649499 1.702000 117 86 111
-0.673134 0.649411 1.694000 115 89 112
-0.669955 0.649296 1.686000 113 89 111
-0.669955 0.652247 1.686000 107 89 110
-0.666379 0.651701 1.677000 101 86 109
-0.663200 0.651513 1.669000 109 86 109
-1.036111 0.678515 2.619000 98 67 97
-1.028198 0.677883 2.599000 98 70 100
-1.020682 0.677444 2.580000 99 74 94
-1.020682 0.681960 2.580000 102 71 89
-1.012770 0.681155 2.560000 106 70 81
-1.005648 0.680815 2.542000 102 71 73
-0.991011 0.679676 2.505000 98 69 86
-0.969648 0.669314 2.451000 98 67 90
-0.949471 0.663790 2.400000 101 69 91
-0.943142 0.663538 2.384000 100 65 88
-0.943142 0.667711 2.384000 99 63 87
-0.936416 0.667093 2.367000 97 67 87
-0.930086 0.666699 2.351000 95 68 87
-0.923756 0.666249 2.335000 95 67 87
-0.923756 0.670337 2.335000 95 66 89
-0.917822 0.670092 2.320000 98 71 92
-0.911493 0.669503 2.304000 101 71 92
-0.899624 0.664767 2.274000 101 71 92
-0.893690 0.664336 2.259000 101 71 90
-0.882217 0.659711 2.230000 101 74 88
-0.876283 0.659151 2.215000 102 76 90
-0.876283 0.663028 2.215000 104 76 92
-0.870744 0.662690 2.201000 106 77 92
-0.860063 0.658367 2.174000 105 74 93
-0.854524 0.657908 2.160000 105 73 94
-0.849381 0.657707 2.147000 105 74 96
-0.849381 0.661465 2.147000 105 76 99
-0.849381 0.665223 2.147000 104 78 103
-0.843843 0.664620 2.133000 104 80 100
-0.833557 0.660206 2.107000 106 80 98
-0.828809 0.660114 2.095000 109 79 99
-0.823666 0.659662 2.082000 111 78 100
-0.818523 0.659165 2.069000 113 76 96
-0.809029 0.655098 2.045000 109 77 93
-0.794787 0.647083 2.009000 106 78 96
-0.799534 0.654486 2.021000 105 77 99
-0.794787 0.654116 2.009000 103 76 99
-0.792413 0.655669 2.003000 105 79 100
-0.781336 0.649961 1.975000 106 82 100
-0.776984 0.649779 1.964000 106 82 101
-0.776984 0.653217 1.964000 106 81 101
-0.772237 0.652643 1.952000 107 81 101
-0.767885 0.652362 1.941000 107 80 99
-0.763929 0.652382 1.931000 113 82 97
-0.763929 0.655762 1.931000 120 84 100
-0.759577 0.655387 1.920000 118 82 103
-0.759577 0.658748 1.920000 117 81 110
-0.755225 0.658316 1.909000 118 83 118
-0.746917 0.654379 1.888000 119 83 112
-0.739005 0.650717 1.868000 114 82 107
-0.735049 0.650486 1.858000 109 82 106
-0.731093 0.650220 1.848000 112 84 106
-0.727137 0.649919 1.838000 116 86 110
-0.727137 0.653136 1.838000 113 85 114
-0.727137 0.656354 1.838000 110 84 106
-0.723181 0.655982 1.828000 109 82 99
-0.715664 0.652331 1.809000 109 81 104
-0.712103 0.652236 1.800000 111 84 110
-0.704587 0.648469 1.781000 112 86 116
-0.697466 0.645002 1.763000 113 85 123
-0.697466 0.648088 1.763000 113 86 119
-0.693905 0.647850 1.754000 114 85 115
-0.693905 0.650920 1.754000 115 86 109
-0.690345 0.650635 1.745000 114 85 104
-0.683619 0.647321 1.728000 113 85 105
-0.680059 0.646959 1.719000 113 85 107
-0.680059 0.649968 1.719000 113 84 108
-0.676894 0.649938 1.711000 116 84 110
-0.673333 0.649499 1.702000 119 85 113
-0.670169 0.649411 1.694000 117 87 116
-0.667004 0.649296 1.686000 114 90 114
-0.667004 0.652247 1.686000 110 87 112
-0.663443 0.651701 1.677000 106 82 112
-0.660278 0.651513 1.669000 112 84 113
-1.023649 0.673334 2.599000 99 69 92
-1.023649 0.677883 2.599000 98 71 95
-1.016165 0.677444 2.580000 98 72 92
-1.016165 0.681960 2.580000 99 71 88
-1.008288 0.681155 2.560000 100 71 83
-1.001199 0.680815 2.542000 99 74 77
-0.965357 0.665024 2.451000 99 67 85
-0.945270 0.663790 2.400000 104 69 89
-0.938968 0.663538 2.384000 102 64 87
-0.932273 0.662950 2.367000 101 64 85
-0.932273 0.667093 2.367000 103 67 83
-0.925971 0.666699 2.351000 105 66 85
-0.919669 0.666249 2.335000 102 65 87
-0.919669 0.670337 2.335000 99 68 88
-0.913761 0.670092 2.320000 101 72 90
-0.907459 0.669503 2.304000 104 71 91
-0.895643 0.664767 2.274000 103 73 92
-0.889735 0.664336 2.259000 102 74 90
-0.878313 0.659711 2.230000 104 78 89
-0.872406 0.659151 2.215000 106 76 90
-0.866891 0.658838 2.201000 111 76 91
-0.856257 0.654561 2.174000 117 74 92
-0.850743 0.654127 2.160000 112 69 94
-0.850743 0.657908 2.160000 107 71 95
-0.845623 0.657707 2.147000 106 73 96
-0.845623 0.661465 2.147000 106 76 98
-0.840109 0.660886 2.133000 106 78 101
-0.840109 0.664620 2.133000 107 79 100
-0.829868 0.660206 2.107000 108 80 100
-0.825142 0.660114 2.095000 110 79 104
-0.820022 0.659662 2.082000 110 78 107
-0.814902 0.659165 2.069000 111 77 101
-0.805449 0.655098 2.045000 108 78 95
-0.795996 0.650948 2.021000 106 78 97
-0.795996 0.654486 2.021000 106 76 99
-0.795996 0.658024 2.021000 107 77 100
-0.791270 0.657633 2.009000 108 80 100
-0.777879 0.649961 1.975000 109 81 101
-0.773546 0.649779 1.964000 109 82 102
-0.768820 0.649226 1.952000 110 82 102
-0.768820 0.652643 1.952000 110 83 101
-0.764487 0.652362 1.941000 111 81 104
-0.760549 0.652382 1.931000 119 82 107
-0.756216 0.652026 1.920000 127 82 106
-0.756216 0.655387 1.920000 123 81 106
-0.751884 0.654974 1.909000 119 82 109
-0.747945 0.654867 1.899000 121 85 113
-0.739674 0.650913 1.878000 124 83 108
-0.735735 0.650717 1.868000 119 80 103
-0.735735 0.653987 1.868000 115 81 105
-0.727858 0.650220 1.848000 118 83 107
-0.727858 0.653455 1.848000 122 84 108
-0.723919 0.653136 1.838000 116 86 109
-0.719981 0.652783 1.828000 111 85 106
-0.719981 0.655982 1.828000 111 80 103
-0.712497 0.652331 1.809000 112 81 105
-0.708953 0.652236 1.800000 113 83 108
-0.701469 0.648469 1.781000 114 85 112
-0.694380 0.645002 1.763000 115 85 116
-0.694380 0.648088 1.763000 116 85 114
-0.690835 0.647850 1.754000 118 82 111
-0.690835 0.650920 1.754000 120 81 109
-0.687290 0.650635 1.745000 117 84 107
-0.683745 0.650318 1.736000 114 85 110
-0.680594 0.650346 1.728000 114 86 113
-0.677050 0.649968 1.719000 115 85 109
-0.670354 0.646519 1.702000 118 84 105
-0.670354 0.649499 1.702000 122 84 114
-0.667203 0.649411 1.694000 119 86 123
-0.664052 0.649296 1.686000 116 87 117
-0.660507 0.648765 1.677000 113 89 112
-0.657357 0.648592 1.669000 111 86 112
-0.657357 0.651513 1.669000 116 85 113
-1.019099 0.673334 2.599000 99 71 87
-1.011649 0.672927 2.580000 100 71 91
-1.011649 0.677444 2.580000 101 72 89
-1.003807 0.676673 2.560000 100 71 88
-0.996749 0.676365 2.542000 100 69 85
-0.989299 0.675726 2.523000 99 71 82
-0.928129 0.658806 2.367000 104 67 87
-0.928129 0.662950 2.367000 99 62 83
-0.921856 0.662584 2.351000 100 66 80
-0.921856 0.666699 2.351000 101 67 84
-0.915582 0.666249 2.335000 99 65 88
-0.915582 0.670337 2.335000 98 71 88
-0.909700 0.670092 2.320000 100 71 88
-0.903426 0.669503 2.304000 101 71 90
-0.891663 0.664767 2.274000 101 74 92
-0.885781 0.664336 2.259000 102 76 91
-0.868528 0.655274 2.215000 104 75 91
-0.868528 0.659151 2.215000 106 75 90
-0.863039 0.658838 2.201000 109 75 90
-0.852452 0.654561 2.174000 112 76 92
-0.846962 0.654127 2.160000 108 72 95
-0.846962 0.657908 2.160000 105 70 95
-0.841865 0.657707 2.147000 106 73 96
-0.841865 0.661465 2.147000 107 77 97
-0.841865 0.665223 2.147000 110 78 99
-0.831278 0.660569 2.120000 113 79 101
-0.826180 0.660206 2.107000 111 80 103
-0.821475 0.660114 2.095000 110 79 109
-0.811280 0.655543 2.069000 110 78 115
-0.806575 0.655342 2.057000 110 78 106
-0.797164 0.651254 2.033000 110 80 97
-0.787753 0.647083 2.009000 110 82 98
-0.792459 0.654486 2.021000 109 78 100
-0.792459 0.658024 2.021000 108 79 100
-0.783440 0.654032 1.998000 109 81 101
-0.778735 0.653581 1.986000 110 83 102
-0.765403 0.645809 1.952000 113 83 104
-0.765403 0.649226 1.952000 117 82 103
-0.761090 0.648965 1.941000 114 81 102
-0.761090 0.652362 1.941000 111 80 110
-0.761090 0.655760 1.941000 115 80 118
-0.757168 0.655762 1.931000 120 82 113
-0.752855 0.655387 1.920000 117 81 109
-0.748542 0.654974 1.909000 115 82 108
-0.744621 0.654867 1.899000 116 84 108
-0.736386 0.650913 1.878000 118 87 103
-0.732465 0.650717 1.868000 115 81 99
-0.732465 0.653987 1.868000 113 80 104
-0.724623 0.650220 1.848000 114 82 109
-0.724623 0.653455 1.848000 116 83 106
-0.720702 0.653136 1.838000 110 86 104
-0.716781 0.652783 1.828000 104 90 106
-0.716781 0.655982 1.828000 107 84 108
-0.713252 0.655937 1.819000 110 80 107
-0.709331 0.655498 1.809000 111 83 106
-0.701881 0.651746 1.790000 112 87 108
-0.691294 0.645002 1.763000 114 87 110
-0.691294 0.648088 1.763000 116 88 109
-0.687765 0.647850 1.754000 115 83 108
-0.687765 0.650920 1.754000 115 74 109
-0.684236 0.650635 1.745000 113 84 110
-0.680707 0.650318 1.736000 112 88 115
-0.674041 0.646959 1.719000 112 87 120
-0.674041 0.649968 1.719000 113 88 110
-0.667375 0.646519 1.702000 115 85 101
-0.664238 0.646446 1.694000 117 84 115
-0.664238 0.649411 1.694000 117 86 130
-0.661101 0.649296 1.686000 116 86 121
-0.657572 0.648765 1.677000 114 88 112
-0.654435 0.648592 1.669000 112 91 112
-0.651298 0.648391 1.661000 115 89 113
-1.014550 0.673334 2.599000 99 71 81
-1.007133 0.672927 2.580000 101 71 87
-1.007133 0.677444 2.580000 104 71 87
-0.999326 0.676673 2.560000 102 72 87
-0.992299 0.676365 2.542000 100 70 85
-0.984882 0.675726 2.523000 100 69 83
-0.930622 0.663538 2.384000 106 68 87
-0.923986 0.662950 2.367000 98 68 85
-0.917740 0.662584 2.351000 97 70 83
-0.917740 0.666699 2.351000 97 67 85
-0.911494 0.666249 2.335000 97 60 87
-0.911494 0.670337 2.335000 98 67 81
-0.905639 0.670092 2.320000 98 72 76
-0.905639 0.674153 2.320000 99 75 87
-0.887682 0.664767 2.274000 100 78 99
-0.881827 0.664336 2.259000 102 75 95
-0.864651 0.655274 2.215000 104 73 91
-0.859186 0.654985 2.201000 106 75 91
-0.848646 0.650755 2.174000 107 76 90
-0.848646 0.654561 2.174000 108 76 93
-0.843181 0.654127 2.160000 105 74 96
-0.843181 0.657908 2.160000 103 73 95
-0.843181 0.661689 2.160000 105 74 94
-0.838106 0.661465 2.147000 108 78 89
-0.838106 0.665223 2.147000 114 81 85
-0.827566 0.660569 2.120000 120 81 91
-0.822492 0.660206 2.107000 115 82 97
-0.812733 0.656018 2.082000 110 80 98
-0.807658 0.655543 2.069000 110 78 100
-0.802974 0.655342 2.057000 110 80 98
-0.793605 0.651254 2.033000 112 83 96
-0.788921 0.650948 2.021000 115 81 99
-0.793605 0.658372 2.033000 112 78 103
-0.788921 0.658024 2.021000 110 79 103
-0.779942 0.654032 1.998000 110 82 103
-0.775258 0.653581 1.986000 111 84 103
-0.770964 0.653418 1.975000 117 86 102
-0.766670 0.653217 1.964000 124 83 100
-0.761986 0.652643 1.952000 117 82 97
-0.757692 0.652362 1.941000 111 80 100
-0.757692 0.655760 1.941000 112 77 104
-0.753788 0.655762 1.931000 113 80 105
-0.749494 0.655387 1.920000 112 80 107
-0.749494 0.658748 1.920000 112 81 107
-0.741296 0.654867 1.899000 112 84 106
-0.733099 0.650913 1.878000 112 84 105
-0.729195 0.650717 1.868000 111 80 103
-0.729195 0.653987 1.868000 111 82 106
-0.725292 0.653738 1.858000 110 83 109
-0.721388 0.653455 1.848000 110 84 105
-0.717484 0.653136 1.838000 104 86 102
-0.713581 0.652783 1.828000 98 87 105
-0.713581 0.655982 1.828000 103 87 108
-0.706164 0.652331 1.809000 109 83 103
-0.702651 0.652236 1.800000 110 82 99
-0.698747 0.651746 1.790000 111 87 103
-0.688207 0.645002 1.763000 113 89 107
-0.684694 0.644779 1.754000 116 89 106
-0.684694 0.647850 1.754000 113 90 106
-0.681181 0.647580 1.745000 110 86 107
-0.681181 0.650635 1.745000 110 90 109
-0.677668 0.650318 1.736000 110 88 111
-0.674545 0.650346 1.728000 111 87 113
-0.671031 0.649968 1.719000 112 86 109
-0.664395 0.646519 1.702000 112 85 105
-0.661272 0.646446 1.694000 113 86 112
-0.661272 0.649411 1.694000 115 89 119
-0.658150 0.649296 1.686000 117 88 111
-0.654636 0.648765 1.677000 115 88 103
-0.651513 0.648592 1.669000 113 90 108
-0.648391 0.648391 1.661000 114 93 112
-1.017772 0.673930 2.619000 98 71 68
-1.010000 0.673334 2.599000 98 72 76
-1.002617 0.672927 2.580000 97 72 84
-1.002617 0.677444 2.580000 97 71 85
-1.002617 0.681960 2.580000 98 72 86
-0.994844 0.681155 2.560000 99 73 85
-0.980466 0.675726 2.523000 99 71 85
-0.915568 0.663993 2.356000 101 73 86
-0.913625 0.666699 2.351000 102 74 86
-0.907407 0.666249 2.335000 100 68 86
-0.907407 0.670337 2.335000 97 68 75
-0.901578 0.670092 2.320000 96 74 65
-0.901578 0.674153 2.320000 94 79 85
-0.895360 0.673537 2.304000 98 77 106
-0.860773 0.651396 2.215000 102 74 99
-0.855333 0.651132 2.201000 103 74 92
-0.855333 0.654985 2.201000 105 77 91
-0.849892 0.654647 2.187000 107 78 91
-0.844840 0.654561 2.174000 109 80 94
-0.839400 0.654127 2.160000 107 76 98
-0.839400 0.657908 2.160000 105 76 95
-0.834348 0.657707 2.147000 104 77 92
-0.834348 0.661465 2.147000 104 80 82
-0.828907 0.660886 2.133000 103 81 72
-0.823855 0.660569 2.120000 102 85 81
-0.823855 0.664280 2.120000 104 83 91
-0.814140 0.660114 2.095000 106 83 88
-0.799373 0.651741 2.057000 107 82 85
-0.799373 0.655342 2.057000 108 84 90
-0.794710 0.655098 2.045000 109 83 95
-0.790046 0.654813 2.033000 110 81 100
-0.785383 0.654486 2.021000 110 79 106
-0.785383 0.658024 2.021000 110 78 106
-0.776445 0.654032 1.998000 109 82 106
-0.771782 0.653581 1.986000 108 86 103
-0.767507 0.653418 1.975000 113 85 101
-0.763232 0.653217 1.964000 118 85 97
-0.758569 0.652643 1.952000 114 83 93
-0.754294 0.652362 1.941000 110 84 91
-0.754294 0.655760 1.941000 109 82 90
-0.750408 0.655762 1.931000 109 82 98
-0.746133 0.655387 1.920000 109 82 106
-0.746133 0.658748 1.920000 110 80 105
-0.733698 0.651074 1.888000 109 83 105
-0.729812 0.650913 1.878000 109 85 106
-0.725925 0.650717 1.868000 108 85 108
-0.725925 0.653987 1.868000 107 86 109
-0.722039 0.653738 1.858000 108 86 110
-0.718153 0.653455 1.848000 110 87 105
-0.710381 0.649583 1.828000 107 85 100
-0.710381 0.652783 1.828000 104 86 104
-0.706884 0.652753 1.819000 106 86 108
-0.702997 0.652331 1.809000 109 86 100
-0.699500 0.652236 1.800000 109 87 93
-0.695614 0.651746 1.790000 109 90 99
-0.685121 0.645002 1.763000 111 89 105
-0.681624 0.644779 1.754000 113 90 104
-0.681624 0.647850 1.754000 111 91 104
-0.679681 0.649065 1.749000 109 91 106
-0.678126 0.650635 1.745000 109 89 108
-0.678126 0.653689 1.745000 110 88 107
-0.674629 0.653357 1.736000 110 87 107
-0.668022 0.649968 1.719000 110 87 108
-0.661416 0.646519 1.702000 111 86 109
-0.658307 0.646446 1.694000 113 86 108
-0.655198 0.646344 1.686000 115 87 108
-0.655198 0.649296 1.686000 117 89 101
-0.651701 0.648765 1.677000 114 88 95
-0.648592 0.648592 1.669000 111 91 103
-0.645483 0.648391 1.661000 112 92 112
-1.005451 0.668784 2.599000 98 73 82
-1.005451 0.673334 2.599000 98 73 83
-0.998100 0.672927 2.580000 94 76 85
-0.998100 0.677444 2.580000 90 73 86
-0.998100 0.681960 2.580000 94 74 88
-0.990363 0.681155 2.560000 99 72 86
-0.976049 0.675726 2.523000 98 68 84
-0.913378 0.665402 2.361000 104 76 81
-0.903319 0.662162 2.335000 108 74 84
-0.909509 0.670815 2.351000 102 72 87
-0.903319 0.670337 2.335000 97 71 82
-0.897517 0.670092 2.320000 93 79 77
-0.891327 0.669503 2.304000 90 79 87
-0.873918 0.660382 2.259000 96 79 98
-0.856896 0.651396 2.215000 102 76 94
-0.851480 0.651132 2.201000 103 75 91
-0.851480 0.654985 2.201000 104 78 90
-0.846064 0.654647 2.187000 107 82 90
-0.841035 0.654561 2.174000 110 79 93
-0.841035 0.658367 2.174000 108 74 97
-0.835619 0.657908 2.160000 107 76 95
-0.830590 0.657707 2.147000 104 80 94
-0.830590 0.661465 2.147000 101 80 88
-0.825174 0.660886 2.133000 92 81 83
-0.820144 0.660569 2.120000 84 83 88
-0.815115 0.660206 2.107000 93 85 93
-0.810473 0.660114 2.095000 102 83 92
-0.800415 0.655543 2.069000 104 83 92
-0.791130 0.651519 2.045000 107 83 96
-0.791130 0.655098 2.045000 106 84 100
-0.786487 0.654813 2.033000 105 82 107
-0.781845 0.654486 2.021000 107 81 114
-0.781845 0.658024 2.021000 110 80 110
-0.772947 0.654032 1.998000 107 82 107
-0.772947 0.657530 1.998000 105 85 104
-0.764050 0.653418 1.975000 108 86 102
-0.759794 0.653217 1.964000 112 84 100
-0.759794 0.656655 1.964000 111 81 98
-0.755152 0.656060 1.952000 110 83 101
-0.755152 0.659477 1.952000 107 85 105
-0.747028 0.655762 1.931000 105 84 107
-0.742772 0.655387 1.920000 107 86 109
-0.742772 0.658748 1.920000 109 84 107
-0.730393 0.651074 1.888000 107 86 105
-0.726524 0.650913 1.878000 106 87 106
-0.722656 0.650717 1.868000 104 89 108
-0.722656 0.653987 1.868000 103 87 112
-0.718787 0.653738 1.858000 107 88 116
-0.714918 0.653455 1.848000 111 86 111
-0.711050 0.653136 1.838000 110 83 107
-0.707181 0.652783 1.828000 110 84 108
-0.703699 0.652753 1.819000 109 87 109
-0.699831 0.652331 1.809000 109 88 107
-0.696349 0.652236 1.800000 108 90 105
-0.692480 0.651746 1.790000 108 89 105
-0.685517 0.648294 1.772000 109 87 106
-0.682035 0.648088 1.763000 110 89 102
-0.678553 0.647850 1.754000 109 93 99
-0.678553 0.650920 1.754000 109 87 104
-0.678553 0.653990 1.754000 109 87 110
-0.671590 0.650318 1.736000 110 87 109
-0.671590 0.653357 1.736000 109 87 109
-0.668495 0.653371 1.728000 108 86 112
-0.658437 0.646519 1.702000 111 86 116
-0.655342 0.646446 1.694000 114 85 112
-0.652247 0.646344 1.686000 116 87 109
-0.652247 0.649296 1.686000 118 87 107
-0.648765 0.648765 1.677000 114 85 105
-0.645670 0.648592 1.669000 110 89 110
-0.642576 0.648391 1.661000 111 94 115
-1.000901 0.668784 2.599000 100 73 96
-0.993584 0.668411 2.580000 101 71 91
-0.993584 0.672927 2.580000 101 71 87
-0.993584 0.677444 2.580000 102 71 88
-0.985882 0.676673 2.560000 102 73 90
-0.978950 0.676365 2.542000 102 76 87
-0.971633 0.675726 2.523000 100 70 84
-0.911555 0.667093 2.367000 103 73 77
-0.899232 0.662162 2.335000 104 74 82
-0.905394 0.670815 2.351000 101 70 88
-0.899232 0.670337 2.335000 99 67 88
-0.893455 0.670092 2.320000 96 74 89
-0.887294 0.669503 2.304000 93 79 89
-0.869964 0.660382 2.259000 97 79 90
-0.853019 0.651396 2.215000 102 79 90
-0.847627 0.651132 2.201000 104 77 90
-0.847627 0.654985 2.201000 105 78 89
-0.842236 0.654647 2.187000 111 80 89
-0.837229 0.654561 2.174000 117 80 92
-0.837229 0.658367 2.174000 112 75 96
-0.831838 0.657908 2.160000 107 75 96
-0.831838 0.661689 2.160000 105 78 97
-0.826831 0.661465 2.147000 103 80 95
-0.821440 0.660886 2.133000 97 81 94
-0.816433 0.660569 2.120000 92 82 94
-0.811427 0.660206 2.107000 97 82 95
-0.806805 0.660114 2.095000 103 83 97
-0.801799 0.659662 2.082000 104 84 99
-0.787550 0.651519 2.045000 105 84 102
-0.787550 0.655098 2.045000 106 84 106
-0.782929 0.654813 2.033000 108 84 114
-0.778307 0.654486 2.021000 112 83 123
-0.773686 0.654116 2.009000 116 82 115
-0.769450 0.654032 1.998000 109 83 108
-0.769450 0.657530 1.998000 103 88 106
-0.760592 0.653418 1.975000 106 87 104
-0.756356 0.653217 1.964000 110 85 103
-0.756356 0.656655 1.964000 110 83 103
-0.751735 0.656060 1.952000 111 84 112
-0.747499 0.655760 1.941000 109 84 121
-0.743647 0.655762 1.931000 107 85 117
-0.739411 0.655387 1.920000 111 85 113
-0.735175 0.654974 1.909000 114 86 109
-0.727088 0.651074 1.888000 111 87 105
-0.723237 0.650913 1.878000 108 90 106
-0.719386 0.650717 1.868000 109 87 108
-0.719386 0.653987 1.868000 110 85 115
-0.715534 0.653738 1.858000 111 87 123
-0.711683 0.653455 1.848000 112 88 118
-0.707832 0.653136 1.838000 110 83 114
-0.703981 0.652783 1.828000 109 82 112
-0.700515 0.652753 1.819000 109 86 110
-0.693198 0.649086 1.800000 109 90 114
-0.693198 0.652236 1.800000 109 90 118
-0.689347 0.651746 1.790000 110 90 112
-0.685881 0.651587 1.781000 111 89 107
-0.678949 0.648088 1.763000 112 88 100
-0.675483 0.647850 1.754000 113 86 94
-0.675483 0.650920 1.754000 114 80 103
-0.675483 0.653990 1.754000 112 84 112
-0.668551 0.650318 1.736000 111 88 111
-0.668551 0.653357 1.736000 107 88 111
-0.668551 0.656396 1.736000 104 87 117
-0.658923 0.649938 1.711000 113 84 123
-0.655457 0.649499 1.702000 122 82 116
-0.652376 0.649411 1.694000 121 85 110
-0.649296 0.649296 1.686000 119 88 112
-0.649296 0.652247 1.686000 115 87 115
-0.642749 0.648592 1.669000 112 88 116
-0.642749 0.651513 1.669000 113 91 118
-0.993668 0.666983 2.592000 102 74 91
-0.989068 0.668411 2.580000 104 72 88
-0.989068 0.672927 2.580000 109 69 86
-0.989068 0.677444 2.580000 115 70 87
-0.981401 0.676673 2.560000 110 71 88
-0.981401 0.681155 2.560000 105 73 84
-0.967216 0.675726 2.523000 103 72 81
-0.907412 0.667093 2.367000 101 73 79
-0.895145 0.662162 2.335000 101 73 84
-0.895145 0.666249 2.335000 101 68 89
-0.895145 0.670337 2.335000 101 69 93
-0.889394 0.670092 2.320000 98 73 98
-0.889394 0.674153 2.320000 96 76 89
-0.877510 0.669152 2.289000 99 80 80
-0.849141 0.651396 2.215000 103 79 84
-0.843774 0.651132 2.201000 105 76 88
-0.843774 0.654985 2.201000 107 78 87
-0.838407 0.654647 2.187000 115 80 85
-0.833424 0.654561 2.174000 124 77 89
-0.828057 0.654127 2.160000 116 74 93
-0.828057 0.657908 2.160000 108 76 95
-0.828057 0.661689 2.160000 106 79 98
-0.823073 0.661465 2.147000 105 79 97
-0.817706 0.660886 2.133000 103 81 97
-0.812722 0.660569 2.120000 101 80 96
-0.807739 0.660206 2.107000 102 81 96
-0.807739 0.663895 2.107000 104 83 97
-0.798155 0.659662 2.082000 103 86 99
-0.788571 0.655342 2.057000 103 86 102
-0.783970 0.655098 2.045000 107 87 105
-0.779370 0.654813 2.033000 112 85 110
-0.779370 0.658372 2.033000 117 85 115
-0.770169 0.654116 2.009000 123 83 109
-0.765952 0.654032 1.998000 112 83 104
-0.761352 0.653581 1.986000 101 86 104
-0.757135 0.653418 1.975000 104 90 105
-0.752918 0.653217 1.964000 108 86 104
-0.752918 0.656655 1.964000 110 83 104
-0.748318 0.656060 1.952000 112 84 109
-0.744101 0.655760 1.941000 111 85 115
-0.740267 0.655762 1.931000 110 85 113
-0.736050 0.655387 1.920000 115 85 111
-0.731833 0.654974 1.909000 120 86 107
-0.719949 0.647626 1.878000 115 88 104
-0.719949 0.650913 1.878000 110 88 105
-0.716116 0.650717 1.868000 114 85 107
-0.716116 0.653987 1.868000 118 86 110
-0.712282 0.653738 1.858000 116 87 114
-0.708448 0.653455 1.848000 114 86 113
-0.704615 0.653136 1.838000 111 82 112
-0.700781 0.652783 1.828000 108 83 108
-0.697331 0.652753 1.819000 109 87 105
-0.690047 0.649086 1.800000 110 89 109
-0.690047 0.652236 1.800000 111 91 113
-0.686214 0.651746 1.790000 112 91 109
-0.682763 0.651587 1.781000 113 91 106
-0.675863 0.648088 1.763000 114 88 103
-0.675863 0.651174 1.763000 117 86 101
-0.668962 0.647580 1.745000 120 83 107
-0.668962 0.650635 1.745000 116 83 113
-0.665512 0.650318 1.736000 112 87 110
-0.665512 0.653357 1.736000 106 91 107
-0.658995 0.649968 1.719000 101 89 112
-0.652478 0.646519 1.702000 116 84 118
-0.652478 0.649499 1.702000 131 84 114
-0.649411 0.649411 1.694000 126 85 111
-0.646344 0.649296 1.686000 121 87 115
-0.646344 0.652247 1.686000 117 90 120
-0.639827 0.648592 1.669000 114 90 120
-0.639827 0.651513 1.669000 115 90 120
-0.986841 0.665439 2.586000 102 74 86
-0.984551 0.668411 2.580000 103 75 85
