ply
format ascii 1.0
element vertex 1293
property float x
property float y
property float z
property uchar red
property uchar green
property uchar blue
end_header
-0.544125 0.680157 2.045000 68 48 77
-0.540933 0.679725 2.033000 64 46 68
-0.534547 0.675217 2.009000 60 46 69
-0.528427 0.670963 1.986000 66 45 71
-0.525500 0.670704 1.975000 72 44 62
-0.522573 0.670407 1.964000 71 43 54
-0.522573 0.673845 1.964000 71 41 56
-0.522573 0.677283 1.964000 72 43 59
-0.519380 0.676561 1.952000 74 47 61
-0.516454 0.676147 1.941000 73 45 64
-0.505278 0.664840 1.899000 72 44 67
-0.502352 0.664294 1.888000 71 48 71
-0.502352 0.667599 1.888000 69 49 66
-0.499691 0.667350 1.878000 71 47 62
-0.497030 0.667067 1.868000 73 47 63
-0.494369 0.666748 1.858000 73 46 64
-0.491709 0.666394 1.848000 73 46 66
-0.489048 0.666006 1.838000 71 46 68
-0.486387 0.665582 1.828000 70 49 68
-0.483992 0.665489 1.819000 70 51 69
-0.481332 0.664998 1.809000 70 54 74
-0.478937 0.664840 1.800000 69 53 79
-0.476276 0.664280 1.790000 69 53 71
-0.476276 0.667413 1.790000 70 50 63
-0.473881 0.667175 1.781000 72 47 61
-0.469092 0.663518 1.763000 72 51 59
-0.466697 0.663202 1.754000 73 53 60
-0.464303 0.662853 1.745000 68 52 62
-0.461908 0.662473 1.736000 63 57 66
-0.459779 0.662445 1.728000 63 53 71
-0.457385 0.662004 1.719000 64 52 69
-0.455256 0.661918 1.711000 64 53 67
-0.450733 0.658307 1.694000 63 53 69
-1.026905 0.754877 3.885000 58 32 25
-1.026905 0.761678 3.885000 58 35 20
-1.015539 0.759973 3.842000 59 37 15
-1.015539 0.766698 3.842000 61 35 9
-1.004437 0.764969 3.800000 61 39 3
-0.993600 0.763295 3.759000 61 36 20
-0.993600 0.769875 3.759000 58 35 37
-0.982762 0.767987 3.718000 55 34 27
-0.982762 0.774495 3.718000 58 36 16
-0.972454 0.772811 3.679000 61 34 28
-0.972454 0.779251 3.679000 67 33 41
-0.942321 0.761345 3.565000 74 33 34
-0.914038 0.744547 3.458000 67 29 27
-0.904786 0.743003 3.423000 60 34 29
-0.896064 0.741774 3.390000 58 39 32
-0.896064 0.747709 3.390000 56 38 29
-0.887341 0.746306 3.357000 58 38 27
-0.878618 0.744789 3.324000 60 34 30
-0.870424 0.743607 3.293000 62 29 32
-0.862230 0.742317 3.262000 65 33 36
-0.846106 0.734039 3.201000 66 33 40
-0.846106 0.739642 3.201000 68 38 28
-0.838441 0.738494 3.172000 65 41 17
-0.830775 0.737244 3.143000 62 41 31
-0.815973 0.729512 3.087000 59 43 46
-0.808572 0.728250 3.059000 56 38 47
-0.801699 0.727370 3.033000 66 28 48
-0.794563 0.726157 3.006000 76 30 41
-0.787690 0.725092 2.980000 69 32 35
-0.787690 0.730309 2.980000 63 37 35
-0.781082 0.729355 2.955000 61 39 36
-0.767866 0.722099 2.905000 60 40 39
-0.761522 0.721176 2.881000 61 38 42
-0.755178 0.720170 2.857000 63 37 52
-0.749099 0.719333 2.834000 65 37 62
-0.742755 0.718160 2.810000 68 37 47
-0.730860 0.711500 2.765000 65 36 33
-0.719494 0.705200 2.722000 63 40 43
-0.713943 0.704487 2.701000 63 47 53
-0.708393 0.703701 2.680000 63 45 50
-0.708393 0.708392 2.680000 64 44 47
-0.702842 0.707496 2.659000 65 43 43
-0.697555 0.706794 2.639000 67 44 38
-0.692269 0.706022 2.619000 69 42 45
-0.686982 0.705180 2.599000 71 45 51
-0.681960 0.704541 2.580000 74 41 55
-0.671916 0.698614 2.542000 71 42 60
-0.666893 0.697809 2.523000 68 40 54
-0.662136 0.697216 2.505000 72 39 48
-0.657378 0.696559 2.487000 76 38 53
-0.657378 0.700913 2.487000 71 35 59
-0.652620 0.700162 2.469000 66 40 57
-0.647862 0.699348 2.451000 62 40 56
-0.643368 0.698758 2.434000 58 39 58
-0.634381 0.693198 2.400000 69 41 60
-0.630152 0.692750 2.384000 80 43 48
-0.625659 0.691954 2.367000 75 45 35
-0.621429 0.691392 2.351000 71 44 53
-0.617200 0.690774 2.335000 70 46 71
-0.609006 0.685636 2.304000 69 44 63
-0.605041 0.685179 2.289000 65 44 55
-0.601076 0.684670 2.274000 61 44 56
-0.597111 0.684108 2.259000 63 45 57
-0.597111 0.688062 2.259000 65 46 57
-0.593147 0.687422 2.244000 65 47 57
-0.593147 0.691350 2.244000 65 48 56
-0.585481 0.686292 2.215000 67 49 55
-0.581781 0.685808 2.201000 69 46 59
-0.578080 0.685274 2.187000 75 43 64
-0.578080 0.689102 2.187000 82 44 60
-0.570943 0.684376 2.160000 76 44 56
-0.567507 0.684015 2.147000 71 48 59
-0.563806 0.683289 2.133000 68 53 63
-0.560370 0.682835 2.120000 66 50 56
-0.556934 0.682336 2.107000 69 45 49
-0.546890 0.673652 2.069000 73 46 57
-0.543718 0.673346 2.057000 73 47 64
-0.543718 0.676947 2.057000 74 46 64
-0.540546 0.676577 2.045000 72 46 64
-0.540546 0.680157 2.045000 71 47 64
-0.537374 0.679725 2.033000 63 49 64
-0.528122 0.671520 1.998000 55 47 70
-0.528122 0.675017 1.998000 64 45 77
-0.524951 0.674440 1.986000 73 45 67
-0.522043 0.674161 1.975000 78 44 58
-0.519135 0.673845 1.964000 83 43 60
-0.519135 0.677283 1.964000 80 43 62
-0.515963 0.676561 1.952000 77 44 61
-0.513056 0.676147 1.941000 76 44 61
-0.504597 0.668341 1.909000 76 44 61
-0.501954 0.668164 1.899000 73 46 62
-0.499047 0.667599 1.888000 71 47 60
-0.496403 0.667350 1.878000 72 46 59
-0.493760 0.667067 1.868000 74 47 60
-0.491117 0.666748 1.858000 74 44 60
-0.488474 0.666394 1.848000 74 45 64
-0.485830 0.666006 1.838000 75 46 68
-0.483187 0.665582 1.828000 77 49 68
-0.483187 0.668782 1.828000 74 50 68
-0.480808 0.668674 1.819000 72 53 71
-0.475786 0.664840 1.800000 70 53 74
-0.473143 0.664280 1.790000 69 52 67
-0.470764 0.664057 1.781000 71 51 61
-0.468385 0.663804 1.772000 73 50 55
-0.466006 0.663518 1.763000 75 53 49
-0.463627 0.663202 1.754000 78 51 55
-0.461248 0.662853 1.745000 72 49 62
-0.458869 0.662473 1.736000 66 52 65
-0.456755 0.662445 1.728000 65 51 68
-0.454376 0.662004 1.719000 64 52 66
-0.449882 0.658437 1.702000 61 58 64
-0.447768 0.658307 1.694000 59 53 61
-0.976254 0.761478 3.718000 60 31 53
-0.976254 0.767987 3.718000 59 31 27
-0.966014 0.766371 3.679000 59 32 1
-0.966014 0.772811 3.679000 60 33 10
-0.955773 0.770990 3.640000 63 35 20
-0.936080 0.761345 3.565000 66 35 20
-0.898794 0.737011 3.423000 58 35 21
-0.898794 0.743003 3.423000 51 36 29
-0.890129 0.741774 3.390000 54 35 38
-0.890129 0.747709 3.390000 57 36 32
-0.881464 0.746306 3.357000 58 37 27
-0.872799 0.744789 3.324000 60 38 28
-0.864660 0.743607 3.293000 62 37 30
-0.856520 0.742317 3.262000 65 40 32
-0.840503 0.734039 3.201000 64 38 35
-0.832888 0.732942 3.172000 63 41 18
-0.825273 0.731743 3.143000 62 41 2
-0.817921 0.730676 3.115000 62 39 16
-0.803217 0.722896 3.059000 61 41 30
-0.796390 0.722060 3.033000 61 41 39
-0.796390 0.727370 3.033000 66 35 48
-0.789301 0.726157 3.006000 70 33 41
-0.782474 0.725092 2.980000 66 36 35
-0.775909 0.724182 2.955000 61 42 33
-0.775909 0.729355 2.955000 60 41 31
-0.762780 0.722099 2.905000 59 44 34
-0.756479 0.721176 2.881000 57 41 38
-0.750177 0.720170 2.857000 56 39 53
-0.744138 0.719333 2.834000 62 37 68
-0.737836 0.718160 2.810000 67 37 47
-0.726020 0.711500 2.765000 63 38 26
-0.720243 0.710640 2.743000 58 44 42
-0.709215 0.704487 2.701000 61 44 58
-0.703701 0.703701 2.680000 63 46 54
-0.698187 0.702842 2.659000 65 43 50
-0.698187 0.707496 2.659000 66 42 41
-0.692936 0.706794 2.639000 67 42 32
-0.687684 0.706022 2.619000 68 42 40
-0.682433 0.705180 2.599000 69 41 49
-0.677444 0.704541 2.580000 70 39 57
-0.672192 0.703561 2.560000 68 39 65
-0.667466 0.703064 2.542000 66 38 58
-0.657750 0.697216 2.505000 68 39 51
-0.653024 0.696559 2.487000 71 40 52
-0.653024 0.700913 2.487000 69 40 53
-0.648298 0.700162 2.469000 66 43 53
-0.643571 0.699348 2.451000 64 40 53
-0.639108 0.698758 2.434000 61 36 55
-0.634644 0.698108 2.417000 67 39 58
-0.630180 0.697399 2.400000 72 41 40
-0.621515 0.691954 2.367000 69 42 22
-0.621515 0.696097 2.367000 65 44 54
-0.613113 0.690774 2.335000 70 44 86
-0.604973 0.685636 2.304000 75 43 72
-0.601034 0.685179 2.289000 70 43 58
-0.597096 0.684670 2.274000 65 46 55
-0.597096 0.688650 2.274000 66 46 52
-0.593157 0.688062 2.259000 67 47 39
-0.593157 0.692017 2.259000 69 50 26
-0.589218 0.691350 2.244000 71 54 37
-0.585542 0.690940 2.230000 70 50 48
-0.577928 0.685808 2.201000 69 46 59
-0.574252 0.685274 2.187000 70 45 70
-0.570838 0.685006 2.174000 71 47 62
-0.567162 0.684376 2.160000 69 47 55
-0.563749 0.684015 2.147000 68 49 52
-0.560073 0.683289 2.133000 64 50 50
-0.556659 0.682835 2.120000 61 50 45
-0.553246 0.682336 2.107000 66 47 40
-0.543268 0.673652 2.069000 72 45 46
-0.540117 0.673346 2.057000 73 48 53
-0.536966 0.672997 2.045000 75 47 47
-0.536966 0.676577 2.045000 77 45 42
-0.533815 0.676166 2.033000 79 47 51
-0.530664 0.675712 2.021000 70 48 60
-0.525938 0.673200 2.003000 61 49 71
-0.524625 0.675017 1.998000 67 47 83
-0.521474 0.674440 1.986000 73 50 72
-0.518586 0.674161 1.975000 75 45 62
-0.515697 0.673845 1.964000 78 45 63
-0.515697 0.677283 1.964000 76 44 65
-0.512546 0.676561 1.952000 74 45 61
-0.509658 0.676147 1.941000 73 44 58
-0.501256 0.668341 1.909000 73 44 55
-0.498630 0.668164 1.899000 73 45 53
-0.495742 0.667599 1.888000 72 47 55
-0.490490 0.663797 1.868000 74 47 57
-0.487864 0.663496 1.858000 77 51 57
-0.485239 0.663160 1.848000 74 47 57
-0.482613 0.662788 1.838000 71 46 62
-0.482613 0.666006 1.838000 67 48 68
-0.479987 0.665582 1.828000 63 53 68
-0.479987 0.668782 1.828000 66 54 68
-0.477624 0.668674 1.819000 68 55 68
-0.472635 0.664840 1.800000 69 54 69
-0.470009 0.664280 1.790000 70 53 64
-0.465283 0.660702 1.772000 71 52 59
-0.462920 0.660432 1.763000 72 50 49
-0.460557 0.660131 1.754000 73 49 40
-0.460557 0.663202 1.754000 75 50 51
-0.458193 0.662853 1.745000 70 50 62
-0.455830 0.662473 1.736000 65 51 63
-0.451366 0.658995 1.719000 65 50 65
-0.449266 0.658923 1.711000 65 49 63
-0.444802 0.655342 1.694000 64 54 62
-0.442702 0.655198 1.686000 63 56 54
-0.969746 0.761478 3.718000 62 25 39
-0.969746 0.767987 3.718000 63 28 25
-0.959574 0.766371 3.679000 61 30 12
-0.959574 0.772811 3.679000 60 32 17
-0.949401 0.770990 3.640000 59 39 22
-0.929839 0.761345 3.565000 59 39 21
-0.892802 0.737011 3.423000 50 42 21
-0.892802 0.743003 3.423000 42 37 34
-0.892802 0.748995 3.423000 50 32 47
-0.884195 0.747709 3.390000 58 36 35
-0.875588 0.746306 3.357000 59 39 24
-0.866981 0.744789 3.324000 60 39 28
-0.858895 0.743607 3.293000 62 41 32
-0.850810 0.742317 3.262000 65 40 35
-0.834899 0.734039 3.201000 61 40 38
-0.827335 0.732942 3.172000 58 41 35
-0.812468 0.725224 3.115000 60 43 32
-0.805165 0.724108 3.087000 62 41 32
-0.797862 0.722896 3.059000 64 43 33
-0.797862 0.728250 3.059000 67 41 42
-0.791081 0.727370 3.033000 66 41 52
-0.784039 0.726157 3.006000 65 38 44
-0.777257 0.725092 2.980000 62 40 37
-0.770737 0.724182 2.955000 60 41 31
-0.770737 0.729355 2.955000 59 42 26
-0.757695 0.722099 2.905000 58 43 28
-0.751436 0.721176 2.881000 54 45 31
-0.745176 0.720170 2.857000 50 40 44
-0.739177 0.719333 2.834000 58 38 57
-0.732917 0.718160 2.810000 67 37 45
-0.727179 0.717418 2.788000 60 37 34
-0.721180 0.716340 2.765000 54 40 42
-0.709964 0.709964 2.722000 59 42 51
-0.704487 0.709215 2.701000 64 43 48
-0.693532 0.702842 2.659000 66 43 46
-0.688316 0.702175 2.639000 68 42 40
-0.683100 0.701438 2.619000 67 41 35
-0.677883 0.700631 2.599000 67 42 41
-0.672927 0.700025 2.580000 67 41 47
-0.672927 0.704541 2.580000 67 39 53
-0.663016 0.698614 2.542000 65 38 59
-0.663016 0.703064 2.542000 64 40 56
-0.653365 0.697216 2.505000 65 40 53
-0.653365 0.701601 2.505000 67 42 54
-0.648671 0.700913 2.487000 67 44 55
-0.643976 0.700162 2.469000 67 43 54
-0.639281 0.699348 2.451000 66 41 53
-0.634847 0.698758 2.434000 65 38 59
-0.630413 0.698108 2.417000 65 39 65
-0.625979 0.697399 2.400000 65 40 50
-0.617372 0.691954 2.367000 62 40 35
-0.617372 0.696097 2.367000 60 42 54
-0.609025 0.690774 2.335000 70 44 74
-0.600940 0.685636 2.304000 81 42 67
-0.597027 0.685179 2.289000 75 42 60
-0.593115 0.684670 2.274000 69 45 64
-0.589203 0.684108 2.259000 69 47 68
-0.585290 0.683493 2.244000 69 48 53
-0.585290 0.687422 2.244000 73 53 37
-0.581639 0.687036 2.230000 78 52 44
-0.577726 0.686292 2.215000 73 52 50
-0.574075 0.685808 2.201000 69 49 56
-0.570423 0.685274 2.187000 64 47 63
-0.567033 0.685006 2.174000 60 48 59
-0.563381 0.684376 2.160000 62 49 55
-0.559990 0.684015 2.147000 65 48 52
-0.559990 0.687773 2.147000 60 49 50
-0.552948 0.682835 2.120000 56 50 47
-0.549557 0.682336 2.107000 63 50 45
-0.539646 0.673652 2.069000 71 49 50
-0.536516 0.673346 2.057000 73 54 56
-0.536516 0.676947 2.057000 76 48 52
-0.533386 0.676577 2.045000 81 42 49
-0.530256 0.676166 2.033000 87 45 53
-0.530256 0.679725 2.033000 77 50 57
-0.523997 0.675217 2.009000 68 47 66
-0.521127 0.675017 1.998000 70 47 75
-0.517998 0.674440 1.986000 73 46 70
-0.515128 0.674161 1.975000 73 44 65
-0.512259 0.673845 1.964000 74 44 69
-0.512259 0.677283 1.964000 72 44 73
-0.509130 0.676561 1.952000 71 45 67
-0.506260 0.676147 1.941000 71 45 61
-0.497914 0.668341 1.909000 71 45 60
-0.495306 0.668164 1.899000 72 46 59
-0.492437 0.667599 1.888000 74 46 59
-0.489829 0.667350 1.878000 77 47 60
-0.484612 0.663496 1.858000 80 49 63
-0.482004 0.663160 1.848000 74 49 67
-0.479396 0.662788 1.838000 68 48 68
-0.479396 0.666006 1.838000 59 50 69
-0.476787 0.665582 1.828000 50 54 66
-0.476787 0.668782 1.828000 57 58 64
-0.474440 0.668674 1.819000 65 56 67
-0.469484 0.664840 1.800000 68 55 69
-0.466876 0.664280 1.790000 71 53 66
-0.464529 0.664057 1.781000 71 55 63
-0.459834 0.660432 1.763000 71 51 62
-0.459834 0.663518 1.763000 71 46 62
-0.457486 0.663202 1.754000 72 47 63
-0.455139 0.662853 1.745000 68 53 64
-0.452791 0.662473 1.736000 64 51 66
-0.450705 0.662445 1.728000 65 50 69
-0.446271 0.658923 1.711000 67 49 69
-0.441837 0.655342 1.694000 67 55 69
-0.439750 0.655198 1.686000 68 53 60
-0.953133 0.759931 3.679000 63 27 24
-0.953133 0.766371 3.679000 64 29 23
-0.953133 0.772811 3.679000 66 29 24
-0.943029 0.770990 3.640000 63 35 25
-0.923599 0.761345 3.565000 59 42 23
-0.895878 0.744547 3.458000 54 41 21
-0.886810 0.743003 3.423000 48 41 38
-0.886810 0.748995 3.423000 54 36 56
-0.878261 0.747709 3.390000 60 38 38
-0.869711 0.746306 3.357000 60 38 21
-0.861162 0.744789 3.324000 60 40 28
-0.853131 0.743607 3.293000 62 39 35
-0.845099 0.742317 3.262000 64 40 38
-0.829296 0.734039 3.201000 62 41 41
-0.814270 0.726241 3.143000 60 42 51
-0.807016 0.725224 3.115000 61 40 62
-0.799761 0.724108 3.087000 62 42 49
-0.792507 0.722896 3.059000 67 42 37
-0.792507 0.728250 3.059000 72 41 46
-0.778776 0.720895 3.006000 68 40 56
-0.778776 0.726157 3.006000 64 40 47
-0.772041 0.725092 2.980000 62 41 39
-0.765564 0.724182 2.955000 60 41 30
-0.765564 0.729355 2.955000 60 41 21
-0.752610 0.722099 2.905000 60 43 23
-0.746392 0.721176 2.881000 59 42 25
-0.740174 0.720170 2.857000 59 39 35
-0.734216 0.719333 2.834000 66 37 46
-0.727998 0.718160 2.810000 73 37 44
-0.722298 0.717418 2.788000 66 37 42
-0.716340 0.716340 2.765000 60 39 43
-0.710640 0.715442 2.743000 63 41 45
-0.699759 0.709215 2.701000 66 42 43
-0.683696 0.697555 2.639000 69 44 42
-0.683696 0.702175 2.639000 72 45 40
-0.678515 0.701438 2.619000 69 43 38
-0.678515 0.706022 2.619000 67 44 42
-0.673333 0.705180 2.599000 65 42 46
-0.668411 0.704541 2.580000 63 41 49
-0.663230 0.703561 2.560000 59 41 53
-0.653644 0.697809 2.523000 55 44 54
-0.644317 0.692206 2.487000 60 44 56
-0.644317 0.696559 2.487000 65 47 57
-0.639654 0.695840 2.469000 65 44 58
-0.639654 0.700162 2.469000 66 44 55
-0.634990 0.699348 2.451000 65 40 53
-0.630586 0.698758 2.434000 65 36 62
-0.626182 0.698108 2.417000 65 38 72
-0.621778 0.697399 2.400000 64 41 60
-0.617632 0.696923 2.384000 63 40 48
-0.613228 0.696097 2.367000 63 41 55
-0.604938 0.690774 2.335000 68 42 62
-0.601052 0.690397 2.320000 74 42 62
-0.593020 0.685179 2.289000 70 43 62
-0.589134 0.684670 2.274000 65 46 73
-0.585248 0.684108 2.259000 66 46 85
-0.581362 0.683493 2.244000 67 47 67
-0.581362 0.687422 2.244000 72 50 49
-0.577735 0.687036 2.230000 77 50 51
-0.573849 0.686292 2.215000 73 51 53
-0.570222 0.685808 2.201000 70 53 54
-0.566595 0.685274 2.187000 67 50 56
-0.566595 0.689102 2.187000 64 49 55
-0.563227 0.688811 2.174000 66 48 55
-0.556232 0.684015 2.147000 68 47 52
-0.556232 0.687773 2.147000 65 48 50
-0.549237 0.682835 2.120000 63 51 50
-0.542760 0.678450 2.095000 67 50 50
-0.536024 0.673652 2.069000 71 50 54
-0.532915 0.673346 2.057000 73 50 59
-0.532915 0.676947 2.057000 75 50 58
-0.529806 0.676577 2.045000 77 45 57
-0.529806 0.680157 2.045000 80 44 56
-0.526697 0.679725 2.033000 70 46 55
-0.520480 0.675217 2.009000 60 45 61
-0.517630 0.675017 1.998000 66 44 68
-0.514521 0.674440 1.986000 72 44 68
-0.511671 0.674161 1.975000 73 43 68
-0.508821 0.673845 1.964000 74 45 75
-0.508821 0.677283 1.964000 72 46 82
-0.505713 0.676561 1.952000 70 47 73
-0.502863 0.676147 1.941000 69 47 64
-0.494572 0.668341 1.909000 68 47 64
-0.491982 0.668164 1.899000 70 46 65
-0.489132 0.667599 1.888000 73 46 64
-0.486541 0.667350 1.878000 74 47 63
-0.481360 0.663496 1.858000 76 50 70
-0.478769 0.663160 1.848000 73 49 78
-0.476178 0.662788 1.838000 69 49 74
-0.476178 0.666006 1.838000 62 50 70
-0.473587 0.665582 1.828000 55 56 65
-0.473587 0.668782 1.828000 60 57 61
-0.471256 0.668674 1.819000 65 58 65
-0.466333 0.664840 1.800000 68 52 70
-0.463742 0.664280 1.790000 71 50 68
-0.461411 0.664057 1.781000 72 53 67
-0.459079 0.663804 1.772000 73 54 75
-0.456747 0.663518 1.763000 73 46 84
-0.454416 0.663202 1.754000 73 42 75
-0.452084 0.662853 1.745000 72 48 66
-0.452084 0.665908 1.745000 71 53 70
-0.447680 0.662445 1.728000 69 48 74
-0.443276 0.658923 1.711000 67 45 75
-0.440944 0.658437 1.702000 70 49 76
-0.438871 0.658307 1.694000 73 52 67
-0.898831 0.745969 3.493000 60 38 21
-0.880818 0.737011 3.423000 57 41 15
-0.880818 0.743003 3.423000 55 37 32
-0.880818 0.748995 3.423000 58 34 48
-0.872327 0.747709 3.390000 62 35 40
-0.863835 0.746306 3.357000 61 38 32
-0.863835 0.752183 3.357000 60 37 38
-0.847366 0.743607 3.293000 62 37 44
-0.839389 0.742317 3.262000 64 39 42
-0.823693 0.734039 3.201000 63 43 41
-0.816230 0.732942 3.172000 63 40 46
-0.801563 0.725224 3.115000 62 36 51
-0.801563 0.730676 3.115000 62 40 43
-0.787153 0.722896 3.059000 69 45 36
-0.787153 0.728250 3.059000 77 41 42
-0.780462 0.727370 3.033000 70 38 48
-0.773515 0.726157 3.006000 64 41 41
-0.766824 0.725092 2.980000 62 43 34
-0.766824 0.730309 2.980000 60 40 31
-0.760391 0.729355 2.955000 61 40 28
-0.747525 0.722099 2.905000 62 40 28
-0.741349 0.721176 2.881000 65 44 28
-0.735173 0.720170 2.857000 69 40 35
-0.735173 0.725171 2.857000 74 34 43
-0.729255 0.724294 2.834000 79 36 43
-0.717418 0.717418 2.788000 73 37 43
-0.711500 0.716340 2.765000 67 40 42
-0.711500 0.721180 2.765000 67 42 42
-0.695031 0.709215 2.701000 68 43 42
-0.679077 0.697555 2.639000 72 46 42
-0.679077 0.702175 2.639000 76 45 41
-0.673930 0.701438 2.619000 72 44 40
-0.673930 0.706022 2.619000 68 43 40
-0.668784 0.705180 2.599000 64 43 40
-0.663895 0.704541 2.580000 60 42 34
-0.658748 0.703561 2.560000 53 41 28
-0.654116 0.703064 2.542000 47 42 38
-0.639964 0.692206 2.487000 55 45 47
-0.639964 0.696559 2.487000 64 43 50
-0.635332 0.695840 2.469000 64 42 53
-0.630700 0.695057 2.451000 65 41 52
-0.630700 0.699348 2.451000 65 39 50
-0.626325 0.698758 2.434000 66 37 54
-0.621951 0.698108 2.417000 65 39 57
-0.617576 0.697399 2.400000 64 40 54
-0.613459 0.696923 2.384000 65 40 52
-0.609085 0.696097 2.367000 66 41 56
-0.604968 0.695507 2.351000 67 42 60
-0.596991 0.690397 2.320000 68 43 61
-0.592873 0.689669 2.304000 65 44 63
-0.585154 0.684670 2.274000 62 46 70
-0.581294 0.684108 2.259000 63 46 77
-0.581294 0.688062 2.259000 65 49 63
-0.577434 0.687422 2.244000 70 52 49
-0.573831 0.687036 2.230000 76 51 50
-0.569972 0.686292 2.215000 74 49 51
-0.569972 0.690170 2.215000 72 51 51
-0.562767 0.685274 2.187000 70 51 52
-0.562767 0.689102 2.187000 68 50 52
-0.559421 0.688811 2.174000 70 48 52
-0.555819 0.688157 2.160000 72 46 51
-0.552474 0.687773 2.147000 71 47 50
-0.545526 0.682835 2.120000 70 50 47
-0.542181 0.682336 2.107000 70 49 44
-0.532402 0.673652 2.069000 71 49 57
-0.529315 0.673346 2.057000 73 49 71
-0.529315 0.676947 2.057000 75 47 60
-0.526227 0.676577 2.045000 74 47 50
-0.526227 0.680157 2.045000 73 46 55
-0.523139 0.679725 2.033000 63 46 60
-0.516963 0.675217 2.009000 53 45 61
-0.514132 0.675017 1.998000 62 42 63
-0.511045 0.674440 1.986000 72 43 52
-0.508214 0.674161 1.975000 73 41 41
-0.505383 0.673845 1.964000 75 43 55
-0.502296 0.673144 1.952000 72 48 70
-0.502296 0.676561 1.952000 69 48 68
-0.499465 0.676147 1.941000 67 49 67
-0.494061 0.672192 1.920000 65 47 72
-0.491231 0.671683 1.909000 68 47 77
-0.485827 0.667599 1.888000 72 46 71
-0.483254 0.667350 1.878000 72 46 65
-0.478107 0.663496 1.858000 73 48 67
-0.475534 0.663160 1.848000 72 49 70
-0.472961 0.662788 1.838000 71 47 70
-0.472961 0.666006 1.838000 65 47 71
-0.470387 0.665582 1.828000 60 52 66
-0.470387 0.668782 1.828000 63 59 61
-0.465498 0.664998 1.809000 66 55 60
-0.463182 0.664840 1.800000 68 47 58
-0.460609 0.664280 1.790000 71 49 63
-0.458293 0.664057 1.781000 73 53 67
-0.455977 0.663804 1.772000 75 50 73
-0.453661 0.663518 1.763000 75 43 80
-0.453661 0.666605 1.763000 75 43 64
-0.449030 0.662853 1.745000 77 46 49
-0.446714 0.662473 1.736000 79 48 60
-0.442339 0.658995 1.719000 73 46 72
-0.440281 0.658923 1.711000 68 45 77
-0.435906 0.655342 1.694000 73 46 82
-0.433847 0.655198 1.686000 78 48 73
-0.883772 0.738494 3.458000 62 36 19
-0.874827 0.737011 3.423000 59 37 10
-0.874827 0.743003 3.423000 57 34 25
-0.866393 0.741774 3.390000 62 32 41
-0.866393 0.747709 3.390000 67 30 42
-0.857959 0.746306 3.357000 65 33 44
-0.849525 0.744789 3.324000 62 34 49
-0.825757 0.729607 3.231000 63 36 54
-0.818089 0.728436 3.201000 64 36 47
-0.810678 0.727389 3.172000 67 39 41
-0.803266 0.726241 3.143000 69 39 41
-0.796110 0.725224 3.115000 63 36 41
-0.788954 0.724108 3.087000 58 39 38
-0.781798 0.722896 3.059000 65 41 35
-0.781798 0.728250 3.059000 72 41 37
-0.775153 0.727370 3.033000 65 40 40
-0.768253 0.726157 3.006000 59 43 35
-0.761608 0.725092 2.980000 60 40 30
-0.761608 0.730309 2.980000 61 36 33
-0.755218 0.729355 2.955000 61 37 36
-0.742440 0.722099 2.905000 62 36 33
-0.736306 0.721176 2.881000 66 40 31
-0.730172 0.720170 2.857000 69 45 35
-0.730172 0.725171 2.857000 71 39 40
-0.724294 0.724294 2.834000 74 36 42
-0.718160 0.723079 2.810000 70 36 44
-0.712538 0.722299 2.788000 67 42 42
-0.706659 0.721180 2.765000 67 41 40
-0.690303 0.709215 2.701000 67 44 41
-0.674457 0.697555 2.639000 69 45 43
-0.674457 0.702175 2.639000 71 46 42
-0.669346 0.701438 2.619000 68 43 42
-0.669346 0.706022 2.619000 66 42 38
-0.664234 0.705180 2.599000 63 43 34
-0.659379 0.704541 2.580000 61 45 19
-0.654267 0.703561 2.560000 58 42 4
-0.649667 0.703064 2.542000 55 41 21
-0.635610 0.692206 2.487000 62 41 39
-0.631010 0.691518 2.469000 70 39 44
-0.631010 0.695840 2.469000 68 40 49
-0.626410 0.695057 2.451000 65 41 48
-0.626410 0.699348 2.451000 65 38 48
-0.622065 0.698758 2.434000 65 34 45
-0.617720 0.698108 2.417000 63 38 43
-0.613375 0.697399 2.400000 61 41 49
-0.609286 0.696923 2.384000 63 42 56
-0.604941 0.696097 2.367000 66 44 57
-0.600852 0.695507 2.351000 67 44 58
-0.596763 0.694861 2.335000 68 47 61
-0.588840 0.689669 2.304000 65 46 64
-0.581173 0.684670 2.274000 62 50 66
-0.581173 0.688650 2.274000 61 49 69
-0.577340 0.688062 2.259000 60 51 59
-0.573506 0.687422 2.244000 70 51 49
-0.569928 0.687036 2.230000 80 53 49
-0.566094 0.686292 2.215000 77 51 49
-0.566094 0.690170 2.215000 74 51 48
-0.558938 0.685274 2.187000 74 52 48
-0.558938 0.689102 2.187000 73 52 48
-0.555616 0.688811 2.174000 73 47 49
-0.552038 0.688157 2.160000 73 44 49
-0.548715 0.687773 2.147000 72 47 50
-0.541815 0.682835 2.120000 70 53 44
-0.532103 0.674240 2.082000 68 49 38
-0.528781 0.673652 2.069000 67 48 60
-0.525714 0.673346 2.057000 71 47 83
-0.525714 0.676947 2.057000 75 45 63
-0.522647 0.676577 2.045000 73 47 44
-0.522647 0.680157 2.045000 72 47 54
-0.519580 0.679725 2.033000 66 47 65
-0.513446 0.675217 2.009000 60 49 61
-0.510635 0.675017 1.998000 67 45 58
-0.504757 0.670704 1.975000 74 45 36
-0.501945 0.670407 1.964000 75 42 14
-0.501945 0.673845 1.964000 76 41 36
-0.498879 0.673144 1.952000 73 47 58
-0.498879 0.676561 1.952000 70 51 64
-0.496067 0.676147 1.941000 68 49 71
-0.490700 0.672192 1.920000 67 47 80
-0.487889 0.671683 1.909000 69 47 89
-0.485333 0.671488 1.899000 72 47 78
-0.479966 0.667350 1.878000 74 47 67
-0.477410 0.667067 1.868000 76 49 65
-0.474855 0.666748 1.858000 73 48 63
-0.469743 0.662788 1.838000 71 46 67
-0.467188 0.662382 1.828000 66 47 72
-0.467188 0.665582 1.828000 62 49 67
-0.464887 0.665489 1.819000 64 54 62
-0.460031 0.661689 1.800000 67 56 54
-0.457476 0.661146 1.790000 66 50 47
-0.455176 0.660940 1.781000 66 46 57
-0.455176 0.664057 1.781000 69 50 68
-0.450575 0.660432 1.763000 72 50 72
-0.450575 0.663518 1.763000 71 46 76
-0.448275 0.663202 1.754000 71 43 54
-0.443675 0.659435 1.736000 72 46 32
-0.441630 0.659420 1.728000 74 49 51
-0.439330 0.658995 1.719000 71 47 71
-0.439330 0.662004 1.719000 68 45 80
-0.434985 0.658437 1.702000 70 46 89
-0.432941 0.658307 1.694000 72 49 80
-0.877718 0.738494 3.458000 65 33 17
-0.868834 0.737011 3.423000 62 39 5
-0.868834 0.743003 3.423000 59 36 27
-0.860458 0.741774 3.390000 66 31 50
-0.860458 0.747709 3.390000 73 29 47
-0.852082 0.746306 3.357000 69 30 44
-0.852082 0.752183 3.357000 65 35 46
-0.827969 0.736607 3.262000 65 37 48
-0.820101 0.735263 3.231000 65 39 42
-0.805125 0.727389 3.172000 70 41 36
-0.797764 0.726241 3.143000 76 37 37
-0.797764 0.731743 3.143000 65 33 38
-0.783550 0.724108 3.087000 54 38 41
-0.776443 0.722896 3.059000 60 40 45
-0.776443 0.728250 3.059000 67 41 39
-0.769844 0.727370 3.033000 61 41 33
-0.762990 0.726157 3.006000 55 39 26
-0.756391 0.725092 2.980000 58 40 20
-0.750046 0.724182 2.955000 62 39 33
-0.743700 0.723184 2.930000 62 38 47
-0.737354 0.722099 2.905000 63 36 41
-0.731263 0.721176 2.881000 66 38 36
-0.725171 0.720170 2.857000 70 42 38
-0.725171 0.725171 2.857000 69 43 40
-0.719333 0.724294 2.834000 69 37 43
-0.713241 0.723079 2.810000 68 32 47
-0.707657 0.722299 2.788000 67 38 42
-0.701819 0.721180 2.765000 67 38 38
-0.696235 0.720243 2.743000 67 41 41
-0.669838 0.697555 2.639000 66 45 43
-0.669838 0.702175 2.639000 66 43 51
-0.664761 0.701438 2.619000 65 40 59
-0.664761 0.706022 2.619000 65 41 53
-0.659685 0.705180 2.599000 63 42 47
-0.654862 0.704541 2.580000 62 41 40
-0.649786 0.703561 2.560000 62 41 34
-0.645217 0.703064 2.542000 63 41 38
-0.631257 0.692206 2.487000 70 42 42
-0.626688 0.691518 2.469000 77 41 45
-0.622119 0.690767 2.451000 71 39 48
-0.622119 0.695057 2.451000 66 39 52
-0.617804 0.694497 2.434000 65 38 55
-0.613489 0.693877 2.417000 65 38 51
-0.609174 0.693198 2.400000 61 41 47
-0.605113 0.692750 2.384000 58 42 51
-0.600798 0.691954 2.367000 62 46 56
-0.600798 0.696097 2.367000 67 44 58
-0.596737 0.695507 2.351000 67 44 60
-0.592676 0.694861 2.335000 68 45 65
-0.588868 0.694459 2.320000 65 46 71
-0.577192 0.684670 2.274000 62 48 67
-0.573385 0.684108 2.259000 59 49 63
-0.569578 0.683493 2.244000 56 50 57
-0.566024 0.683133 2.230000 70 50 52
-0.562217 0.682415 2.215000 85 51 50
-0.562217 0.686292 2.215000 81 52 48
-0.558663 0.685808 2.201000 77 53 53
-0.555110 0.685274 2.187000 78 54 58
-0.555110 0.689102 2.187000 79 50 46
-0.548257 0.684376 2.160000 77 44 35
-0.544957 0.684015 2.147000 75 45 44
-0.544957 0.687773 2.147000 73 47 53
-0.538104 0.682835 2.120000 71 48 50
-0.528458 0.674240 2.082000 67 47 48
-0.525159 0.673652 2.069000 63 46 60
-0.522113 0.673346 2.057000 69 46 73
-0.522113 0.676947 2.057000 75 46 63
-0.519067 0.676577 2.045000 73 50 53
-0.519067 0.680157 2.045000 72 48 60
-0.516021 0.679725 2.033000 69 47 67
-0.509929 0.675217 2.009000 67 47 68
-0.507137 0.675017 1.998000 71 46 70
-0.507137 0.678515 1.998000 76 44 53
-0.501300 0.674161 1.975000 76 44 35
-0.498507 0.673845 1.964000 77 45 48
-0.495462 0.673144 1.952000 74 50 61
-0.495462 0.676561 1.952000 72 51 63
-0.487339 0.668831 1.920000 70 51 66
-0.487339 0.672192 1.920000 69 49 68
-0.484547 0.671683 1.909000 71 50 71
-0.482009 0.671488 1.899000 73 50 66
-0.476679 0.667350 1.878000 76 49 61
-0.474140 0.667067 1.868000 80 50 56
-0.471602 0.666748 1.858000 75 51 51
-0.469064 0.666394 1.848000 71 48 63
-0.466526 0.666006 1.838000 67 47 75
-0.463988 0.665582 1.828000 64 50 70
-0.461703 0.665489 1.819000 66 54 65
-0.456881 0.661689 1.800000 68 54 58
-0.454342 0.661146 1.790000 65 51 51
-0.454342 0.664280 1.790000 62 50 59
-0.452058 0.664057 1.781000 66 52 68
-0.449774 0.663804 1.772000 70 50 72
-0.447489 0.663518 1.763000 68 49 76
-0.445205 0.663202 1.754000 67 47 67
-0.442920 0.662853 1.745000 68 46 58
-0.440636 0.662473 1.736000 69 49 62
-0.438605 0.662445 1.728000 68 51 65
-0.436321 0.662004 1.719000 68 46 64
-0.434290 0.661918 1.711000 67 44 63
-0.427945 0.655198 1.686000 67 47 65
-0.871665 0.738494 3.458000 63 30 15
-0.862843 0.737011 3.423000 60 35 1
-0.862843 0.743003 3.423000 57 41 30
-0.854524 0.741774 3.390000 62 34 59
-0.854524 0.747709 3.390000 67 26 52
-0.846206 0.746306 3.357000 65 30 45
-0.837887 0.744789 3.324000 63 39 43
-0.814445 0.729607 3.231000 63 39 42
-0.806883 0.728436 3.201000 63 43 36
-0.799573 0.727389 3.172000 66 41 31
-0.799573 0.732942 3.172000 69 37 33
-0.792262 0.731743 3.143000 63 38 35
-0.778146 0.724108 3.087000 58 41 45
-0.771088 0.722896 3.059000 61 41 56
-0.764535 0.722060 3.033000 64 42 41
-0.764535 0.727370 3.033000 61 40 26
-0.757729 0.726157 3.006000 59 35 18
-0.751175 0.725092 2.980000 61 38 10
-0.744873 0.724182 2.955000 63 44 34
-0.738571 0.723184 2.930000 62 39 58
-0.726220 0.716133 2.881000 61 35 49
-0.720170 0.715169 2.857000 66 38 41
-0.720170 0.720170 2.857000 70 42 40
-0.714372 0.719333 2.834000 71 41 40
-0.708322 0.718160 2.810000 71 40 45
-0.702777 0.717418 2.788000 66 39 50
-0.702777 0.722299 2.788000 61 42 43
-0.696979 0.721180 2.765000 66 40 37
-0.691434 0.720243 2.743000 71 39 40
-0.680847 0.713943 2.701000 69 42 44
-0.675553 0.713084 2.680000 68 44 60
-0.665218 0.706794 2.639000 69 41 77
-0.660177 0.706022 2.619000 70 41 68
-0.655135 0.705180 2.599000 66 38 60
-0.655135 0.709730 2.599000 62 38 62
-0.645304 0.703561 2.560000 64 38 65
-0.635978 0.697809 2.523000 65 42 55
-0.626903 0.692206 2.487000 69 41 45
-0.622366 0.691518 2.469000 73 44 46
-0.617829 0.690767 2.451000 71 42 48
-0.617829 0.695057 2.451000 69 41 55
-0.617829 0.699348 2.451000 69 39 63
-0.609258 0.693877 2.417000 69 40 57
-0.609258 0.698108 2.417000 69 41 52
-0.604973 0.697399 2.400000 69 41 54
-0.600940 0.696923 2.384000 69 42 56
-0.596654 0.696097 2.367000 69 43 59
-0.592621 0.695507 2.351000 70 43 62
-0.588588 0.694861 2.335000 72 43 70
-0.584807 0.694459 2.320000 68 46 78
-0.576993 0.689186 2.289000 64 47 68
-0.573212 0.688650 2.274000 63 49 58
-0.565650 0.683493 2.244000 61 51 56
-0.562121 0.683133 2.230000 70 51 55
-0.558340 0.682415 2.215000 79 50 51
-0.558340 0.686292 2.215000 76 52 47
-0.554811 0.685808 2.201000 74 55 58
-0.551282 0.685274 2.187000 75 52 69
-0.548005 0.685006 2.174000 76 50 45
-0.544476 0.684376 2.160000 74 47 21
-0.541199 0.684015 2.147000 73 48 38
-0.537670 0.683289 2.133000 71 47 56
-0.531116 0.678648 2.107000 70 46 57
-0.524814 0.674240 2.082000 69 46 58
-0.521537 0.673652 2.069000 68 45 61
-0.518512 0.673346 2.057000 75 44 64
-0.518512 0.676947 2.057000 82 43 63
-0.515487 0.676577 2.045000 77 47 63
-0.512462 0.676166 2.033000 72 49 66
-0.512462 0.679725 2.033000 70 47 69
-0.509438 0.679250 2.021000 69 47 76
-0.506413 0.678734 2.009000 72 47 83
-0.500615 0.674440 1.986000 75 44 70
-0.497842 0.674161 1.975000 77 45 57
-0.495070 0.673845 1.964000 80 46 61
-0.495070 0.677283 1.964000 77 49 65
-0.492045 0.676561 1.952000 74 55 63
-0.483978 0.668831 1.920000 72 51 61
-0.483978 0.672192 1.920000 70 51 57
-0.481206 0.671683 1.909000 71 52 54
-0.478685 0.671488 1.899000 72 54 55
-0.475912 0.670904 1.888000 75 53 56
-0.470871 0.667067 1.868000 77 54 48
-0.470871 0.670337 1.868000 73 51 40
-0.468350 0.670000 1.858000 69 50 59
-0.463308 0.666006 1.838000 68 49 78
-0.458519 0.662305 1.819000 68 50 73
-0.458519 0.665489 1.819000 70 53 68
-0.453730 0.661689 1.800000 72 55 62
-0.451209 0.661146 1.790000 69 51 56
-0.451209 0.664280 1.790000 65 51 62
-0.448940 0.664057 1.781000 68 50 68
-0.446672 0.663804 1.772000 71 50 72
-0.444403 0.663518 1.763000 72 48 76
-0.442134 0.663202 1.754000 74 50 80
-0.439866 0.662853 1.745000 73 48 85
-0.437597 0.662473 1.736000 72 50 72
-0.435580 0.662445 1.728000 73 50 60
-0.433312 0.662004 1.719000 73 47 49
-0.431295 0.661918 1.711000 67 46 38
-0.427010 0.658307 1.694000 60 49 51
-0.865612 0.738494 3.458000 62 33 22
-0.856851 0.737011 3.423000 59 32 11
-0.856851 0.743003 3.423000 56 37 30
-0.848590 0.741774 3.390000 59 39 49
-0.848590 0.747709 3.390000 62 31 44
-0.840329 0.746306 3.357000 62 26 39
-0.832069 0.744789 3.324000 62 32 39
-0.816549 0.736607 3.262000 62 40 39
-0.808789 0.735263 3.231000 62 42 30
-0.801279 0.734039 3.201000 62 44 22
-0.794020 0.732942 3.172000 63 40 26
-0.786761 0.731743 3.143000 62 41 30
-0.772743 0.724108 3.087000 62 41 39
-0.772743 0.729512 3.087000 61 43 47
-0.765734 0.728250 3.059000 61 44 37
-0.759225 0.727370 3.033000 62 44 27
-0.752466 0.726157 3.006000 63 39 26
-0.745958 0.725092 2.980000 63 36 25
-0.739700 0.724182 2.955000 64 41 37
-0.739700 0.729355 2.955000 62 42 48
-0.727184 0.722099 2.905000 60 38 44
-0.721176 0.721176 2.881000 65 37 40
-0.715169 0.720170 2.857000 71 41 40
-0.709411 0.719333 2.834000 72 40 40
-0.697896 0.712538 2.788000 74 42 42
-0.697896 0.717418 2.788000 65 45 45
-0.697896 0.722299 2.788000 56 43 41
-0.692139 0.721180 2.765000 66 44 38
-0.686632 0.720243 2.743000 76 41 33
-0.681375 0.719494 2.722000 73 42 29
-0.676118 0.718672 2.701000 70 42 46
-0.660599 0.706794 2.639000 72 42 64
-0.655592 0.706022 2.619000 75 38 60
-0.650586 0.705180 2.599000 69 34 56
-0.650586 0.709730 2.599000 63 34 58
-0.640823 0.703561 2.560000 65 34 61
-0.631561 0.697809 2.523000 68 39 53
-0.618044 0.687196 2.469000 69 39 46
-0.618044 0.691518 2.469000 70 42 47
-0.613538 0.690767 2.451000 71 44 49
-0.613538 0.695057 2.451000 72 41 54
-0.613538 0.699348 2.451000 72 38 60
-0.609282 0.698758 2.434000 73 41 55
-0.600772 0.693198 2.400000 76 44 49
-0.596766 0.692750 2.384000 80 41 53
-0.592511 0.691954 2.367000 75 39 56
-0.592511 0.696097 2.367000 71 42 57
-0.588506 0.695507 2.351000 74 42 58
-0.584501 0.694861 2.335000 77 44 61
-0.580746 0.694459 2.320000 72 48 64
-0.569231 0.684670 2.274000 67 49 53
-0.565476 0.684108 2.259000 67 50 43
-0.561722 0.683493 2.244000 67 51 45
-0.558217 0.683133 2.230000 70 55 47
-0.554462 0.682415 2.215000 73 53 38
-0.550958 0.681955 2.201000 72 54 30
-0.550958 0.685808 2.201000 72 53 44
-0.544199 0.681200 2.174000 72 51 59
-0.540694 0.680595 2.160000 73 50 47
-0.540694 0.684376 2.160000 72 49 36
-0.537440 0.684015 2.147000 71 48 45
-0.533936 0.683289 2.133000 70 50 54
-0.527427 0.678648 2.107000 69 47 49
-0.521169 0.674240 2.082000 71 46 44
-0.517915 0.673652 2.069000 73 46 53
-0.514911 0.673346 2.057000 81 45 62
-0.511907 0.672997 2.045000 89 46 68
-0.511907 0.676577 2.045000 81 47 74
-0.508904 0.676166 2.033000 73 48 71
-0.505900 0.675712 2.021000 72 46 68
-0.502896 0.675217 2.009000 71 47 70
-0.502896 0.678734 2.009000 73 51 72
-0.500142 0.678515 1.998000 75 47 64
-0.494385 0.674161 1.975000 79 46 55
-0.491631 0.673845 1.964000 83 45 52
-0.491631 0.677283 1.964000 79 47 49
-0.488628 0.676561 1.952000 76 49 56
-0.480617 0.668831 1.920000 74 49 63
-0.477864 0.668341 1.909000 72 50 59
-0.477864 0.671683 1.909000 72 54 56
-0.475361 0.671488 1.899000 72 53 55
-0.472607 0.670904 1.888000 73 55 55
-0.470104 0.670638 1.878000 75 53 52
-0.467601 0.670337 1.868000 71 52 49
-0.465097 0.670000 1.858000 67 50 58
-0.460091 0.666006 1.838000 69 50 68
-0.455335 0.662305 1.819000 72 50 66
-0.452832 0.661831 1.809000 74 53 63
-0.450579 0.661689 1.800000 77 52 61
-0.448076 0.661146 1.790000 73 50 59
-0.448076 0.664280 1.790000 69 48 67
-0.448076 0.667413 1.790000 70 47 76
-0.443570 0.663804 1.772000 72 46 74
-0.441317 0.663518 1.763000 77 45 73
-0.439064 0.663202 1.754000 82 46 74
-0.436811 0.662853 1.745000 79 46 76
-0.434558 0.662473 1.736000 76 49 68
-0.432556 0.662445 1.728000 77 54 60
-0.430303 0.662004 1.719000 79 57 56
-0.430303 0.665013 1.719000 66 46 53
-0.428300 0.664914 1.711000 54 48 60
-0.876959 0.747268 3.528000 54 36 39
-0.859559 0.738494 3.458000 52 39 30
-0.859559 0.744547 3.458000 54 35 21
-0.850859 0.743003 3.423000 57 38 30
-0.842656 0.741774 3.390000 59 36 39
-0.842656 0.747709 3.390000 62 33 36
-0.834453 0.746306 3.357000 61 28 34
-0.826250 0.744789 3.324000 60 26 35
-0.810839 0.736607 3.262000 58 36 36
-0.803133 0.735263 3.231000 57 43 25
-0.795676 0.734039 3.201000 59 42 14
-0.788467 0.732942 3.172000 61 40 20
-0.781259 0.731743 3.143000 61 39 26
-0.767339 0.724108 3.087000 61 41 32
-0.767339 0.729512 3.087000 58 44 39
-0.760379 0.728250 3.059000 55 47 33
-0.753916 0.727370 3.033000 62 44 28
-0.740742 0.719876 2.980000 70 42 34
-0.740742 0.725092 2.980000 66 41 41
-0.734527 0.724182 2.955000 63 43 40
-0.734527 0.729355 2.955000 58 41 39
-0.728313 0.728313 2.930000 52 38 39
-0.716133 0.721176 2.881000 60 40 40
-0.710167 0.720170 2.857000 69 45 40
-0.704450 0.719333 2.834000 68 44 40
-0.693016 0.712538 2.788000 68 45 40
-0.693016 0.717418 2.788000 63 44 40
-0.687299 0.716340 2.765000 58 44 40
-0.687299 0.721180 2.765000 63 42 40
-0.676610 0.714729 2.722000 69 40 27
-0.671390 0.713943 2.701000 69 43 14
-0.666170 0.713084 2.680000 68 42 32
-0.655979 0.706794 2.639000 69 38 51
-0.655979 0.711414 2.639000 70 35 51
-0.651008 0.710607 2.619000 65 35 52
-0.651008 0.715191 2.619000 59 33 54
-0.636342 0.703561 2.560000 62 37 57
-0.631868 0.703064 2.542000 65 44 52
-0.613722 0.687196 2.469000 63 42 47
-0.613722 0.691518 2.469000 61 42 48
-0.609248 0.690767 2.451000 66 43 50
-0.609248 0.695057 2.451000 72 42 54
-0.605022 0.694497 2.434000 71 41 58
-0.600796 0.693877 2.417000 71 43 52
-0.596570 0.693198 2.400000 70 43 47
-0.592593 0.692750 2.384000 69 42 52
-0.588368 0.691954 2.367000 69 42 57
-0.584391 0.691392 2.351000 70 44 56
-0.580413 0.690774 2.335000 71 44 55
-0.580413 0.694861 2.335000 72 44 53
-0.568979 0.685179 2.289000 67 48 51
-0.565251 0.684670 2.274000 62 51 39
-0.565251 0.688650 2.274000 64 49 28
-0.561522 0.688062 2.259000 67 50 33
-0.557793 0.687422 2.244000 66 52 39
-0.554313 0.687036 2.230000 66 55 26
-0.550585 0.686292 2.215000 68 53 13
-0.547105 0.685808 2.201000 70 52 31
-0.543625 0.685274 2.187000 71 51 49
-0.536913 0.680595 2.160000 72 52 50
-0.536913 0.684376 2.160000 70 48 52
-0.533682 0.684015 2.147000 69 47 52
-0.530202 0.683289 2.133000 67 48 53
-0.523739 0.678648 2.107000 65 49 41
-0.520756 0.678450 2.095000 67 47 30
-0.514293 0.673652 2.069000 69 48 45
-0.511311 0.673346 2.057000 69 48 60
-0.508328 0.672997 2.045000 69 50 72
-0.508328 0.676577 2.045000 70 49 85
-0.505345 0.676166 2.033000 71 50 76
-0.502362 0.675712 2.021000 71 47 68
-0.499379 0.675217 2.009000 71 45 65
-0.499379 0.678734 2.009000 72 48 62
-0.496645 0.678515 1.998000 74 50 58
-0.490928 0.674161 1.975000 73 48 54
-0.490928 0.677619 1.975000 73 44 44
-0.488194 0.677283 1.964000 72 46 34
-0.485211 0.676561 1.952000 72 46 49
-0.477256 0.668831 1.920000 69 48 65
-0.477256 0.672192 1.920000 67 47 61
-0.474522 0.671683 1.909000 69 50 58
-0.469302 0.667599 1.888000 72 52 56
-0.469302 0.670904 1.888000 72 53 54
-0.466816 0.670638 1.878000 72 54 56
-0.464331 0.670337 1.868000 68 51 58
-0.464331 0.673607 1.868000 65 48 58
-0.456874 0.666006 1.838000 67 49 59
-0.449665 0.658664 1.809000 68 49 59
-0.449665 0.661831 1.809000 70 50 59
-0.447428 0.661689 1.800000 73 51 60
-0.444942 0.661146 1.790000 71 48 62
-0.444942 0.664280 1.790000 69 45 73
-0.444942 0.667413 1.790000 66 45 85
-0.440468 0.663804 1.772000 64 45 77
-0.438231 0.663518 1.763000 71 44 70
-0.433756 0.659799 1.745000 78 44 69
-0.433756 0.662853 1.745000 75 46 68
-0.431519 0.662473 1.736000 72 46 64
-0.429531 0.662445 1.728000 73 57 61
-0.427294 0.662004 1.719000 74 81 64
-0.427294 0.665013 1.719000 66 53 68
-0.423068 0.661416 1.702000 58 43 69
-0.870783 0.747268 3.528000 48 38 36
-0.853505 0.738494 3.458000 42 36 28
-0.853505 0.744547 3.458000 50 31 21
-0.844867 0.743003 3.423000 58 33 35
-0.844867 0.748995 3.423000 60 35 50
-0.836722 0.747709 3.390000 62 32 44
-0.828577 0.746306 3.357000 60 29 39
-0.820431 0.744789 3.324000 59 30 41
-0.797477 0.729607 3.231000 55 36 42
-0.790073 0.728436 3.201000 52 41 34
-0.782915 0.727389 3.172000 56 42 26
-0.782915 0.732942 3.172000 60 40 29
-0.782915 0.738494 3.172000 60 36 33
-0.768846 0.730676 3.115000 60 40 39
-0.761935 0.729512 3.087000 55 45 46
-0.748607 0.722060 3.033000 50 46 40
-0.741943 0.720895 3.006000 63 46 34
-0.735525 0.719876 2.980000 77 44 43
-0.735525 0.725092 2.980000 70 44 51
-0.729355 0.724182 2.955000 63 43 45
-0.729355 0.729355 2.955000 54 44 39
-0.717014 0.722099 2.905000 45 42 34
-0.711090 0.721176 2.881000 56 42 30
-0.705166 0.720170 2.857000 67 44 40
-0.699489 0.719333 2.834000 65 47 51
-0.688136 0.712538 2.788000 63 45 48
-0.682459 0.711500 2.765000 61 44 46
-0.682459 0.716340 2.765000 60 42 45
-0.677029 0.715442 2.743000 61 41 44
-0.671846 0.714729 2.722000 63 44 36
-0.666662 0.713943 2.701000 65 49 29
-0.661479 0.713084 2.680000 67 43 42
-0.656296 0.712151 2.659000 66 36 55
-0.646423 0.706022 2.619000 66 37 53
-0.641487 0.705180 2.599000 61 40 51
-0.641487 0.709730 2.599000 56 38 53
-0.631861 0.703561 2.560000 59 39 55
-0.618285 0.692831 2.505000 63 42 57
-0.613843 0.692206 2.487000 57 44 59
-0.609400 0.691518 2.469000 52 44 50
-0.609400 0.695840 2.469000 62 46 42
-0.604957 0.695057 2.451000 72 45 53
-0.600761 0.694497 2.434000 70 42 64
-0.596565 0.693877 2.417000 69 44 57
-0.592369 0.693198 2.400000 63 46 51
-0.588420 0.692750 2.384000 58 45 53
-0.584224 0.691954 2.367000 63 45 55
-0.580275 0.691392 2.351000 69 45 56
-0.580275 0.695507 2.351000 68 47 57
-0.576326 0.694861 2.335000 68 48 55
-0.564972 0.685179 2.289000 62 51 54
-0.561270 0.684670 2.274000 57 50 54
-0.561270 0.688650 2.274000 62 46 55
-0.557568 0.688062 2.259000 67 49 51
-0.553865 0.687422 2.244000 63 50 48
-0.550410 0.687036 2.230000 59 53 39
-0.546708 0.686292 2.215000 64 54 31
-0.543252 0.685808 2.201000 69 53 41
-0.536588 0.681200 2.174000 70 52 51
-0.533132 0.680595 2.160000 71 47 53
-0.533132 0.684376 2.160000 69 44 55
-0.529924 0.684015 2.147000 68 46 60
-0.529924 0.687773 2.147000 65 46 66
-0.523260 0.682835 2.120000 62 47 55
-0.517089 0.678450 2.095000 63 47 43
-0.510672 0.673652 2.069000 65 47 53
-0.507710 0.673346 2.057000 57 49 62
-0.504748 0.672997 2.045000 49 50 69
-0.504748 0.676577 2.045000 59 51 76
-0.498824 0.672175 2.021000 69 49 71
-0.498824 0.675712 2.021000 70 48 67
-0.495863 0.675217 2.009000 72 48 64
-0.495863 0.678734 2.009000 72 48 62
-0.493147 0.678515 1.998000 73 50 59
-0.490186 0.677916 1.986000 68 53 56
-0.487471 0.677619 1.975000 63 48 50
-0.484756 0.677283 1.964000 66 47 44
-0.481794 0.676561 1.952000 69 49 52
-0.473895 0.668831 1.920000 65 51 60
-0.471180 0.668341 1.909000 62 49 59
-0.468712 0.668164 1.899000 67 50 59
-0.465997 0.667599 1.888000 72 51 58
-0.463529 0.667350 1.878000 70 52 58
-0.463529 0.670638 1.878000 69 52 61
-0.461061 0.670337 1.868000 66 51 64
-0.461061 0.673607 1.868000 64 49 62
-0.458593 0.673253 1.858000 64 49 60
-0.448967 0.662305 1.819000 65 49 62
-0.446498 0.661831 1.809000 67 49 65
-0.444277 0.661689 1.800000 69 49 55
-0.441809 0.661146 1.790000 69 47 46
-0.441809 0.664280 1.790000 69 46 62
-0.439587 0.664057 1.781000 63 43 78
-0.435145 0.660432 1.763000 57 44 75
-0.432923 0.660131 1.754000 65 44 73
-0.430702 0.659799 1.745000 74 45 69
-0.430702 0.662853 1.745000 71 50 65
-0.428481 0.662473 1.736000 69 47 64
-0.426506 0.662445 1.728000 69 47 63
-0.424285 0.662004 1.719000 69 56 67
-0.422310 0.661918 1.711000 66 45 72
-0.420089 0.661416 1.702000 63 46 70
-0.963125 0.763621 3.930000 53 28 35
-0.963125 0.770500 3.930000 52 26 33
-0.952097 0.768478 3.885000 55 29 32
-0.882742 0.750331 3.602000 59 33 25
-0.882742 0.756636 3.602000 56 40 29
-0.873675 0.755105 3.565000 53 38 33
-0.864607 0.753443 3.528000 50 37 27
-0.856030 0.752083 3.493000 59 34 21
-0.838875 0.743003 3.423000 67 30 41
-0.830787 0.741774 3.390000 65 31 61
-0.822700 0.740430 3.357000 64 34 53
-0.814613 0.738970 3.324000 63 31 45
-0.807016 0.737843 3.293000 62 29 47
-0.791821 0.729607 3.231000 59 36 49
-0.784469 0.728436 3.201000 56 44 43
-0.784469 0.734039 3.201000 59 43 38
-0.777362 0.732942 3.172000 62 42 39
-0.777362 0.738494 3.172000 63 38 40
-0.763393 0.730676 3.115000 64 38 46
-0.749669 0.722896 3.059000 61 43 53
-0.743297 0.722060 3.033000 57 46 47
-0.736681 0.720895 3.006000 64 44 41
-0.730309 0.719876 2.980000 72 44 51
-0.724182 0.719009 2.955000 67 42 62
-0.724182 0.724182 2.955000 63 44 50
-0.718055 0.723184 2.930000 57 44 39
-0.711928 0.722099 2.905000 51 46 30
-0.706047 0.721176 2.881000 58 43 21
-0.700165 0.720170 2.857000 65 44 41
-0.694528 0.719333 2.834000 61 45 62
-0.683255 0.712538 2.788000 57 47 57
-0.677619 0.711500 2.765000 59 43 53
-0.677619 0.716340 2.765000 61 42 50
-0.667081 0.709964 2.722000 62 43 48
-0.661934 0.709215 2.701000 63 47 46
-0.661934 0.713943 2.701000 65 47 45
-0.656788 0.713084 2.680000 67 46 52
-0.651641 0.712151 2.659000 69 40 59
-0.646740 0.711414 2.639000 72 37 54
-0.641838 0.710607 2.619000 66 39 50
-0.636937 0.709730 2.599000 61 41 52
-0.627379 0.703561 2.560000 62 41 54
-0.613900 0.692831 2.505000 64 43 62
-0.609489 0.692206 2.487000 60 44 71
-0.609489 0.696559 2.487000 57 45 52
-0.605078 0.695840 2.469000 63 47 34
-0.600667 0.695057 2.451000 70 50 52
-0.600667 0.699348 2.451000 70 46 70
-0.592334 0.693877 2.417000 70 47 62
-0.588168 0.693198 2.400000 66 48 55
-0.584247 0.692750 2.384000 63 49 54
-0.584247 0.696923 2.384000 66 47 53
-0.580081 0.696097 2.367000 70 46 56
-0.576160 0.695507 2.351000 69 47 59
-0.572239 0.694861 2.335000 68 50 58
-0.560965 0.685179 2.289000 64 50 58
-0.557289 0.684670 2.274000 60 53 70
-0.557289 0.688650 2.274000 65 50 82
-0.553613 0.688062 2.259000 69 50 69
-0.549937 0.687422 2.244000 71 51 57
-0.546506 0.687036 2.230000 73 53 53
-0.539399 0.681955 2.201000 72 51 50
-0.535968 0.681445 2.187000 72 55 52
-0.532782 0.681200 2.174000 75 50 54
-0.529351 0.680595 2.160000 78 43 56
-0.529351 0.684376 2.160000 75 45 58
-0.526165 0.684015 2.147000 73 47 69
-0.526165 0.687773 2.147000 72 46 80
-0.519548 0.682835 2.120000 72 47 68
-0.513422 0.678450 2.095000 71 47 57
-0.507050 0.673652 2.069000 70 47 61
-0.501168 0.669418 2.045000 63 50 65
-0.501168 0.672997 2.045000 57 53 66
-0.498227 0.672607 2.033000 64 51 67
-0.495287 0.672175 2.021000 71 50 67
-0.492346 0.671700 2.009000 70 49 67
-0.492346 0.675217 2.009000 70 51 64
-0.492346 0.678734 2.009000 73 49 62
-0.489650 0.678515 1.998000 75 50 60
-0.486709 0.677916 1.986000 70 51 58
-0.484013 0.677619 1.975000 66 51 56
-0.481318 0.677283 1.964000 68 51 54
-0.478377 0.676561 1.952000 71 55 55
-0.470534 0.668831 1.920000 72 52 56
-0.467839 0.668341 1.909000 72 51 58
-0.465388 0.668164 1.899000 73 49 60
-0.462692 0.667599 1.888000 74 51 61
-0.460241 0.667350 1.878000 72 52 63
-0.460241 0.670638 1.878000 70 52 67
-0.457791 0.670337 1.868000 69 51 71
-0.457791 0.673607 1.868000 68 50 66
-0.455340 0.673253 1.858000 67 50 62
-0.447988 0.665582 1.828000 67 49 66
-0.443332 0.661831 1.809000 69 50 71
-0.441126 0.661689 1.800000 72 49 50
-0.438675 0.661146 1.790000 72 48 30
-0.438675 0.664280 1.790000 71 50 51
-0.436470 0.664057 1.781000 67 46 72
-0.432058 0.660432 1.763000 64 44 74
-0.429853 0.660131 1.754000 68 43 76
-0.427647 0.659799 1.745000 73 45 69
-0.425442 0.659435 1.736000 73 47 63
-0.425442 0.662473 1.736000 74 47 64
-0.423481 0.662445 1.728000 69 49 66
-0.421275 0.662004 1.719000 65 51 71
-0.419315 0.661918 1.711000 65 50 76
-0.417109 0.661416 1.702000 66 52 70
-0.956246 0.763621 3.930000 58 30 34
-0.945296 0.761678 3.885000 61 28 30
-0.945296 0.768478 3.885000 60 31 26
-0.945296 0.775279 3.885000 59 32 23
-0.876437 0.750331 3.602000 61 32 23
-0.867434 0.748864 3.565000 58 36 26
-0.867434 0.755105 3.565000 58 39 29
-0.849915 0.745969 3.493000 59 38 27
-0.841399 0.744547 3.458000 68 40 24
-0.832883 0.743003 3.423000 77 33 38
-0.824853 0.741774 3.390000 71 27 52
-0.824853 0.747709 3.390000 66 31 47
-0.816824 0.746306 3.357000 65 34 43
-0.808794 0.744789 3.324000 65 33 50
-0.793708 0.736607 3.262000 62 35 58
